0.58763254 1.4712732 0.54509604
0.47554296 0.56969714 0.09613644
0.45080322 1.6142073 0.28738192
0.74608225 -0.25184956 0.7536271
0.39402294 1.09955 0.5657325
-0.59072304 1.0440583 0.40733573
0.03781511 0.24347535 -0.34348816
0.65419173 1.2900293 0.58194923
0.28025252 1.8009026 -0.58331597
0.7718027 -0.24897933 0.93160033
0.46380562 -0.08521625 -0.7281941
0.0030708294 -0.41649413 -0.47255868
0.025526218 1.4784095 0.055774573
-0.7342143 1.1032813 -0.14599857
0.29325747 1.478817 0.2739368
0.09866388 -0.24454507 -0.5346546
0.32133812 0.5206062 0.24979907
-0.33657417 -0.08477922 -0.5815036
0.12948245 0.6901088 -0.3668572
-0.9047634 -0.095119245 0.73160756
0.4622962 1.8208297 0.3247965
-0.60875714 1.5329995 -0.0725883
-0.4645483 -0.25171196 -0.92468107
0.42768294 -0.08249615 0.64302003
0.23899904 0.42195368 -0.59050924
0.87084854 1.3961873 -0.15011992
0.88959765 1.2285888 -0.2365468
-0.27984843 1.1009178 -0.022036793
-0.21176818 1.6508493 -0.45538345
0.21619287 0.2313351 -0.18558027
-0.43111694 1.3736432 -0.22150339
-0.73948497 0.8185669 -0.4593847
0.004196896 -0.07576376 -0.13001439
-0.74681777 1.5834036 0.0706896
-0.72581947 -0.0844323 -0.42535877
0.33400518 1.1483448 -0.49943715
-0.59384215 -0.41540253 -0.11104838
-0.36096752 1.4185333 0.56419015
0.10766384 1.4237738 -0.48114705
-0.27126628 0.8644416 -0.23356324
-0.048945136 1.2822909 -0.5480374
-0.24710578 1.2679061 0.6111442
-0.7512244 -0.07891172 0.22011553
0.2439751 0.5908201 -0.75603586
-0.05700589 -0.0887503 -0.76202947
0.76242614 -0.25054967 -0.49172416
-0.5577414 1.3243823 0.6435041
0.61400443 1.3982024 -0.6640494
-0.10020863 -0.24700123 -0.4605624
-0.14044258 1.0964665 -0.7844633
-0.10945019 -0.07933408 0.18113253
-0.7708516 1.1848552 -0.50213546
0.38977185 1.0673304 -0.052701227
0.13956562 1.4567239 -0.09865746
0.22040719 0.9744284 -0.56352884
0.92263675 -0.24820152 0.008802301
0.06673423 0.6619243 -0.8331842
0.838974 0.84448254 -0.34272754
0.6911752 1.7091594 -0.11936793
-0.2267197 0.23123607 -0.06875028
-0.43936902 1.5103536 0.3959654
-0.12109023 -0.24323049 -0.26804003
0.8641915 1.29897 0.24941996
-0.71976995 -0.4208051 0.7733233
0.3314157 1.311453 0.78747374
-0.49916974 -0.41884923 -0.73394334
-0.72543734 0.99956167 -0.5450012
0.15131392 0.41169196 0.20438951
0.29054564 0.9356638 0.8079135
-0.5652851 -0.086418904 0.5380286
0.74596846 -0.08766382 -0.58520633
0.8426516 1.1880246 -0.4050362
-0.1167604 1.5872896 -0.6126654
0.31520733 0.26149565 0.024142258
-0.02052391 -0.41458452 -0.7672111
0.72943616 -0.41853833 0.6454222
-0.11682095 0.73266494 -0.8565209
-0.4660402 0.79495394 -0.52260506
-0.001969283 1.0363817 0.39938354
0.5633687 -0.0850278 0.10915264
0.20149481 -0.41645375 0.28836936
-0.35512 -0.41640908 -0.5970135
-0.38089824 1.3827826 0.73661757
0.13020274 1.3984094 -0.90146196
-0.8906164 -0.09830476 -0.91301274
-0.772562 1.1317123 0.40375516
0.08178541 -0.42272958 -0.2504161
0.39928412 1.2142292 0.08561699
0.4873069 0.46008372 0.3665534
-0.06374136 -0.08184505 0.56896424
0.108002335 1.7927244 -0.31438982
0.12561402 1.2501197 -0.15472567
-0.76398873 -0.2435359 0.32447016
-0.5143603 1.835253 0.123679094
0.42263538 1.2436974 -0.1324358
-0.49149877 0.5607072 0.47036612
-0.86844134 -0.08227563 0.021142263
-0.5093896 0.8680427 -0.06868461
0.75678 1.1398532 -0.5549148
-0.19406255 1.4212976 -0.68165874
-0.22311747 1.7415053 0.5704872
-0.355228 1.9354993 0.024335045
0.56864154 0.855124 -0.72433376
0.3278252 1.7346256 0.22813421
0.6943755 0.9866856 -0.63604784
-0.4036063 -0.087629676 0.43101948
-0.61835957 -0.09138121 0.91566896
0.41297245 -0.083086394 0.4282692
0.59522057 -0.2654751 0.8987592
0.92130375 -0.24617565 -0.39138204
-0.89744526 -0.40684277 0.10621081
0.7561674 1.0915086 -0.07555598
0.91845506 -0.24659193 -0.19139954
0.53419936 0.5442975 -0.5063975
-0.53679323 -0.42187676 0.4832571
-0.13800412 0.25917333 -0.26209393
-0.7106378 -0.41521168 0.40003252
-0.105176196 0.60307693 0.1575111
-0.32603967 1.1088274 -0.49570617
-0.88794017 1.2333351 -0.1102766
0.0042383387 -0.41589364 0.57982504
0.14283521 0.38880324 -0.0011643386
-0.69282615 -0.07955594 -0.024806608
-0.716951 -0.4179201 -0.6282823
0.054247364 0.85467815 -0.7168753
-0.8967336 -0.4070347 0.7187805
-0.90396184 -0.0923361 -0.5300182
-0.61074096 -0.2509196 -0.21393724
-0.3282376 1.0078467 -0.879765
0.43066388 -0.2541396 -0.92478216
-0.5877764 1.6356459 0.40121403
-0.0067616506 -0.41760743 0.37163264
-0.23574446 0.8436518 0.7917236
0.3589678 1.1150895 -0.8831084
0.41255182 1.4770097 -0.58099806
-0.5123427 1.551593 -0.26574063
-0.52400744 -0.2452313 0.9111414
-0.47122404 -0.25402927 0.106620565
0.6339519 1.0142245 -0.40697885
0.0037838756 1.6127095 0.23073095
-0.029491886 0.40237796 0.1298889
0.11125547 0.3124501 0.3789698
-0.2568484 -0.42025056 -0.755146
0.39703634 -0.26678824 0.92190325
-0.2479258 1.5696948 0.4795779
0.38183826 -0.08224961 -0.5447202
-0.1544841 1.1170857 -0.5827018
0.8482442 0.7802495 0.06717604
-0.48364472 1.590199 0.23098284
0.379114 -0.07548687 0.8726293
-0.07722537 0.9606072 0.8434977
0.28143805 1.4717029 -0.3703835
0.3072972 1.937374 0.2266685
-0.35480553 -0.25880122 -0.7703726
0.7363142 -0.08187276 0.21516992
0.29105136 1.1466087 -0.2018264
0.39717883 1.1049662 0.7779925
-0.482853 1.7825251 0.32304603
0.55178404 -0.42387885 0.12766507
-0.70644116 1.2995373 0.46126026
-0.13299212 1.3143257 0.3898448
-0.035078146 -0.25011396 -0.6372335
-0.54371923 -0.084084585 0.7397362
0.78943753 1.5475249 -0.2544847
0.19038473 0.7902297 -0.032894798
0.9232341 1.1832894 -0.06313723
0.5491042 0.6144229 -0.098057285
0.5907655 1.5343385 -0.3341533
-0.09164508 1.7861605 -0.32475457
0.3903818 0.4153716 -0.47670633
-0.09495403 -0.41659045 -0.14278153
-0.7465497 -0.41616172 -0.21781498
-0.27200276 -0.41687852 -0.06916176
-0.2642858 0.68739736 0.25290936
0.9031874 -0.088800475 -0.8969785
-0.36916906 -0.41086364 -0.90292215
0.11787459 -0.25465447 0.31803474
-0.8961674 -0.092153564 -0.33393443
-0.008247421 0.98486406 -0.23360425
-0.17141029 0.65653396 0.7193364
-0.6506554 0.8935936 0.0945435
0.023469038 2.0224032 -0.05485997
-0.08926822 1.465447 -0.46917957
0.92487943 -0.2470276 0.22322324
0.15572049 -0.41481012 0.46040767
-0.029836819 -0.25587097 -0.91571325
-0.9153458 -0.258941 -0.8733034
-0.1747998 -0.41490808 0.25544676
-0.68050086 0.80907315 0.45756269
0.049191803 1.0541457 -0.80339074
-0.23289397 1.374538 -0.8799921
0.71547467 0.94829714 -0.22231375
-0.31375003 0.3041078 -0.30535576
0.6445906 1.4774616 -0.15365471
0.44465673 -0.2405279 0.756101
-0.01180125 1.5625489 0.5403517
-0.40771192 1.6799858 -0.6142287
-0.116108194 -0.24765898 -0.07246744
0.75063455 1.0865983 0.49590838
-0.23139834 0.2629974 0.1687245
-0.18465316 -0.42170608 0.44397968
0.25881085 -0.084005415 0.53752816
-0.2770327 1.2470193 -0.1650492
-0.29348367 1.4503946 -0.36723754
-0.4906487 1.4604342 -0.43152702
-0.40280792 1.1862087 0.7591044
0.3527817 0.77306414 0.7276187
-0.5508741 -0.08441098 -0.55079293
0.09274991 -0.08177777 -0.6722686
0.21025702 1.1187578 0.04183072
-0.8083898 1.3269184 0.30587623
0.3963975 0.9226987 -0.65623844
-0.6814085 0.9824542 0.53999996
-0.4363873 1.1765981 -0.6476681
-0.11120871 1.1663628 0.49898273
0.044094265 -0.2571482 -0.186362
-0.76866126 -0.2450603 -0.1058691
-0.0146380635 1.7047472 -0.47148478
-0.30202115 1.0832679 -0.27381992
0.26741236 1.2348182 0.6204927
-0.26382273 -0.25158384 0.37955338
-0.47715655 0.6105453 0.19873986
-0.52945745 1.2216954 0.12197264
0.259457 0.26941794 0.20479438
-0.12499212 1.4835522 0.15909787
-0.90140355 -0.40520167 -0.10903424
-0.5782547 -0.40454674 -0.9172704
0.5397206 0.77556247 0.6115949
0.105037645 1.2790452 -0.76580083
0.26483804 1.5176952 -0.8275776
0.45069498 1.4475634 -0.76954794
0.07151638 1.4316657 -0.27327773
0.35818902 -0.08507778 -0.18733539
-0.52741647 -0.41856065 0.2802125
0.09847194 -0.083764955 0.4542651
0.07666695 0.2348459 0.18799806
0.90187657 1.0259244 -0.23213565
0.6982306 0.5279293 -0.21200328
0.7371533 -0.085984364 -0.9036935
-0.4245065 -0.25873905 -0.48243213
0.20594382 1.9971564 -0.07577261
0.0939877 -0.23570517 -0.032408997
-0.2182225 -0.4141807 -0.46003115
0.43620372 0.73280776 -0.22987126
0.3908057 1.2889646 0.29587722
0.33870322 -0.41966417 -0.58532107
-0.2694716 0.46174145 -0.60966307
-0.5071609 1.8581247 -0.07757318
0.42393756 -0.41317868 0.616287
0.5202959 1.8593276 -0.094859354
-0.08193536 -0.08643134 0.3789901
0.39989045 0.95447254 -0.4595553
-0.31914496 1.9582267 -0.17728066
0.2362235 -0.39968967 0.91299665
-0.20331517 -0.081534326 -0.41046816
-0.073565185 0.27409506 0.29468575
0.16607404 0.7990899 -0.5239564
0.41017652 1.2775203 -0.35514313
-0.6370714 1.4307227 -0.23953569
-0.27952173 -0.24939415 -0.1751068
0.8365747 1.3848538 -0.36132503
0.5457823 -0.4133277 -0.49879888
-0.42459434 1.0097461 0.29406804
0.1376563 1.1152514 -0.4733816
-0.38301986 -0.25695723 0.24630722
-0.44410914 -0.085707724 0.2364223
-0.18790877 1.2011359 -0.38061202
0.8935188 -0.0947679 0.90684867
-0.057276614 0.62457055 -0.3512417
0.92784286 -0.24984491 0.85730654
0.094242305 1.5862131 -0.3728305
0.20602551 -0.41450292 0.09714773
-0.11119688 1.1315582 0.7036685
0.3652736 1.9524503 -0.00643154
0.22383171 0.29983455 -0.39052498
0.6849128 1.3524449 -0.31213444
-0.4648183 0.8630794 -0.26358828
0.4271431 1.589917 0.61587703
0.7306508 -0.41666517 0.42601073
-0.54796207 1.2843006 -0.74691105
0.52626467 -0.08341935 -0.33142376
-0.5129782 1.0685922 -0.786919
0.72429323 -0.41746116 -0.39269978
-0.89801407 -0.09371327 -0.14553745
0.79103315 0.6419785 -0.06900715
-0.8683989 -0.0944459 0.9115138
-0.87129176 1.2511668 0.09609212
-0.17368928 0.9924636 -0.14240178
0.2914031 0.6869869 0.1264329
-0.20493655 0.4174881 0.036170274
0.3324135 1.7602258 -0.275091
0.2839821 -0.24903746 0.210227
0.106590286 0.94801056 0.0792719
-0.16686317 0.9716251 0.5006966
-0.11060904 -0.2597328 0.91738546
0.54469407 1.0469892 -0.78113806
0.737857 1.3346087 -0.5341204
-0.12482123 1.6857753 0.38890368
0.2141611 1.4420344 0.087323755
-0.19159555 1.4457984 0.7707247
0.2757786 1.3003503 -0.02355194
-0.13958152 0.7533137 -0.65963495
-0.5079093 0.40055698 -0.27023318
-0.7467145 -0.4145037 -0.0011071691
0.1225003 1.3958497 0.6335805
0.715487 -0.08474289 -0.1989913
0.72256815 -0.08277517 0.0048908694
0.49044663 1.6414572 -0.20426968
0.7046782 -0.4157682 -0.7641791
0.32572687 0.91517204 0.03513377
0.25633362 1.5950706 -0.22457565
0.558134 0.40114123 -0.16143218
-0.45657438 -0.083203584 -0.74003184
0.6012864 0.4619982 0.19450624
0.2984552 0.8157995 -0.3709374
0.7126845 1.5252466 -0.46863568
-0.48213458 1.6553828 0.034032658
-0.761973 -0.24919102 -0.32177728
-0.42664406 -0.41562092 -0.19782507
0.78852534 0.90886855 0.38322937
0.35770568 1.5017713 -0.07461473
0.19853869 0.9879111 -0.9316791
-0.77225333 -0.2536943 -0.5276704
-0.32300952 1.5094925 -0.5638677
0.25338584 -0.4095496 -0.28253657
-0.6169313 0.7187355 0.14928931
-0.6692943 1.1254572 -0.34871092
0.43498284 1.2984767 0.5020387
0.10542651 -0.24226081 -0.7634845
0.2452416 -0.08718456 0.32506633
-0.12883371 1.1520983 0.27058637
-0.57812 1.0649691 -0.03641126
-0.89201784 -0.41137034 0.32247612
-0.858742 -0.4050135 0.9049736
-0.7213738 1.5348378 0.2755937
0.3446526 -0.4176342 0.7765956
0.6683688 0.92149746 0.5582197
-0.57513916 -0.25018418 -0.79126
0.2312544 -0.23914659 -0.19909698
-0.8947692 -0.4044758 -0.73639655
-0.40157098 1.3958373 -0.7838253
-0.21454109 1.0035672 0.33069232
0.6269063 1.7885933 0.041141536
0.56484723 1.2592812 -0.22063172
-0.60847414 -0.24714102 -0.010881482
0.74026144 1.2380079 0.089670494
-0.89756197 -0.40774742 -0.32910436
0.82196915 0.9957975 -0.44037724
0.29877794 0.3655458 0.38243848
-0.6538307 1.7326729 -0.0036142343
-0.7328023 -0.41481936 0.21062529
-0.39786536 0.9660951 0.7546457
-0.74362445 -0.08565797 -0.6079663
-0.21498308 -0.4112243 0.90109
-0.66157955 1.4684296 0.4636157
0.89138806 1.3521669 0.04295587
-0.75031734 -0.24275562 0.110793635
0.0010365073 0.6868563 0.31756222
-0.45873702 1.6859326 -0.16864188
-0.51501495 0.62613744 -0.1941826
0.23498532 0.77477175 -0.69042706
0.22030531 0.9596523 -0.7523747
0.31215668 1.3168443 -0.8776042
-0.5477102 -0.41709167 -0.532295
-0.42858374 1.2074909 0.5513481
-0.25708038 -0.08417459 0.30542856
-0.9029937 -0.09556976 0.3474313
0.09546396 -0.08342312 0.6688987
-0.44479755 -0.24807063 -0.09684329
-0.66768086 1.4794074 -0.5152892
0.46537536 0.7864984 0.11143868
0.38806057 -0.082286015 0.008586964
0.15397885 0.44342673 0.54747915
0.78174496 -0.24368933 0.11666325
0.50904226 0.8666094 -0.076865934
0.19137529 -0.079355314 -0.8842056
-0.4055933 1.5056386 -0.06986612
0.59812176 -0.2472574 0.42384422
0.3101921 0.9447863 0.3901281
0.47543955 1.7115288 0.096214905
0.11249919 -0.24768755 0.14475054
0.6920899 1.4269503 0.03491831
0.55838144 1.3113383 0.15734094
0.03438299 1.1085864 -0.640197
-0.029062511 0.9384439 0.23787075
-0.40138614 -0.4189954 -0.39738962
-0.7230871 -0.08867799 0.6255327
0.5469122 -0.41599828 0.33079004
-0.8997042 -0.092816055 0.5400002
-0.63786006 1.695771 0.1984787
0.020287888 -0.4160185 0.1821925
-0.6488367 1.1137745 -0.6684221
0.75506157 -0.25175703 -0.29453146
0.4039966 0.77613187 0.45271885
-0.012297707 1.1406555 0.87299144
-0.91992104 -0.2677456 0.2206268
-0.22041965 -0.092048496 0.90108085
0.14928018 1.267576 -0.57655287
-0.85040915 -0.40539327 -0.91550374
0.3411697 0.9090699 -0.17947805
0.2466838 0.72235584 0.31340387
-0.5836476 -0.41254538 0.10239537
0.4952898 0.73928356 -0.42583826
0.20488015 1.8101676 -0.13741942
-0.3852652 1.2594464 -0.37027478
-0.9256381 -0.24585116 -0.6474395
0.894334 -0.08645636 -0.2906227
0.63753754 0.7281248 0.025313674
-0.69833803 1.2763025 -0.20166889
-0.30049837 1.1591039 0.39797652
0.22959909 0.7824321 0.5457347
-0.5100553 1.5234172 0.587968
-0.030500308 -0.08523944 -0.31498766
0.5240099 0.9868613 0.08084747
-0.53116643 1.4695612 0.102631345
0.12376316 0.85932195 0.35993332
-0.730039 -0.41711387 -0.43023732
0.39159697 -0.41719878 -0.39729774
-0.07835001 -0.08359602 0.75498325
0.1496573 1.3483229 0.82822573
-0.4785824 -0.08357873 0.02600407
0.54491836 -0.42139813 -0.6780212
-0.40250403 -0.08360845 0.6281984
-0.016778098 1.6628635 0.026371878
-0.69391185 0.54193467 -0.005465222
-0.43988103 -0.415344 -0.0026377202
0.22427675 0.61142933 -0.55488765
-0.6634859 0.5266539 -0.20816422
-0.10657474 1.8565586 -0.5489559
0.445946 0.6607878 0.29063773
0.5587491 1.0488229 -0.15151265
-0.056876585 -0.24666983 0.09288737
0.5812959 -0.084353335 0.53131855
0.10391113 0.961576 0.8439268
-0.69334495 -0.41240436 0.59851557
-0.23933098 1.0581973 0.83077997
0.5296078 1.4106482 -0.44808674
-0.8891699 -0.088004276 -0.73653436
0.9086465 1.135502 0.1259405
-0.59968764 1.3954108 0.28339347
0.20216262 1.4530761 -0.6783124
-0.08375287 -0.41214478 -0.32739624
-0.27061227 1.2468011 -0.69892776
-0.22156054 1.7225592 -0.6765144
0.5775378 1.1363871 0.47806978
-0.40268487 -0.085870355 -0.42407644
0.25630474 -0.17194185 0.9278438
-0.76794827 -0.2414112 -0.74516934
0.6963299 1.3835949 0.24352936
-0.43817055 1.3373449 -0.5659194
-0.34536546 1.1615915 0.18107665
-0.32596782 1.6714118 0.31933293
-0.29155022 0.6204335 -0.7455348
0.087111324 0.919134 -0.39125162
0.08232845 1.1993163 0.7181375
-0.58706135 1.3058233 -0.3865896
-0.035342246 1.7512819 0.5953685
-0.20302573 1.8077404 0.2451919
0.011717229 0.5283653 -0.020157192
-0.08538141 2.0007753 -0.23919126
-0.06424016 1.5080566 -0.11938508
0.020865541 0.68897283 -0.16005677
0.04163064 -0.071474925 0.05423315
-0.5391152 1.0827346 0.67375445
0.21523692 1.0621146 0.67490363
0.7299243 -0.41785735 0.2238175
0.42959902 -0.2561903 0.07745734
-0.8710355 0.86089706 -0.052634522
-0.4981303 0.60183597 0.012545822
0.19517983 0.5931634 -0.035403848
0.07594402 1.2858404 0.043249317
-0.41097945 -0.083943196 0.8855654
0.2769701 1.3698103 -0.21023153
-0.35652906 1.9041793 0.23657215
-0.4700455 0.89457446 -0.78080535
-0.21416959 0.6462673 -0.23008564
-0.9247446 -0.2548367 0.8707659
-0.3171404 0.8755363 0.59300244
0.36337453 -0.4195693 0.43127817
-0.23738888 1.3120203 0.20600934
0.039081365 -0.41397062 -0.01880712
0.3540537 0.47507888 0.53298247
-0.45013812 1.0055869 0.09565624
0.19109164 -0.41578597 -0.45381302
-0.45937085 0.74019873 0.3212428
0.18176493 1.6376733 -0.024927538
0.0009253279 0.8459364 0.49000138
0.8694191 0.828724 -0.13648118
0.1953874 -0.075332895 -0.087714806
0.6645518 0.48449767 -0.0027669054
0.21800599 1.13868 -0.7190062
0.40321022 0.55438584 -0.64184433
0.09349589 1.1956168 0.5249975
-0.14768985 -0.4148515 0.06507355
-0.17863083 -0.07869152 -0.20033413
-0.53803456 0.88376886 0.6413676
-0.5245255 1.4973319 -0.66530335
0.90002555 -0.40758052 0.11941485
0.8250419 1.487514 0.17465088
0.56533194 -0.41277692 0.7399504
0.0657623 1.5820334 -0.81517607
-0.24752039 -0.25157565 -0.58964956
0.5234703 1.4513372 0.3312875
0.8961157 -0.40826717 0.5305589
0.26911098 1.8044975 0.062713474
0.36019164 -0.087398455 -0.9081656
-0.05494929 1.4358125 -0.8837526
0.13957775 -0.07544209 0.872275
0.009244272 1.8410568 -0.13637531
-0.20917958 1.9765667 0.13711408
0.27243015 1.858196 0.4102896
0.6106566 1.7397976 0.24126954
-0.5524318 1.1585752 -0.49982703
-0.2557084 -0.08781594 -0.74943376
0.719416 -0.08380596 0.8760427
-0.7235465 -0.082851365 -0.22094667
-0.4503997 -0.24305856 -0.6396308
-0.45711717 1.860986 -0.26591933
0.6473558 1.1988914 -0.6883638
-0.6227108 1.0496615 0.21770915
-0.3096879 1.0411521 -0.6970255
0.37614983 0.7550772 -0.56365347
-0.11478203 0.89723825 0.66610384
-0.3058791 0.70250463 -0.5701543
0.40289825 0.29801685 -0.12380771
0.87266886 0.9299245 0.19061929
-0.35564744 -0.420146 0.3557643
-0.327008 1.5615848 -0.7607935
0.20699364 1.1459286 0.8520224
0.7366563 -0.08380088 0.42543042
0.37624574 1.7264453 -0.07883223
-0.92472816 -0.25287622 -0.42894167
0.4208691 1.7293979 0.48032713
-0.16890189 0.48771545 0.58984864
-0.88262427 -0.41299504 0.5236825
0.52850664 1.078402 -0.5588912
0.49965745 0.9466851 0.48469496
-0.3422822 0.44348216 0.46714002
0.4920476 0.9376668 0.7119906
-0.15246534 -0.25652134 -0.7656679
-0.71028405 -0.26130128 -0.92840683
0.40107617 1.4112755 0.12859797
-0.08948018 -0.24232325 0.63660884
-0.15959492 -0.090550765 -0.91719884
-0.85695124 1.1045535 0.2276743
0.107873574 0.5448244 -0.2243427
0.57787704 -0.08814815 0.74580765
-0.003644466 0.9473555 -0.5616653
0.17105123 1.9963136 0.118738264
0.23565558 -0.41841435 0.61034393
-0.45552567 0.5586344 -0.59095824
-0.29120126 0.68487763 0.06447185
-0.5794363 1.724426 -0.35563558
0.032734245 -0.24768966 0.46907306
-0.6458107 1.1715609 0.55946743
-0.78205955 0.9460768 0.3424236
0.75016594 -0.2536971 -0.08995405
-0.24344774 1.3202744 -0.514668
-0.048167355 1.3132463 0.18960527
0.71569824 -0.08415274 -0.3933565
-0.66141605 1.3190211 -0.60239494
-0.7969669 0.7167802 0.067408845
0.5679381 -0.083057284 0.3181554
0.2620086 1.5779607 -0.54344404
-0.10471548 1.5727959 -0.30658302
-0.28580105 1.842373 0.41837913
0.41459638 1.6055694 -0.3955288
-0.51037955 1.1958292 0.3403018
0.30476 0.45956886 0.07413882
-0.19998592 0.45405406 0.23848352
-0.4169886 1.0280459 0.505521
-0.066455856 0.8118819 -0.2802861
0.31879452 -0.23868728 -0.78104174
-0.1366188 0.80856335 0.34662056
0.62494093 -0.27802306 0.07451129
0.64865613 -0.24968952 0.24758658
-0.3940261 1.6303723 -0.39954203
-0.13850728 1.5841539 -0.8087869
0.10483635 -0.41450927 -0.62408304
-0.15411857 0.93565345 -0.9238822
0.6465104 -0.24349037 -0.91953397
-0.6356694 0.64402544 0.3696786
-0.5970479 -0.2576631 0.25357658
0.5714506 -0.41491842 0.5229244
-0.14343758 1.1982923 0.036552504
0.3228436 1.3018456 -0.6933067
0.01313357 1.0312616 0.6241208
-0.6895963 1.2219044 0.22855803
-0.17006728 0.7375338 0.5429344
0.896295 -0.09041988 0.7314964
-0.56352985 1.6344842 -0.51379704
-0.5865357 -0.08817288 0.34425664
0.394292 0.3276835 -0.30301088
0.31157172 1.4121778 0.59965134
0.25612566 1.5210018 0.74285364
0.6942307 1.1766047 0.28096318
-0.1576413 0.78602755 -0.08198708
-0.13178238 0.8084762 0.13270254
-0.62577426 -0.2509056 0.4650339
0.15370107 0.83981156 -0.22885671
0.91752577 -0.24956945 0.64367926
0.16719618 1.1860728 -0.9357054
0.4151405 -0.2532832 -0.28974664
-0.5467608 0.42053258 0.12023184
-0.4949867 -0.26165444 0.5941938
-0.3415721 0.69867134 0.4692092
0.9244261 -0.24795693 0.43751502
0.5947038 -0.25148958 0.6447416
-0.5517076 1.3453019 -0.066023946
0.53399825 1.1281098 0.20355965
0.8518508 1.0884979 0.31434664
0.15001556 0.5259756 0.36096138
-0.36728907 0.7226197 -0.32751203
-0.7711649 -0.25397825 0.5433562
0.2252432 1.921927 -0.4075473
-0.024835704 1.80423 0.21584612
0.54582417 -0.08669329 -0.9100457
0.21774273 0.59424937 0.66618973
0.096214056 -0.2569286 0.9243914
0.6547568 -0.082545325 -0.73745894
0.014707366 1.2720671 -0.35852522
-0.07526751 0.21211389 0.066433296
0.49695152 1.253536 -0.80240095
0.15325916 -0.0827025 -0.28982937
-0.79009557 -0.2527061 0.73502207
-0.74179935 -0.08305368 0.43389443
0.5017842 1.2406446 0.69937897
0.20984344 1.261722 -0.3600412
0.093699425 1.4086447 0.24544513
-0.37897205 0.7477783 0.69578433
0.5869172 -0.2461927 -0.2164617
-0.22068828 1.2531881 0.8221257
0.7816355 1.2620502 0.42735472
-0.5820695 0.87243503 0.27500242
-0.17792293 1.8620042 -0.157316
-0.62214327 -0.40400207 0.90430474
0.24519423 -0.24618983 -0.39661992
-0.56273997 0.5202227 -0.41283613
-0.42968994 1.8090522 -0.44269815
0.7806618 -0.24980825 0.33908117
0.9145851 -0.24225599 -0.59654605
-0.15123793 -0.08042845 -0.002448576
0.031180255 1.3741016 0.46439368
0.3368054 -0.08331482 -0.36375535
0.6008619 1.0869982 0.65527403
0.549883 1.5901414 -0.029634593
-0.69682395 1.2347715 -0.010604283
-0.38113588 1.2077966 -0.8567866
0.897684 -0.4077677 -0.08878972
0.6890282 0.74410063 0.46657813
-0.13734852 0.59009075 -0.53674585
-0.35550588 0.547214 0.32519716
-0.3403721 0.58863235 -0.44130707
0.06817585 -0.257838 -0.35879788
0.7320538 0.81825644 -0.53472716
-0.48036826 0.9905898 -0.5805734
-0.05586455 1.3211386 0.64469504
-0.6760392 1.3816993 0.09377782
0.27258366 -0.08226824 -0.70377135
-0.895594 -0.4064206 -0.53816545
0.043457307 0.6724713 -0.64554226
-0.27591628 1.072462 0.628114
-0.028291253 0.77415156 -0.4864719
0.89159524 -0.40800047 0.7312336
0.22332215 -0.08086091 0.11657969
-0.20461404 0.75936717 -0.41778815
0.060961686 1.6474128 -0.18418773
-0.44610968 -0.25049216 -0.2928533
0.8996166 -0.088614255 0.53076893
0.886639 -0.40156835 0.90513176
-0.048798602 1.3171445 -0.116976306
-0.49594638 0.8671313 0.4570123
0.57769036 1.70421 -0.4453235
0.30734497 -0.4032774 -0.9171524
-0.29504576 1.5871222 -0.22321025
-0.53214836 0.46762186 0.31070113
-0.35113892 0.91447437 -0.42679614
-0.14221156 -0.40872008 -0.91056323
-0.17457032 1.650006 0.1758401
0.44536015 0.8949871 0.2612453
0.27100137 1.7102458 0.5984415
-0.36992514 -0.41514814 0.55161935
0.569489 0.62742484 -0.296438
0.20817266 -0.41349977 -0.7592945
-0.14306429 1.8186948 0.036540795
-0.53195965 -0.084424496 -0.1516225
0.5403882 -0.10155476 0.9157857
0.7526214 0.60046 0.13354018
0.5388994 -0.07201915 -0.12599331
-0.21173218 -0.2560261 0.7635572
-0.010018979 1.0635059 -0.9619696
0.11818513 -0.41880786 0.75164175
0.2639728 -0.24255303 0.0073144543
-0.34568465 -0.4188641 0.15140787
0.2561857 0.42781895 -0.16798946
0.03648158 0.86021674 -0.9136576
0.25101787 -0.25548816 -0.6076152
-0.12415711 1.614554 0.69895434
-0.06899619 1.8682189 0.4532901
-0.20245062 1.1697972 -0.93050843
-0.45488524 -0.25826874 0.4111932
-0.16441195 2.009008 -0.04309179
-0.13058841 -0.25976694 0.47394747
-0.32760203 0.8618662 -0.6559993
0.090105325 0.77931273 0.17475548
0.22667874 -0.26040593 0.7767788
0.93208313 -0.24667186 -0.7838013
0.44310573 -0.2549475 -0.63196325
-0.29112625 -0.25499848 0.024936931
0.30736718 1.3534182 -0.5074916
0.7231408 -0.3986538 -0.91970634
-0.712924 1.5699023 -0.34604287
0.07793975 1.8314092 0.040829957
-0.3456471 0.50272954 0.12489101
0.18728566 1.6979918 -0.71768486
-0.92315894 -0.2592618 0.4296887
0.44975433 -0.24735992 0.5265344
0.40132943 -0.2555647 0.35392362
-0.9128025 -0.10511282 0.16901538
-0.47098142 0.7188234 -0.70925975
0.43193898 0.34921396 0.20874974
0.40443707 0.5205638 -0.26816088
-0.30515862 -0.086324796 0.117019996
0.013225172 -0.082977265 -0.48458612
0.70489115 0.9133657 -0.01912921
-0.40866992 -0.2398546 0.7549933
-0.23091385 0.41855198 -0.16821218
-0.06684292 -0.2501615 0.286626
-0.22444019 1.5950147 -0.009453366
-0.410859 1.0092423 -0.1436058
0.78856176 0.6846407 -0.2678133
0.90233517 -0.08649449 -0.49135053
-0.31288254 1.3408767 0.4105922
0.121008515 0.88641393 0.6666642
-0.32232052 1.5785499 0.6665534
0.5354985 0.6058182 0.49153143
0.26045114 0.66362274 -0.21185964
-0.621851 0.8760378 -0.6518079
-0.16179287 0.31608507 -0.4607765
0.38254428 -0.41974396 0.013885533
0.08902684 -0.40485495 -0.91162264
-0.13814905 1.3656682 -0.29536352
-0.7169929 0.90980506 -0.08223143
0.4007275 0.63888586 0.62271094
0.01089818 -0.4109 0.90666056
-0.041666068 1.3270733 0.84038
0.4752043 1.8835945 0.12940747
0.39825574 -0.08398545 0.21398236
-0.42065036 1.3552308 0.23936665
0.08200392 0.48464563 -0.69858253
-0.45442748 0.79362404 0.10452904
-0.21547389 1.0212224 0.14872542
-0.057900526 0.35352385 -0.06880036
0.2677496 -0.08744194 0.7294166
-0.8961563 1.061095 0.00847153
0.47098613 1.4193442 0.6885158
-0.7326639 1.0719297 0.074003115
-0.018093273 1.9985704 0.13908172
-0.73114467 -0.08546622 -0.9007935
0.4031548 -0.42002684 -0.1831097
-0.07553073 0.49613512 -0.20245163
0.12664865 -0.252529 0.60920656
0.89440274 -0.0875012 -0.09090161
0.88692784 -0.082001135 -0.70701194
0.55984104 -0.415853 -0.2928127
-0.159016 1.4414248 0.5636263
-0.47115248 1.0582197 -0.35473162
0.34024078 1.066381 0.19356835
-0.30029207 -0.24723473 0.5776931
-0.37460312 0.5216188 -0.26917177
-0.38555932 0.40224952 -0.45576072
0.41391373 0.7230494 -0.7646328
-0.6181736 0.6840128 -0.5507537
0.5806768 0.80345786 0.3596033
-0.64196366 1.7265805 -0.19142345
-0.08157611 1.4913714 0.3559404
-0.6058198 -0.09389365 0.14188015
-0.73137456 -0.08288729 0.7996974
0.49461114 -0.24947444 0.22584932
-0.0034904473 0.1959449 -0.13826571
0.20801774 0.4816283 -0.3735361
0.22843713 0.7848445 -0.87108785
-0.018210225 1.7406664 -0.70478034
0.73453176 1.4456472 0.41505104
0.34699744 0.6183847 -0.4141793
-0.3601808 -0.08497912 -0.25606495
-0.828855 1.4294193 0.14873521
0.17052925 1.0038433 0.4960577
-0.08140689 0.4135285 -0.60768694
-0.39598805 0.30907303 -0.13253328
-0.8175603 1.0013769 -0.37819064
-0.53497016 0.70219404 -0.38262284
-0.41656464 1.6939874 0.5079138
-0.16797052 0.5933511 -0.045730278
-0.12648347 1.9531013 0.30608922
-0.9232073 -0.2562123 -0.21894568
0.5635036 -0.40795833 -0.0779512
-0.85499465 1.1975127 -0.3092782
0.85663676 -0.2495121 -0.92983484
0.48528287 1.272244 -0.5831957
-0.20061433 0.47841424 -0.37246084
-0.36979198 0.72531533 -0.11197087
-0.31848842 0.8686224 0.2043368
-0.10247591 1.1595331 -0.20778152
0.08039476 0.36296022 -0.20396715
0.57967424 1.2895539 0.37937093
0.7531979 -0.25095195 0.5403789
0.8935503 -0.40798503 -0.68893945
-0.035785988 1.0941182 -0.42355275
-0.36421072 0.51074886 -0.07402311
0.37372777 1.6234066 -0.7092486
0.40687567 -0.25586963 -0.108900815
0.40962964 1.843723 -0.42064202
-0.20162562 0.35223833 0.4035712
-0.23452556 -0.084602624 0.5118445
0.21436217 -0.4104054 -0.09763932
0.12720376 0.2099528 0.004921245
0.66418135 0.8694632 0.17847176
0.35147518 1.9414003 -0.22273901
-0.88250536 1.0199963 -0.19199334
-0.027642958 -0.09644619 0.9131534
0.9120016 0.97726804 -0.011939264
0.005667134 0.7175866 0.029415516
-0.2575879 -0.084571615 0.7147074
0.39549395 0.5112953 -0.07803208
-0.32118613 1.7597499 -0.07404353
0.37562072 0.7136022 -0.04843028
0.19794351 -0.24647155 -0.9271836
0.104246706 1.1080433 -0.2726012
-0.23238897 1.9318254 -0.37026334
0.5613128 -0.0856637 -0.5353236
-0.33280706 1.5115042 0.12278451
0.4388211 1.7135191 -0.5652306
0.60219115 1.2137421 -0.43201137
0.9007414 -0.08655237 0.112319544
0.6271666 0.99828887 0.32649708
0.6010917 0.68359864 0.19912967
-0.33510274 0.5848174 0.61058676
0.22569698 1.7095306 -0.43080777
-0.42669505 -0.40793586 0.8961688
0.12071067 1.5316677 0.37164518
-0.73316884 -0.24935345 0.91845167
0.3931672 0.91497344 -0.8500042
0.5880759 -0.25032264 -0.41190976
0.71004486 1.1373923 -0.2718392
0.5675601 1.5725293 -0.6028861
0.3502646 1.5905082 0.092775114
-0.8209473 0.8391839 -0.26750368
-0.7870047 0.68355274 -0.14121228
0.39680916 -0.4120559 -0.7653655
-0.63753295 0.7885684 -0.24003991
0.7062636 1.5878088 0.29444653
0.7264421 -0.41752657 -0.18851846
0.7308243 1.6462502 0.09568451
0.73709047 -0.08370643 0.6455029
-0.62003505 -0.25636053 -0.61842
0.02067502 1.1078986 -0.06020896
-0.25524765 -0.41429353 -0.26614705
-0.3783865 0.3502103 0.26852316
0.19757862 -0.08392032 -0.49838638
0.1633186 0.7447598 0.7817104
0.09889211 1.844578 -0.56679547
0.45745963 1.096058 -0.3172489
-0.64580107 -0.08178994 -0.74131763
0.15497173 1.8014739 0.23416069
-0.5532216 0.41167334 -0.07394919
0.31235152 -0.2509331 0.62153554
0.0036369355 1.9456427 -0.4116711
-0.31349453 0.8657223 0.39867115
-0.33998823 1.7372139 0.122188084
0.89967203 -0.40801883 0.3252362
0.21978351 1.2555051 0.20200127
0.024395833 -0.24430585 0.76895714
-0.77523977 1.361697 -0.41228285
-0.5182698 1.1851128 -0.21449362
-0.5137378 1.3415561 0.45246068
0.25586987 0.88040984 0.19847488
0.6542497 0.8162401 -0.36037153
0.5688052 -0.20350449 -0.046448465
-0.6838769 0.5644262 0.19017649
-0.59255195 0.9204581 -0.42072466
-0.3013694 0.8933434 -0.003318081
-0.27988327 1.8199086 -0.52302927
-0.8332485 1.4075682 -0.2372097
0.18354541 1.0018866 -0.11384401
0.6791533 1.6873294 -0.298858
-0.93193513 -0.2554229 0.6349256
0.48342803 -0.41419032 0.90476096
0.7215009 1.2847795 -0.10820806
0.1664204 1.6218877 0.17112005
-0.32805842 -0.08483122 -0.07587236
0.021241995 1.5018926 0.77164346
-0.76699215 1.5826153 -0.14306846
0.063375816 1.2212973 0.3338229
-0.19591436 0.9244282 -0.54585886
0.068106234 -0.08431134 0.25041068
0.1288029 0.66268134 0.4813844
-0.12704495 -0.41608804 -0.61609685
0.26000446 1.6609676 0.3849563
0.89980036 -0.40659082 -0.48938584
0.19229302 1.5544076 0.5360646
-0.4369551 1.1863055 -0.0477654
0.3852087 1.5029047 0.44918138
-0.18054168 0.58420503 0.40110308
0.114832714 0.5854982 0.1594311
0.45473775 1.4421377 -0.24136165
0.73500204 -0.42051238 0.018813891
0.021636365 0.7248552 0.63294303
0.06695528 1.7151678 0.39696306
-0.26278812 1.4917307 0.2994014
-0.025497857 1.256527 -0.9384457
-0.29830793 0.803271 -0.837649
0.12707262 1.8194021 0.52441335
0.56651115 0.44756848 -0.35349798
0.896346 -0.40798396 -0.2898196
-0.5777799 -0.4151138 -0.3212911
-0.024124334 0.4764328 0.3171034
0.034405336 -0.09044265 -0.9141787
0.5798431 1.172116 -0.0038314622
0.09187008 1.945893 0.32937592
-0.7185497 0.6542015 -0.34798694
-0.18874368 -0.4120068 0.6153059
0.5667589 1.5291352 0.15009105
0.22683723 1.3525271 0.42294562
-0.39343083 0.31118363 0.0564368
0.55405444 0.8800268 -0.53367174
0.02152219 1.1219487 0.14946769
0.7612183 -0.2417871 -0.74156106
-0.13338034 1.6889801 -0.14653087
-0.32184035 -0.4153884 0.7402407
-0.08791331 -0.4152593 0.7582375
-0.6190376 -0.2519101 0.7251961
-0.12767456 0.925216 -0.7375777
-0.25121194 -0.25611505 -0.9240091
0.7307125 -0.41371003 -0.5843165
-0.60116184 -0.2499071 -0.42678
0.7875036 0.7453508 0.27072743
-0.13584739 -0.08518558 -0.5941553
0.0064150477 1.4366282 -0.6784915
0.6950494 0.6365928 -0.43692088
-0.35537326 1.3269198 0.02892736
-0.15823466 0.97378385 -0.3706618
-0.55202687 -0.09087616 -0.915346
0.26294413 1.1613345 0.40657878
-0.8471515 0.9104742 0.1501171
-0.2754937 -0.24573943 -0.37770408
0.5300968 -0.4105953 -0.90009093
0.4117959 -0.2443891 -0.47024763
-0.70196605 -0.41829377 -0.80234873
-0.32085258 -0.25177455 0.92236376
0.3784117 -0.41737616 0.21920642
0.015119178 0.8799038 -0.08318494
0.055762455 0.5468743 -0.5000761
0.8147703 1.5520446 -0.045162104
0.70074356 -0.41754764 0.87758434
0.5077243 0.35938075 0.03370074
-0.561633 -0.08525658 -0.33769608
0.65128326 0.77250093 -0.16756433
0.5353833 1.8228283 -0.27315855
-0.08303307 1.2657309 -0.749621
0.657943 0.58704245 0.33802685
0.08138389 1.6029392 -0.58708405
0.89523375 -0.40606514 -0.88222444
0.57754695 0.69073844 -0.61993384
-0.7658856 0.76102895 0.26576978
0.4400872 1.1017753 0.36168814
0.54824185 -0.2548537 -0.7787317
-0.35714906 -0.08823724 -0.9123187
-0.10591337 0.55469364 -0.74943316
-0.027318103 0.5886259 0.4980061
-0.21545559 -0.24580675 0.18112892
-0.24505544 1.4289947 -0.15083042
-0.026096221 0.7709714 0.8055403
0.15955383 1.0486764 0.26814657
0.3142441 0.60076827 0.44193038
-0.92447335 -0.24893726 0.0036606505
-0.011141067 0.42570764 -0.3723054
0.102804 1.6533461 0.6844355
-0.8243518 1.4177065 -0.046786465
0.39009902 1.108777 -0.6861597
-0.09329048 0.978227 0.03182503
-0.6270076 0.98097515 -0.23424698
0.5824655 1.6351779 0.439575
-0.028103493 0.38685954 0.503124
-0.5194169 -0.41884032 0.71153766
0.72218883 1.047709 0.12857985
-0.28774154 1.7615654 -0.29314736
-0.6238123 0.7250959 -0.051767886
-0.17115939 1.3857856 0.016177189
0.5021113 0.90666914 -0.2896154
0.9020224 -0.08753021 0.32302892
0.24852118 -0.2515173 0.4435405
0.26283824 1.0154474 -0.33986786
-0.5316775 0.70753896 0.5610181
0.12713116 1.9907992 -0.24833938
0.017776413 0.5521995 0.68706423
0.07120256 0.33888337 -0.5214295
0.5130307 1.3768797 -0.03554206
0.33673382 0.9193494 0.6004398
0.62456477 -0.2500368 -0.6089741
