0.62099886 1.2544076 0.48481578
0.5299172 0.36320323 0.03662674
0.47026753 1.393847 0.2359284
0.74310887 -0.25268143 0.755213
0.44314075 0.87761116 0.5161927
-0.5491065 0.80600274 0.40134895
0.098088875 0.077461064 -0.39982766
0.6948724 1.076138 0.52093524
0.25013077 1.5889914 -0.6115572
0.7685212 -0.2485851 0.93319917
0.46180403 -0.08435134 -0.7282382
0.0003985291 -0.40943468 -0.4743324
0.0368979 1.2504206 0.026894195
-0.72061443 0.8621938 -0.14479682
0.3162946 1.252167 0.22966577
0.092551365 -0.21762937 -0.5338387
0.38596544 0.30699193 0.20467247
-0.33317596 -0.041225165 -0.58151853
0.1491952 0.48334855 -0.42315102
-0.9041256 -0.09522868 0.7310742
0.47744286 1.5953889 0.2767207
-0.60266113 1.2894163 -0.070950344
-0.46583992 -0.2539692 -0.9229051
0.4261843 -0.08165338 0.6420323
0.26591885 0.22405925 -0.66939557
0.8705294 1.2002449 -0.22402582
0.8950474 1.0354527 -0.31289607
-0.26669484 0.871608 -0.036555905
-0.22878684 1.4161692 -0.46658754
0.2583504 0.07735375 -0.25712475
-0.4256264 1.1340134 -0.22880629
-0.7362893 0.5781502 -0.4653173
0.013088753 -0.104708955 -0.13460898
-0.7351891 1.3332796 0.07916556
-0.7280716 -0.08476302 -0.42685276
0.3306722 0.94272166 -0.5455456
-0.5878209 -0.41004884 -0.1099196
-0.3248945 1.1702268 0.5494137
0.09574404 1.2091029 -0.51415336
-0.25547457 0.6439869 -0.25686735
-0.06393107 1.0649779 -0.5765724
-0.20291097 1.0246079 0.59126806
-0.75201774 -0.08009883 0.2214737
0.24654077 0.38850057 -0.81832176
-0.061103232 -0.079922736 -0.769134
0.7627387 -0.25143456 -0.4923526
-0.5140294 1.074403 0.63996434
0.5893775 1.2031131 -0.7154002
-0.09955537 -0.2243525 -0.46635413
-0.15888351 0.8793355 -0.81120807
-0.10010661 -0.071533054 0.1779241
-0.77456105 0.9408082 -0.49856302
0.41111133 0.8581254 -0.11146416
0.14567015 1.234318 -0.13331011
0.22170314 0.7656838 -0.61038744
0.9226279 -0.2496926 0.013191854
0.063100085 0.45162708 -0.88537556
0.8523849 0.6537515 -0.4213186
0.69189405 1.513735 -0.18272716
-0.19215566 0.0820103 -0.09992708
-0.41111696 1.2586594 0.39084667
-0.11796038 -0.23748004 -0.2742234
0.8853469 1.0977237 0.17650858
-0.71785843 -0.42107028 0.7734701
0.38287893 1.0787573 0.7427372
-0.49612665 -0.41789046 -0.7283183
-0.7250029 0.75917083 -0.5460832
0.20800707 0.2277921 0.15897894
0.355179 0.7108344 0.76103294
-0.56654507 -0.0887319 0.53055805
0.7444434 -0.08777499 -0.584501
0.84401274 0.99643946 -0.47886664
-0.14016652 1.3619182 -0.63104415
0.35231888 0.105963424 -0.048411757
-0.020922769 -0.41171485 -0.761249
0.7259363 -0.41882688 0.64678204
-0.12694551 0.51868397 -0.8916934
-0.46012205 0.5603119 -0.5405415
0.04186656 0.8051905 0.36745793
0.5805653 -0.041252427 0.11210851
0.20139316 -0.41237956 0.28511775
-0.351718 -0.40989697 -0.5914927
-0.3359436 1.1353935 0.72435474
0.099157065 1.1926111 -0.93674934
-0.89104 -0.09895983 -0.9124339
-0.7345102 0.8814928 0.40467516
0.08119041 -0.42664734 -0.25674838
0.42194873 0.9978726 0.03259273
0.55378854 0.24697469 0.31052834
-0.06305233 -0.05136536 0.55813
0.09514281 1.5689675 -0.3378775
0.13650471 1.0286849 -0.19331498
-0.760993 -0.24572274 0.31974
-0.51101065 1.5918272 0.12816888
0.4324582 1.0373266 -0.18531679
-0.44249567 0.32151812 0.46096838
-0.8649186 -0.08157549 0.022128854
-0.4899193 0.6373567 -0.0848304
0.75463283 0.94683 -0.62518394
-0.21577168 1.1968372 -0.6993922
-0.19469796 1.4882638 0.5529134
-0.35961157 1.695973 0.023265135
0.5625839 0.66568947 -0.7912462
0.3406125 1.5094917 0.18678631
0.69115746 0.79539174 -0.7052508
-0.39802092 -0.06134782 0.41234773
-0.61535287 -0.09156402 0.91512096
0.41411436 -0.059335195 0.42868316
0.59068346 -0.26746956 0.89984655
0.9213784 -0.24868488 -0.39013696
-0.89474523 -0.40761906 0.10532448
0.77175254 0.8918216 -0.14780468
0.9188335 -0.24930294 -0.18784814
0.559641 0.35137376 -0.5796919
-0.5321382 -0.42204937 0.48216876
-0.09879133 0.11040667 -0.3179639
-0.71068794 -0.4169215 0.39915365
-0.06456199 0.4022848 0.13071951
-0.3291461 0.87695956 -0.51642823
-0.87590206 0.9895302 -0.099912226
0.003945276 -0.4102267 0.5714335
0.1860927 0.23060997 -0.055207565
-0.6912812 -0.07195768 -0.036167853
-0.7130703 -0.41813028 -0.6239792
0.04624017 0.6354469 -0.7648415
-0.8961352 -0.4071823 0.71845144
-0.9043956 -0.09324636 -0.52914214
-0.60488135 -0.23313591 -0.20984244
-0.3475647 0.78581524 -0.90143734
0.42789257 -0.25506753 -0.9223592
-0.56015176 1.3759576 0.39950085
-0.0058886902 -0.4108858 0.36812794
-0.16762078 0.6034953 0.76123345
0.33352494 0.9203783 -0.9272743
0.38996685 1.2731383 -0.62477416
-0.5139837 1.310192 -0.26517552
-0.52046394 -0.24549952 0.9122405
-0.4586618 -0.21803018 0.093306094
0.64129233 0.8173931 -0.4740457
0.022329457 1.3788445 0.20299758
0.01803765 0.23211494 0.0946223
0.17764872 0.112881586 0.34437346
-0.25541037 -0.41906005 -0.7498427
0.39119405 -0.26649374 0.92256826
-0.21803242 1.3212149 0.46423656
0.3806979 -0.044147126 -0.552156
-0.16384117 0.89350736 -0.6111634
0.88436306 0.582101 -0.009973138
-0.46359688 1.3411407 0.22748452
0.38050526 -0.07502267 0.87194055
-0.011578642 0.71654296 0.8201426
0.27621794 1.260597 -0.411965
0.31357414 1.7078012 0.19241421
-0.3536412 -0.25725108 -0.76726544
0.7391523 -0.07975117 0.22124922
0.3039006 0.93581825 -0.2548296
0.4596994 0.8813954 0.7334058
-0.46488953 1.5312409 0.31740513
0.54986715 -0.41721135 0.12702854
-0.67172647 1.0457214 0.46192664
-0.103046924 1.0768195 0.36226517
-0.04101929 -0.22968033 -0.63721836
-0.54043245 -0.08339738 0.73589545
0.78315544 1.3519754 -0.32811093
0.22394188 0.5854569 -0.08162785
0.9357359 0.9895271 -0.13942072
0.58939373 0.40782583 -0.16922578
0.5834048 1.3385229 -0.39225048
-0.10614544 1.5517738 -0.33772576
0.42663234 0.2212672 -0.5601793
-0.09711452 -0.41807228 -0.14690962
-0.7403837 -0.4151429 -0.21484765
-0.27260447 -0.41334543 -0.07376803
-0.22390571 0.46078154 0.23815687
0.90283805 -0.08915375 -0.8967266
-0.3689791 -0.41224864 -0.900003
0.12533116 -0.24260792 0.31753832
-0.89732987 -0.093428135 -0.3328655
0.0042314953 0.7668618 -0.27352798
-0.10417649 0.41946298 0.69065773
-0.6253954 0.6549885 0.088929564
0.015668938 1.7901185 -0.06643046
-0.10229014 1.2397858 -0.491559
0.9251652 -0.24892363 0.22825868
0.15492514 -0.40850893 0.45485854
-0.030989153 -0.25751477 -0.91391957
-0.9154515 -0.26048946 -0.87195253
-0.17484662 -0.4088758 0.25095713
-0.63107634 0.56624866 0.45212707
0.032870017 0.83982 -0.8314723
-0.26090598 1.1512241 -0.8928669
0.73132443 0.75013864 -0.29364863
-0.29275632 0.10973321 -0.33957893
0.6465224 1.2769163 -0.21728396
0.44079673 -0.24056175 0.75514275
0.020451361 1.3181347 0.5144097
-0.42974287 1.4442108 -0.61715096
-0.11387046 -0.25183147 -0.080835
0.79555297 0.877125 0.42832035
-0.18875626 0.09174255 0.14254373
-0.18352205 -0.41487828 0.43698904
0.2575385 -0.052213438 0.529214
-0.26708272 1.0082703 -0.18443245
-0.29841208 1.2137793 -0.38003534
-0.49738154 1.220398 -0.433627
-0.3457471 0.93829834 0.7410066
0.41601643 0.55227244 0.67225957
-0.5527606 -0.079855815 -0.5519306
0.083698176 -0.05056776 -0.6812309
0.23458013 0.9061725 -0.007681141
-0.781379 1.0806408 0.31449565
0.39179453 0.72132313 -0.71305543
-0.6329916 0.7339363 0.5349609
-0.4485157 0.94465935 -0.66174644
-0.06397325 0.933268 0.47249383
0.050394565 -0.27305043 -0.19225946
-0.7648169 -0.24436982 -0.104837574
-0.03368748 1.4747121 -0.48929787
-0.29131094 0.850137 -0.2990425
0.3154545 1.0045402 0.57738763
-0.25920516 -0.22731744 0.3699717
-0.4418393 0.38085544 0.18585427
-0.509648 0.9829645 0.11508383
0.31764746 0.09561388 0.15115805
-0.10712488 1.245335 0.14173412
-0.8979467 -0.40639797 -0.1058165
-0.57803833 -0.40593818 -0.91508317
0.5986562 0.5625982 0.54813755
0.08352281 1.0695802 -0.8024522
0.22541082 1.319257 -0.8696976
0.41571435 1.2473953 -0.8135601
0.071241826 1.2087102 -0.3046687
0.38892782 -0.06865372 -0.18673128
-0.5260246 -0.4123241 0.28359222
0.10224119 -0.03325693 0.4594096
0.124088444 0.07526694 0.14266539
0.9123528 0.83386034 -0.31134582
0.7368747 0.3298083 -0.28703535
0.7360385 -0.0863259 -0.90173626
-0.41815263 -0.23216897 -0.47889495
0.19775748 1.7745712 -0.10377752
0.103352144 -0.24555352 -0.03538862
-0.21788415 -0.40448892 -0.45883697
0.4654625 0.5273377 -0.293391
0.41985044 1.0670526 0.24421966
0.33522958 -0.4147876 -0.57992566
-0.2650357 0.24059351 -0.6548148
-0.5150668 1.6150346 -0.07701434
0.41980872 -0.4109761 0.61212623
0.5094651 1.653069 -0.14230159
-0.07527116 -0.056041207 0.37678766
0.4058039 0.7517143 -0.516773
-0.3316428 1.7150068 -0.17975897
0.23208652 -0.39921653 0.9123721
-0.20432627 -0.049502924 -0.42577225
-0.019158367 0.09599271 0.26527065
0.16972624 0.5897591 -0.57787716
0.41084406 1.0733175 -0.40565562
-0.6322043 1.1867342 -0.23850614
-0.28065783 -0.2344623 -0.17945743
0.83111554 1.1923738 -0.4307175
0.5420876 -0.40989274 -0.49187928
-0.38692713 0.7703187 0.28136328
0.13844875 0.9014605 -0.516454
-0.39237162 -0.22290428 0.24614406
-0.4536913 -0.02313818 0.21855256
-0.18845716 0.97552896 -0.40780574
0.89276505 -0.095225 0.90819407
-0.036042113 0.42009315 -0.4014321
0.92708004 -0.25050744 0.85863644
0.08515841 1.3649083 -0.4006737
0.20786081 -0.4133126 0.09581366
-0.05726687 0.89204806 0.6752856
0.3585387 1.7317288 -0.04353322
0.2767614 0.10991798 -0.4886115
0.6804291 1.1552262 -0.37726432
-0.45141435 0.63398707 -0.28024733
0.45958877 1.3625386 0.5658531
0.7270448 -0.41646504 0.42736638
-0.56827366 1.0487761 -0.7548468
0.54933894 -0.041673064 -0.3231073
-0.53125584 0.8364655 -0.79965436
0.7213309 -0.41664967 -0.38784575
-0.8982229 -0.094723046 -0.14372504
0.8270428 0.44801897 -0.14555982
-0.8677077 -0.09456004 0.91202927
-0.85008085 1.0049157 0.10312943
-0.1549361 0.77724993 -0.1634498
0.33687168 0.47511682 0.074776515
-0.16906865 0.24161509 0.013275107
0.32421356 1.5523639 -0.3100243
0.2891658 -0.23446578 0.21099547
0.14851232 0.7357998 0.039295454
-0.116602495 0.7380028 0.47481227
-0.11146121 -0.25975543 0.91740024
0.52761805 0.8548143 -0.83732855
0.7250059 1.1409203 -0.5971669
-0.10407771 1.4420879 0.36656553
0.22875142 1.2189044 0.048209272
-0.14740866 1.2004956 0.7565259
0.29122043 1.0860391 -0.068963945
-0.1393645 0.53342265 -0.69869995
-0.5035486 0.15508571 -0.29879057
-0.7374091 -0.4138024 0.0010023377
0.16423774 1.1582751 0.5991491
0.72564906 -0.0768534 -0.19710255
0.7304164 -0.07158391 0.0089695575
0.49017125 1.4384418 -0.25529304
0.7009901 -0.41597903 -0.7609762
0.35821405 0.7067569 -0.018780602
0.2542754 1.380166 -0.26235342
0.60874796 0.19596717 -0.23678115
-0.45798516 -0.08225608 -0.74041307
0.6625788 0.2553338 0.12951022
0.31334293 0.60786307 -0.4293081
0.699597 1.3343825 -0.5312479
-0.47544807 1.4133556 0.03231001
-0.75816596 -0.24985865 -0.31947768
-0.42445526 -0.40703315 -0.19987723
0.83744466 0.70426846 0.31238312
0.36484748 1.2880743 -0.12074523
0.17571379 0.7882716 -0.97353804
-0.77015793 -0.25441605 -0.5248369
-0.3417549 1.2759907 -0.5747235
0.25205892 -0.40433466 -0.28557009
-0.5867648 0.4823906 0.14672473
-0.6641296 0.8849224 -0.3515597
0.47324705 1.0750061 0.44930255
0.10295367 -0.2323541 -0.7577422
0.25541002 -0.059187707 0.32213852
-0.09684165 0.91590095 0.24195477
-0.5603658 0.82692766 -0.04400851
-0.89080036 -0.41216192 0.31998003
-0.8577592 -0.4048922 0.9058104
-0.70837677 1.2802808 0.287803
0.33947915 -0.417032 0.77270395
0.72362155 0.7092116 0.4916046
-0.57402843 -0.25070608 -0.7882191
0.23988792 -0.23357268 -0.20483547
-0.8936342 -0.40550566 -0.7334591
-0.43014097 1.16629 -0.79749644
-0.16847794 0.76037335 0.2995491
0.6290937 1.5787134 -0.016396018
0.5709028 1.0540133 -0.27931848
-0.6024438 -0.23454621 -0.0072828955
0.7590103 1.0353651 0.019029077
-0.8952119 -0.4092272 -0.32436252
0.8292974 0.8051011 -0.5181687
0.37475324 0.13820621 0.34322363
-0.65027916 1.4843733 0.0020413331
-0.725757 -0.41403234 0.20758924
-0.33916253 0.7209523 0.73379946
-0.74557185 -0.08598646 -0.6085806
-0.21349588 -0.41137516 0.8995533
-0.6365098 1.2131317 0.47367305
0.90387714 1.1521751 -0.034429356
-0.75024146 -0.23967724 0.106808625
0.053730186 0.46824068 0.28557384
-0.46301734 1.4448628 -0.17053632
-0.50151086 0.39475808 -0.20491695
0.23277462 0.56796527 -0.74525774
0.20747292 0.7518148 -0.7966976
0.28161246 1.1206884 -0.9222751
-0.5418278 -0.41313028 -0.5265245
-0.38627777 0.96157885 0.5370817
-0.2508302 -0.03677747 0.29922664
-0.9022746 -0.095936224 0.3477651
0.093569025 -0.07983495 0.6647539
-0.44829482 -0.21909225 -0.10150559
-0.67590106 1.2340868 -0.5093071
0.5036061 0.5807806 0.05664382
0.4151568 -0.05035785 0.01394725
0.22438586 0.2156005 0.5120629
0.78150815 -0.2419787 0.11989437
0.5375095 0.66118854 -0.14016517
0.19019206 -0.080191985 -0.8865957
-0.39820197 1.2675937 -0.07635243
0.5951265 -0.24018809 0.4215562
0.35646293 0.72270846 0.34094524
0.48193988 1.498101 0.046106227
0.1149253 -0.24709746 0.14551362
0.70200926 1.2221446 -0.031618215
0.579324 1.098402 0.09832144
0.021600619 0.9060271 -0.6731693
0.009182551 0.7148404 0.2032625
-0.39851213 -0.4102154 -0.39631355
-0.7220668 -0.0869727 0.6260402
0.5425515 -0.41149294 0.3280688
-0.8979901 -0.093193024 0.53929514
-0.6190131 1.4394133 0.2025097
0.019884566 -0.4148194 0.18094358
-0.6590469 0.87439275 -0.6734554
0.7564468 -0.2501126 -0.290142
0.46027988 0.5610219 0.39632013
0.04733409 0.8960017 0.84165823
-0.91919756 -0.26841572 0.21950263
-0.22081363 -0.09182568 0.89951307
0.13524191 1.0581517 -0.6133257
-0.84950805 -0.40632278 -0.9140483
0.36217672 0.69901067 -0.23493508
0.2954893 0.502192 0.26910603
-0.56833935 -0.40750378 0.10285578
0.5116356 0.54085 -0.49181002
0.19941232 1.5908859 -0.16846916
-0.38600862 1.0232546 -0.38441008
-0.9250121 -0.2478357 -0.6453079
0.8985917 -0.0884261 -0.29132408
0.67058694 0.5237341 -0.043192945
-0.6887429 1.0316966 -0.199617
-0.25544155 0.9074206 0.38334373
0.2877648 0.5598854 0.4980703
-0.4784425 1.2729964 0.5900075
-0.024491288 -0.08289458 -0.3348838
0.55473137 0.77919257 0.01499073
-0.5175989 1.2266281 0.098581776
0.16959777 0.6367184 0.31912798
-0.7249397 -0.41675305 -0.4264449
0.38897833 -0.41099882 -0.39527023
-0.0817921 -0.0825724 0.7502639
0.20107365 1.1037825 0.7928268
-0.49901545 -0.016909102 0.015424094
0.5397661 -0.4199661 -0.67163813
-0.40425414 -0.08464615 0.6153319
-0.010250984 1.4314241 0.0025523957
-0.67188334 0.3061206 -0.013269165
-0.43479484 -0.40526867 -0.009197285
0.23972893 0.4066836 -0.6135676
-0.64163435 0.28957868 -0.2211945
-0.13291687 1.6197815 -0.5569583
0.49847227 0.4540661 0.23304573
0.57609195 0.84459686 -0.21480429
-0.060813475 -0.25043386 0.08996056
0.5819802 -0.08428764 0.534151
0.16827932 0.7245804 0.80886626
-0.69114065 -0.4125192 0.5974951
-0.17608662 0.81075287 0.8014264
0.51929605 1.2105868 -0.5012752
-0.88981247 -0.088728555 -0.73601806
0.93052906 0.93872726 0.049179304
-0.5751623 1.1509955 0.28494143
0.17960458 1.2447593 -0.717103
-0.08453819 -0.4088322 -0.3315964
-0.28955406 1.0217098 -0.71952057
-0.2522534 1.4928172 -0.68596375
0.62095463 0.92246425 0.41859782
-0.41363534 -0.02835152 -0.42967254
0.25347543 -0.16567065 0.9273901
-0.767261 -0.24248712 -0.7431011
0.7155868 1.1757492 0.17914027
-0.45316628 1.1037574 -0.5771032
-0.32199538 0.92778885 0.17003131
-0.3061893 1.4217811 0.30671278
-0.29370356 0.40186626 -0.7832186
0.093017146 0.7050749 -0.4386269
0.13376516 0.9620789 0.68335485
-0.5856229 1.0635281 -0.38933036
-0.0065920176 1.5048246 0.56891304
-0.19401014 1.5689116 0.22853713
0.048234288 0.35136664 -0.063510254
-0.10201424 1.764919 -0.24807364
-0.06000512 1.276535 -0.14407313
0.047665253 0.49022016 -0.20288067
0.051726803 -0.08915667 0.05071716
-0.4854055 0.8332542 0.6625607
0.27158841 0.8327445 0.6339702
0.7250782 -0.4161297 0.22500584
0.43401754 -0.23676391 0.07652415
-0.8507665 0.61502683 -0.050215334
-0.47693497 0.36684203 0.0017653161
0.23611775 0.40324152 -0.08942296
0.09274921 1.0623655 0.0065215556
-0.40988782 -0.083976895 0.8841492
0.27985612 1.1571604 -0.2543205
-0.35306686 1.6613986 0.22651452
-0.4815683 0.6677491 -0.79780936
-0.19638945 0.43805918 -0.262726
-0.9246056 -0.25504106 0.8710062
-0.26283553 0.63681126 0.57139504
0.36014718 -0.41450572 0.42629278
-0.21330673 1.0725775 0.18374754
0.037607886 -0.41631684 -0.020265501
0.4217412 0.25528458 0.48323482
-0.42716533 0.7714884 0.08370721
0.18796766 -0.41066617 -0.45402545
-0.420401 0.5044346 0.30957353
0.18719344 1.413985 -0.05954653
0.05577503 0.6162629 0.45903313
0.89649874 0.63594556 -0.21539032
0.22312582 -0.08097568 -0.09487705
0.7123846 0.28138828 -0.07716945
0.20027608 0.9306055 -0.75970733
0.415022 0.36318305 -0.7092874
0.13933712 0.9627224 0.4904445
-0.15293083 -0.41424534 0.06344825
-0.17727567 -0.060728177 -0.21716338
-0.4859406 0.6381029 0.6336844
-0.54564965 1.2613435 -0.67048824
0.89798415 -0.4084248 0.12218837
0.8324151 1.2798009 0.09960167
0.56035703 -0.41329378 0.7394849
0.029893078 1.37452 -0.84716487
-0.24598974 -0.22714774 -0.5896963
0.5471138 1.233454 0.27382678
0.89502823 -0.40920892 0.5332309
0.27148795 1.5793078 0.027356382
0.3592168 -0.08748889 -0.9068766
-0.086044945 1.2204503 -0.9041848
0.1344761 -0.07489075 0.86955
0.0020144377 1.6117134 -0.15529792
-0.20811662 1.7425672 0.1262272
0.29067773 1.626907 0.37668967
0.62834734 1.5283582 0.18181461
-0.5560993 0.9200054 -0.5090686
-0.2611034 -0.081221774 -0.75246185
0.7187301 -0.08342252 0.8761368
-0.7269658 -0.080129474 -0.2267566
-0.44569993 -0.23232976 -0.63507867
-0.47430634 1.6186337 -0.26344347
0.62923914 1.007195 -0.74505556
-0.59023917 0.8088695 0.2134594
-0.3218844 0.8155092 -0.7188828
0.3822903 0.5552908 -0.623308
-0.05419068 0.6622084 0.637568
-0.2967931 0.4756126 -0.605394
0.448174 0.11872476 -0.20683825
0.90517116 0.73117745 0.11598649
-0.35200083 -0.41183418 0.34868103
-0.3549591 1.3317816 -0.7700871
0.2686611 0.9103298 0.8111394
0.7371805 -0.08409527 0.42937604
0.37550133 1.5107853 -0.1214827
-0.9238005 -0.25520864 -0.4270988
0.44340077 1.5013304 0.43402374
-0.106082916 0.25799695 0.56710017
-0.88147014 -0.4125372 0.52280664
0.5243921 0.8801558 -0.6181082
0.55113137 0.73286533 0.4268757
-0.2951195 0.20094746 0.44898728
0.54773605 0.7214917 0.65580124
-0.15315047 -0.25169292 -0.7653255
-0.71020675 -0.26240495 -0.9268055
0.41913337 1.1929575 0.078005485
-0.08950263 -0.2287759 0.6257986
-0.16397001 -0.09248458 -0.9181483
-0.8250494 0.85746163 0.23149681
0.1376558 0.35764158 -0.28130767
0.5758474 -0.08837925 0.74712956
0.0017034853 0.7360662 -0.61263096
0.16880837 1.760773 0.09091346
0.23324129 -0.4159397 0.603759
-0.45292735 0.3323272 -0.62093735
-0.26538318 0.463606 0.046328384
-0.59109914 1.4809403 -0.35192552
0.039140925 -0.2192049 0.46299738
-0.6013006 0.92372966 0.5578203
-0.7413649 0.70045936 0.34143254
0.7483448 -0.24817693 -0.08646691
-0.25762954 1.0907075 -0.53555036
-0.023949962 1.078486 0.16101268
0.72516334 -0.08300312 -0.39328438
-0.6727562 1.0764694 -0.60117835
-0.7699057 0.4742527 0.06665295
0.5660041 -0.057086203 0.3192288
0.23970573 1.3684118 -0.5783435
-0.11069587 1.3416884 -0.32544756
-0.26669824 1.5884013 0.4014671
0.4036945 1.402106 -0.43855673
-0.47133625 0.95458615 0.32972324
0.35978687 0.27229255 0.025928397
-0.15502542 0.25134492 0.22605835
-0.37316918 0.78420264 0.49318776
-0.052747585 0.59712684 -0.31817156
0.31275016 -0.2331383 -0.77826107
-0.087781824 0.57730854 0.32407027
0.6220633 -0.25834554 0.073092215
0.645765 -0.24084646 0.2490075
-0.4055485 1.3892689 -0.4034752
-0.16912651 1.3623145 -0.8263214
0.10201459 -0.4070627 -0.6191288
-0.17064181 0.72045314 -0.9505085
0.6443758 -0.2447485 -0.9180794
-0.59223485 0.40393585 0.36325067
-0.59116054 -0.2474952 0.23451704
0.5672482 -0.41367304 0.5203312
-0.123217255 0.96432835 0.009239266
0.300222 1.0943773 -0.73805034
0.067675985 0.79687047 0.59286046
-0.6620425 0.9773577 0.23262593
-0.11450041 0.5056196 0.51870114
0.8960953 -0.0907246 0.7342242
-0.57763124 1.3907373 -0.5104255
-0.5813063 -0.087659344 0.33544958
0.45066184 0.12450743 -0.3956315
0.3502227 1.1815258 0.5546345
0.29238907 1.2833275 0.6993458
0.72494686 0.9706501 0.21110803
-0.13281286 0.5756842 -0.111104526
-0.10541113 0.5886394 0.11075628
-0.61955917 -0.25536615 0.44218528
0.17256033 0.6307751 -0.27951998
0.91707766 -0.25097004 0.6465851
0.14076532 0.9850348 -0.97591144
0.4200604 -0.23639175 -0.29273614
-0.52185166 0.18567115 0.11104284
-0.5024688 -0.26155847 0.5903226
-0.29346249 0.46494782 0.45208877
0.92408013 -0.24999967 0.44171578
0.5907855 -0.2519827 0.6440802
-0.54195094 1.1057554 -0.06907031
0.56369865 0.91259825 0.14498827
0.88722277 0.887628 0.24173811
0.21579447 0.30834427 0.32465637
-0.35590193 0.49710074 -0.345725
-0.75810146 -0.25188822 0.54328305
0.20414892 1.7108558 -0.43068442
-0.015046151 1.5696363 0.1941909
0.5450048 -0.08720273 -0.90923655
0.2876311 0.3692817 0.62181914
0.09423296 -0.25588286 0.924456
0.6522044 -0.08252072 -0.7349774
0.015218742 1.0517476 -0.39441046
-0.037347756 0.06707357 0.022540957
0.47213393 1.0613604 -0.8508682
0.16370513 -0.083884686 -0.2971221
-0.7893528 -0.25289434 0.73565865
-0.7392115 -0.08381118 0.43119317
0.5528394 1.0175352 0.6473297
0.20977825 1.0491377 -0.40208325
0.1165411 1.1771052 0.21103774
-0.31719202 0.50690204 0.67211366
0.5861655 -0.22606356 -0.21209487
-0.16527271 1.0057778 0.80091536
0.8131744 1.0527308 0.35796076
-0.5455736 0.634933 0.2675379
-0.18838485 1.6234968 -0.16641441
-0.6196594 -0.403916 0.905076
0.2564795 -0.23020577 -0.4071021
-0.5557569 0.2873956 -0.43434155
-0.44763476 1.5645893 -0.4414308
0.7791593 -0.2500402 0.34143895
0.91549265 -0.24378154 -0.5961853
-0.15427437 -0.08708884 -0.009391446
0.0651477 1.1356838 0.43334466
0.3542032 -0.054938167 -0.37021798
0.654216 0.8678273 0.59523976
0.55682135 1.3839052 -0.086369656
-0.68156296 0.9931836 -0.009156153
-0.4040098 0.9799389 -0.8749074
0.8958719 -0.40880513 -0.0844875
0.7425724 0.5338427 0.39703685
-0.12601812 0.36974296 -0.58342177
-0.3150832 0.31935653 0.31530848
-0.3445949 0.3683769 -0.476094
0.075001985 -0.25237596 -0.36284998
0.7396957 0.62954617 -0.6090524
-0.48489124 0.7558447 -0.59570074
-0.011396814 1.0848844 0.62109995
-0.6619377 1.1368735 0.10102303
0.26467752 -0.0645362 -0.69862336
-0.8937725 -0.40780437 -0.5341505
0.047451645 0.45776325 -0.6955446
-0.22406651 0.83087474 0.6053676
-0.023640525 0.5628625 -0.5318608
0.88986504 -0.40869933 0.7334765
0.23929495 -0.07652606 0.10870193
-0.19889143 0.53336143 -0.45064136
0.058243863 1.4212604 -0.20988008
-0.44444874 -0.22793004 -0.29509163
0.8995128 -0.089261666 0.5354433
0.8849546 -0.4014765 0.9067131
-0.03955763 1.087822 -0.146521
-0.4503191 0.6270719 0.44574517
0.5651158 1.5099561 -0.5010139
0.30431026 -0.40429354 -0.91436255
-0.2966715 1.3479722 -0.23275816
-0.49461192 0.23518717 0.29950127
-0.34502172 0.68376946 -0.45057398
-0.14267726 -0.41003495 -0.907884
-0.16005749 1.4108044 0.1589092
0.49676934 0.6917417 0.20703931
0.2992739 1.478893 0.55707455
-0.3660961 -0.41215408 0.5465711
0.5981765 0.42717174 -0.36875075
0.20496482 -0.41092795 -0.75311303
-0.14209545 1.5826101 0.023181077
-0.54031235 -0.032468423 -0.16083011
0.54074544 -0.1029329 0.9172197
0.798607 0.4002759 0.058160327
0.5745766 -0.004143445 -0.12281501
-0.21034238 -0.25510097 0.7583774
-0.03326905 0.85543597 -0.9848732
0.1160298 -0.41826233 0.74590117
0.27214342 -0.24095637 0.008732585
-0.34986377 -0.40930548 0.15032938
0.29742053 0.25044984 -0.23318312
0.022537831 0.6544269 -0.954379
0.24878845 -0.24104086 -0.6032325
-0.08670725 1.3645718 0.67574453
-0.049609408 1.6219146 0.42899758
-0.22858301 0.94961953 -0.9562415
-0.4467198 -0.24657872 0.4125631
-0.17208049 1.7704387 -0.051384054
-0.12675613 -0.24234828 0.4646883
-0.33122954 0.6374353 -0.68058854
0.1326935 0.57272536 0.13548306
0.22251366 -0.25898033 0.77451795
0.9314775 -0.24772462 -0.7833731
0.43333358 -0.24649277 -0.633394
-0.28704038 -0.24549907 0.018329838
0.29431385 1.1442301 -0.5517688
0.72084594 -0.39993647 -0.9180423
-0.7164357 1.3235763 -0.33882874
0.07876507 1.6000247 0.017037183
-0.3145947 0.28561848 0.115249254
0.15270595 1.4882867 -0.74838555
-0.91994 -0.2599063 0.42915076
0.44609287 -0.24015848 0.5218324
0.4017685 -0.23963268 0.35129905
-0.9128107 -0.10530539 0.1684688
-0.47111833 0.4937299 -0.7274008
0.50545704 0.1378122 0.15868129
0.44340703 0.31389755 -0.33753693
-0.3112439 -0.061171755 0.10946196
-0.006694663 -0.03113833 -0.5092801
0.7336169 0.70939994 -0.09043205
-0.40699098 -0.24052244 0.74951106
-0.20972615 0.23634934 -0.2063824
-0.06302248 -0.23675582 0.28336024
-0.21474907 1.3560852 -0.023043001
-0.39448285 0.78123474 -0.16005984
0.80815613 0.49419522 -0.34288323
0.9037168 -0.08757026 -0.49328008
-0.28624004 1.0865805 0.38967353
0.18146172 0.6570126 0.62892103
-0.2860067 1.3286974 0.6570606
0.59777325 0.39359576 0.42899272
0.29389435 0.46375197 -0.2709248
-0.62949765 0.6415762 -0.66333747
-0.16829881 0.11940183 -0.5221846
0.3849785 -0.41541836 0.014204425
0.08706387 -0.4060626 -0.9083413
-0.13757125 1.1368814 -0.31800663
-0.6992822 0.6716175 -0.0848887
0.4650852 0.42251068 0.5664109
0.009359189 -0.41099513 0.9048488
0.009595249 1.0808951 0.815946
0.47910023 1.6677425 0.08632347
0.41238028 -0.049851354 0.21951184
-0.3986418 1.1180475 0.22525722
0.09187481 0.27583364 -0.7619765
-0.43177897 0.5631553 0.08628182
-0.19658998 0.7914671 0.12405714
-0.023866363 0.19528936 -0.11277293
0.2664677 -0.086432554 0.72900987
-0.8751575 0.8145516 0.016788304
0.51547486 1.1914154 0.6290821
-0.70764214 0.8313576 0.07533437
-0.020189472 1.7694836 0.121379755
-0.7322873 -0.08566158 -0.89987314
0.40176946 -0.41480458 -0.18325195
-0.04789634 0.31213474 -0.25271705
0.12674993 -0.24530616 0.6034095
0.89862597 -0.08901581 -0.088862374
0.88597065 -0.08216846 -0.7071703
0.556849 -0.41064912 -0.28800696
-0.1254492 1.1944137 0.5405443
-0.46622592 0.8232641 -0.36913645
0.3698625 0.84868294 0.1407521
-0.29720885 -0.23771712 0.56746924
-0.37076283 0.301277 -0.298745
-0.38056263 0.17609006 -0.49444938
0.40936446 0.5319835 -0.8273233
-0.6164479 0.45037097 -0.56450886
0.63331074 0.59515274 0.29564363
-0.64666665 1.4863001 -0.18799087
-0.052242644 1.2543733 0.33296043
-0.6104543 -0.07821741 0.13287827
-0.7298424 -0.08236143 0.8008584
0.4955203 -0.2258206 0.22271818
0.03175459 0.04678244 -0.19288854
0.23657316 0.27704424 -0.43648267
0.21701106 0.5837655 -0.9264103
-0.051919103 1.5199156 -0.72460234
0.7608756 1.236537 0.34982693
0.3724469 0.41308376 -0.477265
-0.3657136 -0.05505895 -0.26231176
-0.8166488 1.1868724 0.16007933
0.22004887 0.77621293 0.45607516
-0.06782788 0.19089884 -0.6646419
-0.37831444 0.115861386 -0.16011629
-0.80913186 0.75859773 -0.37404922
-0.5264754 0.46937943 -0.3950978
-0.38839346 1.4370928 0.50011045
-0.13907698 0.39689466 -0.07887246
-0.11309844 1.713932 0.28870094
-0.9218982 -0.25801295 -0.21755253
0.561133 -0.3994556 -0.07650195
-0.85027266 0.9506961 -0.30091256
0.854602 -0.25008693 -0.92861223
0.4693011 1.0719659 -0.634829
-0.19228595 0.2823402 -0.41635537
-0.35060096 0.50076765 -0.13114843
-0.2915178 0.6316135 0.18552361
-0.08990664 0.936148 -0.24499044
0.11469272 0.19383156 -0.25973627
0.6115171 1.0747769 0.31987348
0.75108445 -0.25165927 0.54241884
0.8919754 -0.40871733 -0.6872074
-0.034643896 0.8735999 -0.46226496
-0.3425127 0.29928812 -0.09480628
0.33775708 1.4219131 -0.7473178
0.41098034 -0.2423147 -0.10777318
0.38972425 1.641654 -0.45572263
-0.1461515 0.13181472 0.40172866
-0.23341367 -0.05485146 0.5008206
0.2169151 -0.41028726 -0.10028343
0.15681434 0.07067512 -0.049126804
0.7025646 0.66510856 0.1096275
0.33728534 1.7379012 -0.2614051
-0.867557 0.7748873 -0.18396144
-0.030234732 -0.09643184 0.91154575
0.9327465 0.7831175 -0.090321824
0.03853198 0.5226369 -0.0046977093
-0.26207173 -0.08376557 0.7101632
0.4419624 0.3106293 -0.13730994
-0.32412353 1.5181451 -0.07875015
0.41634423 0.5084784 -0.10501766
0.19519454 -0.24862468 -0.92489445
0.11340971 0.891013 -0.31634176
-0.25267214 1.6930308 -0.3732313
0.5579982 -0.076183796 -0.52703536
-0.3162065 1.2718346 0.11159727
0.41028255 1.5096481 -0.60283613
0.59943795 1.0147014 -0.49402487
0.9028357 -0.0878348 0.11800827
0.67524344 0.7916562 0.26417148
0.64992976 0.4780669 0.13453136
-0.2750076 0.34533834 0.58687735
0.21089043 1.4957386 -0.45830458
-0.42333233 -0.40810066 0.8952315
0.14823201 1.2959208 0.33722764
-0.7318422 -0.2492092 0.9204675
0.37761414 0.7206286 -0.9056268
0.5933367 -0.23846506 -0.4014626
0.71792835 0.9401361 -0.3421744
0.5385679 1.3759302 -0.64818805
0.3627056 1.3699977 0.048212186
-0.80669284 0.5945718 -0.26742724
-0.76378244 0.44677866 -0.14378834
0.39214325 -0.41091 -0.76024646
-0.6218195 0.55276024 -0.24702266
0.72369814 1.3787947 0.23163033
0.72249377 -0.41554257 -0.18395758
0.74112225 1.447442 0.031686224
0.7365551 -0.083936445 0.6485543
-0.6173723 -0.25505638 -0.61475205
0.036750995 0.8849774 -0.095881835
-0.25555447 -0.40788972 -0.2697193
-0.34497783 0.12883466 0.2650547
0.19233598 -0.058511026 -0.506242
0.23242103 0.515755 0.7353797
0.07116192 1.6198037 -0.5828079
0.46549976 0.891419 -0.37434894
-0.64677024 -0.08183266 -0.7411094
0.16565669 1.5680041 0.20639199
-0.54478407 0.17853576 -0.08952129
0.30852354 -0.24222234 0.6166172
-0.01896486 1.7128372 -0.42158446
-0.26797277 0.63281196 0.38055265
-0.33224246 1.4947565 0.11438607
0.89809656 -0.4092731 0.32716233
0.24579966 1.0314131 0.1590355
0.021175882 -0.2437239 0.7643765
-0.77238107 1.1118556 -0.40430462
-0.50897986 0.9464694 -0.22304115
-0.48476 1.094096 0.44879794
0.30927885 0.6559625 0.15312436
0.6687058 0.6203343 -0.43059683
0.5680859 -0.16859868 -0.051013537
-0.6508334 0.3284565 0.18311767
-0.58685386 0.68107414 -0.4316075
-0.2796499 0.6667845 -0.024964977
-0.30293548 1.584331 -0.5268575
-0.8242576 1.1594722 -0.22604112
0.2043854 0.7910595 -0.16216293
0.6768623 1.4942473 -0.36539954
-0.9294269 -0.25566643 0.6323629
0.47703424 -0.41437384 0.904821
0.7301961 1.0840573 -0.17740718
0.18137564 1.3926885 0.1362232
-0.33682626 -0.063598916 -0.07826772
0.06479809 1.2595341 0.7453946
-0.7617091 1.3364525 -0.13367502
0.097110026 0.9890086 0.2995301
-0.192123 0.6989373 -0.5758934
0.079950914 -0.07622646 0.25509715
0.1886563 0.43732974 0.44431382
-0.12784164 -0.40957862 -0.6122575
0.28193444 1.4301834 0.3442738
0.8983598 -0.40776378 -0.48795643
0.22436279 1.319479 0.49806076
-0.4248737 0.95231736 -0.05765436
0.4141435 1.2765083 0.40040606
-0.1302926 0.3577664 0.38492137
0.16187721 0.39025068 0.118866995
0.4559219 1.2370331 -0.2919338
0.7295017 -0.41799074 0.021459702
0.08441162 0.49506474 0.598477
0.08773275 1.4743215 0.3693958
-0.23753648 1.2454611 0.2874676
-0.054365113 1.0440865 -0.9652412
-0.31073135 0.582707 -0.8677628
0.14870378 1.5815809 0.49241036
0.6109493 0.25213653 -0.43196708
0.89505005 -0.40924227 -0.28704602
-0.5728556 -0.41008043 -0.31746873
0.03339889 0.2716842 0.2922104
0.031345736 -0.092072174 -0.91572213
0.5976971 0.9667418 -0.06605251
0.102795266 1.7109835 0.30353028
-0.7053404 0.41977656 -0.3568299
-0.1861755 -0.4079488 0.6070607
0.5819469 1.3187153 0.09132859
0.26040035 1.1222203 0.38131446
-0.35723805 0.12167982 0.035130605
0.5587313 0.6862731 -0.5983688
0.053448547 0.89766765 0.11466064
0.7582373 -0.2426916 -0.7373167
-0.1360077 1.4542341 -0.16160588
-0.31831366 -0.41535616 0.7354021
-0.08812225 -0.4143849 0.7514913
-0.61730576 -0.25163752 0.72933906
-0.13985422 0.70710146 -0.76927215
-0.2534299 -0.25872737 -0.9226127
0.72593385 -0.41365707 -0.58080244
-0.5961932 -0.24027266 -0.42222542
0.83674127 0.5439049 0.19555774
-0.14006403 -0.032056823 -0.62422705
-0.014437107 1.2212001 -0.70649
0.71826655 0.44469318 -0.5123883
-0.33871514 1.0902193 0.014537221
-0.15037079 0.7496634 -0.40290338
-0.5541686 -0.09185455 -0.91461027
0.30172235 0.9348792 0.36130053
-0.81652915 0.66597795 0.15161216
-0.2739002 -0.21859545 -0.3797207
0.52606916 -0.41160506 -0.89718735
0.4251647 -0.2249679 -0.47199118
-0.7003174 -0.41855678 -0.79851174
-0.3191684 -0.25167876 0.9218615
0.37845492 -0.41084412 0.21707264
0.041612305 0.6721823 -0.12294145
0.07678068 0.33787912 -0.5603367
0.8110634 1.3554406 -0.11747314
0.69710016 -0.41767558 0.87848055
0.56824553 0.1547615 -0.02572256
-0.56363904 -0.058385246 -0.33891198
0.67707455 0.5724324 -0.23702398
0.5263881 1.620328 -0.32188553
-0.10368973 1.0483655 -0.7762401
0.71571726 0.38074124 0.2692666
0.058449894 1.3859537 -0.61564004
0.89442873 -0.406478 -0.88132167
0.5844741 0.5055556 -0.684549
-0.7280179 0.5196855 0.2649672
0.47833812 0.8849888 0.30858332
0.5466051 -0.25507274 -0.7754737
-0.3607121 -0.08971752 -0.9128225
-0.102904804 0.3397392 -0.79745865
0.03363812 0.36150596 0.46932423
-0.22292757 -0.22916582 0.18159518
-0.23972395 1.1905959 -0.16517258
0.040774383 0.5329851 0.77292526
0.19808769 0.82149255 0.22659421
0.3784181 0.38252404 0.39322543
-0.92405254 -0.24890158 0.003147109
0.0061437236 0.2298226 -0.4417984
0.13751578 1.4124112 0.6517608
-0.8125949 1.1702666 -0.036137305
0.3752698 0.90616643 -0.73418874
-0.06374441 0.75089586 0.010628117
-0.61596394 0.74291915 -0.24160698
0.6058884 1.4155352 0.38091227
0.036168046 0.15956563 0.48486692
-0.5162513 -0.4190762 0.7099256
0.7500606 0.84440863 0.05711504
-0.30113244 1.521913 -0.29846817
-0.6014317 0.49216178 -0.05516377
-0.1544511 1.1506255 -0.003922928
0.5169293 0.70460933 -0.35262418
0.9031645 -0.08846429 0.32895535
0.24857008 -0.23211959 0.44139117
0.2717917 0.80285394 -0.38998166
-0.48046952 0.46611923 0.55133903
0.111575454 1.7684805 -0.27010623
0.089002594 0.3230865 0.65435576
0.105434686 0.13114937 -0.5978738
0.5251801 1.1691568 -0.09145854
0.3931177 0.6976783 0.54951286
0.61603844 -0.24612756 -0.6013642
