0.5984761 1.5692155 0.6081916
0.4474521 0.7278486 0.068860814
0.45946378 1.747065 0.37110615
0.74863815 -0.25017667 0.7572924
0.39067274 1.2068028 0.5961813
-0.59934235 1.190088 0.45589644
-0.008710385 0.45798838 -0.38312173
0.66089803 1.3844376 0.6228418
0.2766276 2.0228233 -0.4777948
0.77604496 -0.24727285 0.93521047
0.46535838 -0.08377646 -0.7269088
0.0060058874 -0.4159518 -0.46845734
0.02554176 1.6455998 0.13458985
-0.7515384 1.3146226 -0.08119255
0.29640475 1.6208124 0.34607023
0.10235752 -0.24447933 -0.5283536
0.29569352 0.66670656 0.2195212
-0.33508366 -0.083928615 -0.5805496
0.094540626 0.9038197 -0.36833495
-0.9050549 -0.09466514 0.73652816
0.47297084 1.9537835 0.42327678
-0.6098124 1.7321043 0.03539366
-0.46599275 -0.25135458 -0.9241744
0.42874134 -0.0806708 0.6452796
0.19338055 0.6579293 -0.62006724
0.8601174 1.5665226 -0.10010897
0.8714537 1.4099455 -0.20695329
-0.28977564 1.2831867 0.026619714
-0.21987909 1.8789862 -0.3481911
0.17497292 0.42816073 -0.23356804
-0.44301188 1.5836977 -0.13771287
-0.7697623 1.065531 -0.42780218
0.0038493234 -0.08384974 -0.1285261
-0.7446145 1.7712159 0.1834848
-0.72500193 -0.08268449 -0.4215476
0.30833477 1.3670223 -0.46073848
-0.5941822 -0.4145982 -0.10560672
-0.3555209 1.5451328 0.6523913
0.090236336 1.6445515 -0.40727755
-0.30379358 1.065716 -0.2159538
-0.06729835 1.5147986 -0.48404968
-0.24273169 1.3864428 0.6748798
-0.7518647 -0.07754309 0.22577211
0.1953831 0.8426864 -0.76915634
-0.05349374 -0.08712276 -0.7614296
0.75891864 -0.24938443 -0.49046254
-0.5482198 1.4475992 0.72143173
0.58579624 1.6217792 -0.6137136
-0.102071844 -0.24519669 -0.45980644
-0.17667046 1.3597171 -0.7365806
-0.11299284 -0.07990329 0.18918109
-0.7938749 1.4375939 -0.4261315
0.37484664 1.2353816 -0.015670028
0.13417745 1.6402647 -0.023865398
0.18584992 1.2048216 -0.53458923
0.9249525 -0.24613881 0.011169358
0.018336952 0.92671764 -0.8325912
0.81018925 1.0419217 -0.3487842
0.69015765 1.878813 -0.028547298
-0.2618574 0.42460915 -0.10343837
-0.4325918 1.6570163 0.48924035
-0.1267778 -0.24482341 -0.26473945
0.8611593 1.4267442 0.28536928
-0.71804583 -0.4200533 0.7760751
0.34420064 1.3927375 0.83810925
-0.49789762 -0.4183681 -0.73082
-0.7555657 1.2569747 -0.49187666
0.12290828 0.56767154 0.17038146
0.28694475 1.0220444 0.8216896
-0.5643494 -0.08384872 0.54995537
0.75236285 -0.08652422 -0.58728236
0.81750906 1.3915796 -0.37783116
-0.1325611 1.8274308 -0.51410556
0.28411257 0.433755 -0.022324182
-0.023193419 -0.41410774 -0.7654867
0.73224103 -0.417545 0.6499257
-0.16358829 1.0037124 -0.8423947
-0.508466 1.050889 -0.50343525
-0.010824605 1.1752983 0.4304074
0.5644746 -0.08281125 0.11040893
0.206343 -0.41570678 0.29381466
-0.35439986 -0.41624498 -0.5891375
-0.3663171 1.4897969 0.8169696
0.10306583 1.6622193 -0.8273177
-0.89099437 -0.09792081 -0.9121865
-0.77579296 1.2886002 0.46649483
0.08909474 -0.42108825 -0.25034034
0.38961476 1.3737978 0.12986167
0.4641574 0.5911629 0.32970828
-0.06008342 -0.08038641 0.5732594
0.109668486 1.9944571 -0.20456067
0.110309705 1.4469992 -0.10088192
-0.76406914 -0.24119934 0.33087403
-0.501189 2.0098803 0.25672632
0.41081095 1.4149859 -0.08666669
-0.5123519 0.7064202 0.46300194
-0.86927843 -0.081251584 0.025368799
-0.53298724 1.0643213 -0.030767828
0.7281518 1.3626792 -0.52830255
-0.2168828 1.6712255 -0.5955044
-0.20406467 1.8597918 0.6826376
-0.34331095 2.1168337 0.16184315
0.5287175 1.0932155 -0.7175122
0.33506638 1.8740382 0.3275953
0.66212666 1.2132308 -0.6196898
-0.40372556 -0.0868894 0.44693658
-0.6182749 -0.09074614 0.9178642
0.4131016 -0.08126904 0.4338457
0.5988178 -0.26343977 0.90251607
0.92278516 -0.24559653 -0.3900023
-0.898476 -0.4058885 0.11190325
0.74159527 1.2597018 -0.053210616
0.9204439 -0.24574342 -0.18999115
0.49095207 0.7631737 -0.53273034
-0.5344821 -0.4200223 0.4773094
-0.18489507 0.46797043 -0.29524112
-0.70635045 -0.41450942 0.40177968
-0.13538694 0.7683364 0.14705582
-0.35273597 1.3495865 -0.4385987
-0.899611 1.4464196 -0.029527852
0.005618193 -0.41540736 0.5824774
0.10751265 0.56345904 -0.034870975
-0.6928109 -0.07717255 -0.014910316
-0.7153939 -0.41701895 -0.62390065
0.015580412 1.1095567 -0.6929138
-0.8961892 -0.40704584 0.7228197
-0.9034369 -0.09110387 -0.5279407
-0.6129617 -0.24925587 -0.21067187
-0.36531597 1.2900957 -0.8343255
0.4302575 -0.25329053 -0.9243554
-0.5747736 1.7850394 0.512364
-0.0016075529 -0.41652203 0.37590542
-0.24262372 0.9439621 0.8073586
0.32360786 1.3692527 -0.8448105
0.39682722 1.7006919 -0.51356655
-0.5186198 1.7675331 -0.15950155
-0.5232161 -0.24342978 0.9150701
-0.48557317 -0.2544483 0.11682828
0.6078707 1.2196534 -0.38876235
0.008594189 1.762374 0.32435235
-0.062446747 0.5721648 0.10000646
0.0842469 0.45364654 0.33719423
-0.2595373 -0.41896915 -0.74999034
0.4015516 -0.26771694 0.92554045
-0.2381024 1.7001364 0.5744461
0.3967008 -0.08220218 -0.53645194
-0.1820318 1.3641286 -0.53198916
0.8285746 0.93421316 0.050444655
-0.4726346 1.7580087 0.33578122
0.3781346 -0.07480207 0.8767994
-0.08018072 1.0473318 0.8652376
0.2626773 1.6777172 -0.29312682
0.32065547 2.0792098 0.34476662
-0.35437983 -0.2551577 -0.7702402
0.7366439 -0.080177695 0.21814115
0.2675077 1.3349967 -0.15092608
0.40054172 1.1883744 0.80587566
-0.4666563 1.9364376 0.44903526
0.55603623 -0.42244375 0.13048732
-0.7012676 1.4469422 0.5439775
-0.13264841 1.4534042 0.45763534
-0.032127008 -0.24888283 -0.6338717
-0.5469971 -0.08300677 0.7464541
0.7821251 1.7301004 -0.18136531
0.1632173 0.96515954 -0.030644812
0.90941983 1.3471122 -0.04012002
0.51843596 0.7983749 -0.117191955
0.5799349 1.7275333 -0.2595539
-0.09038089 1.9952606 -0.20881894
0.34658134 0.63335484 -0.5103489
-0.09324394 -0.41668758 -0.13849975
-0.74637604 -0.41520047 -0.21328014
-0.2735259 -0.41614693 -0.06093826
-0.28235248 0.85653865 0.255382
0.903391 -0.08814201 -0.8966528
-0.37032294 -0.41052198 -0.9016541
0.11939445 -0.25270167 0.3205558
-0.8958069 -0.090469316 -0.3308906
-0.030338723 1.1861215 -0.19284837
-0.1877298 0.7655848 0.71043813
-0.6690781 1.0815077 0.13367772
0.035245523 2.2000482 0.08034872
-0.10385579 1.6913704 -0.3842389
0.9275054 -0.24534594 0.2251233
0.15926789 -0.41376844 0.4658179
-0.03268245 -0.25636905 -0.915053
-0.91557944 -0.2592007 -0.87249506
-0.16728562 -0.4141636 0.26037082
-0.69432485 0.9583036 0.48236215
0.01493288 1.3173685 -0.76426095
-0.26245448 1.649836 -0.79646176
0.6935194 1.1345303 -0.21387868
-0.35719067 0.52850515 -0.3437729
0.63616234 1.6532328 -0.08787945
0.44636592 -0.23851877 0.7593608
-0.00036476296 1.681989 0.62741196
-0.4177384 1.9311246 -0.49539304
-0.11943012 -0.2500431 -0.06435256
0.7478272 1.1929579 0.5130934
-0.2644794 0.4321122 0.13118002
-0.18074246 -0.4206469 0.44763285
0.25730884 -0.08251226 0.5427644
-0.29005367 1.4508979 -0.094997734
-0.3076386 1.6750567 -0.27889335
-0.5062009 1.6957989 -0.3356377
-0.3956564 1.2922311 0.8167143
0.34351742 0.8663614 0.72463006
-0.54984367 -0.08273724 -0.54799986
0.09459961 -0.08100563 -0.6662159
0.19983509 1.2797248 0.085799135
-0.8056401 1.494693 0.3942532
0.3585651 1.1651566 -0.6358803
-0.68851435 1.1225243 0.5831508
-0.46267307 1.4353832 -0.582032
-0.11586632 1.2937391 0.5473133
0.04111837 -0.2604112 -0.184001
-0.7708217 -0.24203801 -0.10191178
-0.022471182 1.9288323 -0.36706227
-0.32778823 1.2995682 -0.21834403
0.269153 1.3394527 0.6681328
-0.26254433 -0.25225013 0.38321248
-0.5037813 0.7864375 0.19629483
-0.53337145 1.3971102 0.19283459
0.22827983 0.42501515 0.15922517
-0.124589324 1.6488998 0.2372809
-0.90337825 -0.4034447 -0.105756804
-0.57970965 -0.404805 -0.9158869
0.53261685 0.877461 0.59995747
0.076769546 1.5279044 -0.701102
0.24202988 1.7704659 -0.74526864
0.42522684 1.6903567 -0.7031895
0.058050826 1.6351125 -0.19776967
0.35503542 -0.082828715 -0.1853782
-0.5195863 -0.4203009 0.26752895
0.09907618 -0.0816156 0.456618
0.04455605 0.39692086 0.14062546
0.8796587 1.2096252 -0.22378346
0.6629376 0.71505845 -0.24555525
0.7374253 -0.085299246 -0.9048174
-0.42937154 -0.25558925 -0.4777333
0.21526667 2.173039 0.048886318
0.09364873 -0.24065423 -0.02965205
-0.2154896 -0.4133718 -0.45360515
0.40037143 0.9283464 -0.23734708
0.389361 1.4283937 0.34628683
0.339361 -0.42061466 -0.5873898
-0.31353542 0.71269995 -0.6250056
-0.50011754 2.05332 0.05812432
0.4283838 -0.41228873 0.6208782
0.52698183 2.0304456 0.012318011
-0.08224295 -0.08425817 0.38343665
0.37049583 1.1691375 -0.43645042
-0.30883956 2.1593928 -0.038226455
0.23788469 -0.39931208 0.91484857
-0.20372088 -0.07988241 -0.40808856
-0.10223402 0.42771226 0.25313547
0.13300318 1.0292702 -0.5126747
0.3884419 1.4757272 -0.30264598
-0.64734143 1.649045 -0.13861524
-0.28389812 -0.25097045 -0.16919696
0.8214071 1.5802681 -0.31156415
0.5479248 -0.4123639 -0.50032187
-0.4394809 1.1721355 0.3346823
0.10898753 1.3376008 -0.42837083
-0.37829366 -0.25642493 0.24277328
-0.4437953 -0.08515242 0.24900958
-0.20779595 1.4187422 -0.31709844
0.89397836 -0.093515396 0.9081867
-0.10171376 0.84171844 -0.35839334
0.9301981 -0.24781841 0.8569392
0.08245701 1.7981184 -0.28265586
0.21228105 -0.41507187 0.10135804
-0.11153103 1.2359151 0.7461897
0.37379137 2.1178327 0.10964415
0.1779755 0.5153335 -0.4302297
0.67203605 1.5443258 -0.260127
-0.49425346 1.0773296 -0.2311782
0.44397932 1.6894617 0.69211924
0.73445964 -0.41580534 0.4313373
-0.5759867 1.555662 -0.6642914
0.52732134 -0.080989316 -0.33160725
-0.54790914 1.3434675 -0.72870934
0.72499573 -0.41601545 -0.39213538
-0.8978814 -0.0921715 -0.14138567
0.7643274 0.8108589 -0.097250015
-0.86755353 -0.094229355 0.91428745
-0.8775208 1.4426445 0.17817435
-0.20479158 1.1770794 -0.11849417
0.27134615 0.8488834 0.11529548
-0.24175325 0.5968617 0.010649528
0.33148682 1.9519322 -0.17682755
0.28896123 -0.24888888 0.21678971
0.07845773 1.1137637 0.09769505
-0.1735689 1.0998373 0.53094673
-0.109236255 -0.25866282 0.9204972
0.5093062 1.2878151 -0.75556403
0.7114081 1.55777 -0.48779017
-0.11015597 1.8204772 0.49411726
0.21339466 1.6038644 0.15778856
-0.17363748 1.5440645 0.85136104
0.2663131 1.4702365 0.032505997
-0.1800525 1.0098841 -0.64278334
-0.5456294 0.62217796 -0.28661096
-0.75359714 -0.4129864 0.0001362978
0.12946533 1.5030224 0.69824755
0.71612734 -0.08307551 -0.19761959
0.7237372 -0.081264734 0.0061822236
0.48588318 1.823853 -0.120661676
0.706808 -0.4149007 -0.7634588
0.3049637 1.0742546 0.051669486
0.25109673 1.7870761 -0.13762143
0.52179724 0.58655167 -0.20457914
-0.45723182 -0.08207783 -0.73721087
0.57486373 0.60979724 0.15495715
0.26686049 1.027403 -0.36313713
0.7013159 1.734923 -0.39081705
-0.4735902 1.8404486 0.14513475
-0.7635181 -0.24763553 -0.3182761
-0.42688942 -0.4157491 -0.18781424
0.7775607 1.0355015 0.37792444
0.3531208 1.6771352 -0.00033444673
0.15743685 1.2534432 -0.9018793
-0.7721137 -0.25275356 -0.52579904
-0.33883017 1.7530905 -0.46616742
0.26272276 -0.41030574 -0.27947378
-0.6393811 0.9024748 0.15400946
-0.69105816 1.3589957 -0.28196418
0.43791574 1.410868 0.5519633
0.103596345 -0.2409873 -0.76395667
0.2472863 -0.085179836 0.33018565
-0.1338279 1.3087076 0.32163402
-0.5939469 1.2621393 0.019180957
-0.8917565 -0.41082668 0.3282634
-0.85740775 -0.40421325 0.9076998
-0.7130215 1.70273 0.38069963
0.3486032 -0.4169274 0.78068113
0.6636113 1.0248592 0.558244
-0.5744424 -0.24967219 -0.7890187
0.23004888 -0.24077713 -0.19010526
-0.89446104 -0.40439558 -0.7331808
-0.42805153 1.6653467 -0.6939473
-0.23024526 1.1648662 0.37407872
0.6315167 1.9423532 0.14132562
0.5484405 1.4483001 -0.17760344
-0.6120281 -0.24345982 -0.0107991
0.7304197 1.3837036 0.12905884
-0.89771616 -0.40701544 -0.3239038
0.7937355 1.2034531 -0.43112713
0.27435058 0.50226927 0.34202695
-0.64687693 1.9245238 0.12453878
-0.73541903 -0.4142408 0.21705016
-0.39990652 1.0742618 0.7861688
-0.7425755 -0.08421588 -0.60478663
-0.21359134 -0.41055968 0.9025837
-0.6528983 1.6143107 0.5576898
0.8837482 1.5017216 0.086623736
-0.7478395 -0.24111694 0.11726447
-0.023584455 0.84005654 0.31173044
-0.4573486 1.8901848 -0.051321547
-0.5439521 0.8392528 -0.20111549
0.19464824 1.0210116 -0.68402445
0.18314177 1.2105947 -0.7268714
0.281652 1.5730814 -0.8183783
-0.5472623 -0.4164216 -0.52736926
-0.4261605 1.3379813 0.61449254
-0.26061994 -0.08364439 0.31360203
-0.9026141 -0.09400089 0.35455912
0.09883387 -0.08238889 0.6737865
-0.44880262 -0.24918483 -0.089097336
-0.68334013 1.7306368 -0.41003186
0.4516467 0.93691444 0.098283
0.38845837 -0.08088978 0.011062821
0.13326189 0.56412196 0.5153908
0.78471863 -0.24227592 0.11905661
0.48629904 1.0401022 -0.07147321
0.18776345 -0.07759919 -0.8784512
-0.4098454 1.6955093 0.025745606
0.6030239 -0.2462072 0.4271111
0.30569196 1.0824802 0.40709805
0.48276728 1.861325 0.19318892
0.11951884 -0.25049675 0.1473574
0.68690467 1.5808544 0.09190693
0.5535294 1.4602449 0.20345265
0.0032419257 1.3405136 -0.59386665
-0.028364114 1.0850092 0.26666957
-0.40017354 -0.4177909 -0.39078808
-0.72596073 -0.0879191 0.6286421
0.5508505 -0.4153881 0.33463436
-0.90030605 -0.09209637 0.54624027
-0.62718725 1.867478 0.3190602
0.026609238 -0.41594532 0.186885
-0.6785785 1.3827801 -0.6014588
0.75253576 -0.25057644 -0.2967036
0.38212794 0.8992498 0.4476244
-0.009664588 1.2222203 0.91347665
-0.91912174 -0.26653337 0.2252149
-0.2181135 -0.09095598 0.9022295
0.12854642 1.4964688 -0.5166998
-0.8499014 -0.40559837 -0.9140426
0.32012057 1.1041894 -0.1657234
0.22781807 0.86034584 0.3009385
-0.6007134 -0.41014823 0.10129934
0.46195304 0.95095026 -0.43292636
0.21102199 1.9919608 -0.02831747
-0.40205616 1.4869401 -0.29678082
-0.9257302 -0.24555075 -0.6456198
0.8950162 -0.08570905 -0.2914552
0.6228521 0.8910881 0.0114598125
-0.71155685 1.4927509 -0.119074374
-0.31073964 1.3158104 0.4490186
0.21633214 0.8960593 0.55191004
-0.49770856 1.6514071 0.6840651
-0.035572357 -0.08469685 -0.31139362
0.5078865 1.1383939 0.10561925
-0.53135955 1.6507328 0.2017819
0.12485717 0.9939574 0.37717348
-0.7299659 -0.41657376 -0.4252077
0.3982809 -0.4179791 -0.39590496
-0.07285161 -0.082491025 0.7593483
0.16715929 1.4351838 0.884912
-0.48011756 -0.08300508 0.035989646
0.5457642 -0.4210199 -0.6794616
-0.39948925 -0.08092013 0.644517
-0.01372334 1.8338355 0.12645891
-0.7238088 0.7415072 -0.004781951
-0.44509304 -0.4158989 0.016880823
0.18046594 0.8446454 -0.56668836
-0.69668055 0.74462146 -0.20719318
-0.10896705 2.089539 -0.42573538
0.4269364 0.7941974 0.273139
0.53940535 1.2274609 -0.12769377
-0.050131142 -0.24889357 0.10212308
0.58346355 -0.08307192 0.53462976
0.10043454 1.0467551 0.8647822
-0.69217706 -0.41209042 0.5998667
-0.23749703 1.1526186 0.8686452
0.5119355 1.6180546 -0.38471997
-0.88866323 -0.08709325 -0.7349304
0.8988252 1.2776003 0.14155068
-0.5961647 1.5573332 0.37095594
0.17841026 1.690536 -0.6028776
-0.081159495 -0.4127109 -0.32170182
-0.29773834 1.5042228 -0.63026977
-0.2322082 1.9723744 -0.5614073
0.5739435 1.2452316 0.5095049
-0.40139353 -0.08333184 -0.42226207
0.25889656 -0.18004516 0.929693
-0.7678085 -0.24095076 -0.7429912
0.69526136 1.5108728 0.29499382
-0.45668212 1.5858927 -0.48235163
-0.34462357 1.3212205 0.23205659
-0.31304044 1.823596 0.4300069
-0.33631384 0.88668704 -0.740052
0.060201168 1.1367741 -0.36229455
0.084436744 1.2988698 0.7639543
-0.6041937 1.5405557 -0.30155
-0.015573321 1.8638614 0.7034662
-0.18665585 1.9608474 0.36738634
-0.020857792 0.70736635 -0.04134027
-0.07564437 2.201672 -0.10251368
-0.07051639 1.6976413 -0.03118149
-0.011201288 0.8814684 -0.1648836
0.03992577 -0.07974507 0.05888951
-0.5385385 1.2035363 0.7240455
0.21179578 1.1630883 0.7052952
0.7331126 -0.4171381 0.22809663
0.4329481 -0.25446647 0.080856904
-0.8939348 1.0726128 -0.016416777
-0.5260906 0.7967448 0.009572574
0.1638909 0.7690331 -0.05093552
0.070781216 1.4549029 0.104285344
-0.4087152 -0.082561225 0.88698304
0.26849204 1.5583134 -0.14443314
-0.33891743 2.0623612 0.37094325
-0.5069275 1.1684114 -0.7432203
-0.2500878 0.85686564 -0.23349881
-0.92334926 -0.25471625 0.8722824
-0.32454944 0.9959579 0.6129352
0.3675416 -0.41843924 0.43580258
-0.23973067 1.4758418 0.2773436
0.04474852 -0.41520882 -0.016728226
0.33582962 0.5948698 0.5009595
-0.46352345 1.186084 0.13781586
0.19686642 -0.41344768 -0.45189977
-0.47619647 0.89802647 0.33493695
0.18425857 1.8108062 0.067121655
-0.009174297 0.97674584 0.49688292
0.84409976 1.0024047 -0.1470576
0.195429 -0.079657495 -0.078980476
0.63442963 0.65292335 -0.041345365
0.18950343 1.3821461 -0.67185193
0.3567419 0.789593 -0.6624265
0.091985054 1.3152063 0.57072353
-0.14019951 -0.41415104 0.06789471
-0.18259156 -0.081580855 -0.19473425
-0.5449236 1.0101914 0.6685731
-0.5430841 1.758428 -0.56181467
0.9021677 -0.40634206 0.123813115
0.82462215 1.6231687 0.23469117
0.56898224 -0.41197622 0.744043
0.04444424 1.8373122 -0.72320855
-0.24775961 -0.25078887 -0.5867717
0.5281925 1.5782969 0.39424044
0.8984529 -0.40678588 0.5363736
0.27921453 1.963829 0.1692752
0.35703963 -0.08619303 -0.907639
-0.082697175 1.6997093 -0.8032217
0.14466304 -0.07515891 0.8764335
0.016419504 2.0285678 -0.019752085
-0.19281217 2.1395884 0.2736859
0.2897244 1.9815519 0.521603
0.6189403 1.8728187 0.3382691
-0.57622504 1.4074566 -0.4322526
-0.2535467 -0.085751295 -0.747236
0.71997213 -0.08268385 0.8779743
-0.72341824 -0.08084013 -0.2153126
-0.4469983 -0.2456609 -0.6374994
-0.45230055 2.0749838 -0.12897356
0.61590004 1.4278443 -0.6524768
-0.63487804 1.22117 0.26968405
-0.34410578 1.3000578 -0.64928055
0.33936137 0.9854712 -0.5656079
-0.12327865 1.0044757 0.68295145
-0.3537148 0.95061433 -0.5540804
0.36352617 0.4828552 -0.16986358
0.8601515 1.0682847 0.18650103
-0.3526578 -0.41951564 0.3554268
-0.346044 1.8252351 -0.656297
0.20975539 1.2285597 0.8896902
0.7391933 -0.08188733 0.43000722
0.3827405 1.9006133 0.017842066
-0.924599 -0.25193253 -0.42747205
0.44220075 1.8440789 0.5689007
-0.19196667 0.611301 0.56544363
-0.8818476 -0.4133393 0.5275457
0.49945578 1.3000664 -0.5283849
0.48960438 1.0595706 0.49779433
-0.3680906 0.58553314 0.4412865
0.48707014 1.0243847 0.72043455
-0.15210538 -0.2550285 -0.762511
-0.71034515 -0.2607258 -0.9269364
0.39953107 1.5659323 0.19070737
-0.08447462 -0.24212015 0.64301634
-0.16189119 -0.08997167 -0.9157771
-0.86539185 1.281879 0.29167315
0.07047258 0.7447331 -0.24717742
0.57804376 -0.08572517 0.74847734
-0.04393942 1.1747322 -0.5199523
0.18653604 2.1525507 0.24321985
0.24042022 -0.41806903 0.61463684
-0.49649483 0.81305563 -0.5863499
-0.31713727 0.8700019 0.0694962
-0.58092725 1.9532189 -0.22769418
0.036127634 -0.24566141 0.47404617
-0.64348555 1.3061328 0.6224167
-0.79351604 1.1089804 0.38395408
0.7525052 -0.2521428 -0.0897907
-0.26035613 1.5558296 -0.43738768
-0.051015213 1.4740973 0.25394315
0.7170316 -0.083177514 -0.39267623
-0.68351746 1.5807971 -0.5133738
-0.8207973 0.9129268 0.084251985
0.56937283 -0.08161834 0.32249007
0.24887979 1.7983166 -0.45988536
-0.113722324 1.7817755 -0.21082634
-0.26432538 1.9803874 0.54445744
0.40412602 1.8056314 -0.31480804
-0.5199368 1.349588 0.40672475
0.27475178 0.62378603 0.038080774
-0.23069666 0.614107 0.21478084
-0.4211896 1.165783 0.5453949
-0.094369926 1.0226634 -0.2679983
0.32042244 -0.23683718 -0.7799179
-0.15667415 0.9679215 0.35621592
0.6285391 -0.27390954 0.07751881
0.651891 -0.24884719 0.25048134
-0.40191892 1.8588195 -0.28812248
-0.15814874 1.8441411 -0.70910156
0.10418224 -0.414199 -0.62213755
-0.19647682 1.2135496 -0.888737
0.6468996 -0.24322942 -0.9183427
-0.6558298 0.80428696 0.3744375
-0.59832346 -0.26035243 0.2709509
0.57533205 -0.41426283 0.5270546
-0.15158854 1.3775802 0.09555783
0.29698157 1.542968 -0.6350144
0.007867926 1.143054 0.6541103
-0.6953869 1.3946726 0.2990026
-0.17914537 0.8626631 0.5381813
0.89710045 -0.08888857 0.7340869
-0.572862 1.8805456 -0.39548308
-0.5857222 -0.086672485 0.35559034
0.35332215 0.5308199 -0.34486622
0.31881115 1.5161897 0.6640835
0.27404016 1.6128031 0.816725
0.68722177 1.2959521 0.31847602
-0.18573913 0.972433 -0.07229112
-0.142596 0.9815272 0.13949555
-0.6242515 -0.24747488 0.48289472
0.12992164 1.0355691 -0.21549307
0.92046815 -0.24788612 0.645982
0.1357339 1.4519699 -0.88372433
0.41374394 -0.25008082 -0.2891134
-0.5794636 0.605493 0.10297569
-0.4835143 -0.26058286 0.5953659
-0.3546641 0.838299 0.47123122
0.92696494 -0.24629323 0.43989795
0.5973592 -0.24996966 0.6502569
-0.55740905 1.5407269 0.019903224
0.527887 1.2789416 0.23211691
0.84822273 1.2151849 0.32723153
0.12653384 0.6654876 0.33749717
-0.40854096 0.93995357 -0.33198845
-0.7767104 -0.25416178 0.54003716
0.22697681 2.1296988 -0.28937912
-0.011986138 1.9554415 0.32861722
0.5445702 -0.08571437 -0.9095384
0.20211262 0.69888014 0.6460675
0.0974644 -0.2567119 0.9277307
0.657494 -0.08155589 -0.73951465
-0.006877795 1.4845197 -0.29506534
-0.1064423 0.39041972 0.021705158
0.46481386 1.4984443 -0.75694656
0.15261246 -0.08168943 -0.2853418
-0.78658473 -0.2530717 0.73240507
-0.7410402 -0.080804884 0.43873549
0.5093008 1.3298856 0.7375705
0.18999223 1.4692265 -0.30357695
0.096255496 1.5585384 0.3151579
-0.39042136 0.8634827 0.7048048
0.5873792 -0.24454762 -0.2190208
-0.20865664 1.3476073 0.88234043
0.78321326 1.3748227 0.46169108
-0.59685636 1.0346472 0.30552438
-0.16928342 2.057946 -0.03339379
-0.6194016 -0.4028026 0.90583515
0.22966483 -0.24305287 -0.37778193
-0.598256 0.7606031 -0.4146738
-0.4308753 2.0427914 -0.31173724
0.7832993 -0.2475169 0.34241325
0.91671395 -0.24153362 -0.594152
-0.1531856 -0.085482046 0.0037864763
0.033942316 1.5016077 0.5316125
0.33717126 -0.08228797 -0.3610667
0.6001353 1.1753467 0.678586
0.5475766 1.753252 0.04953114
-0.7055386 1.4309709 0.06582479
-0.4128359 1.485537 -0.7877941
0.9002846 -0.40683234 -0.08461125
0.6811725 0.861864 0.447092
-0.17669612 0.83563775 -0.54897094
-0.3787862 0.70811623 0.30919
-0.35330117 0.8177103 -0.44255793
0.05729345 -0.25562927 -0.35588926
0.69667166 1.033555 -0.5385423
-0.5118675 1.2471981 -0.5332918
-0.050069094 1.4302845 0.7078757
-0.67708635 1.5658876 0.18262556
0.27744848 -0.08045684 -0.6977816
-0.89523435 -0.4062324 -0.5336634
0.0030740257 0.9180262 -0.646394
-0.2783532 1.1897138 0.6677301
-0.05664662 0.99650806 -0.47434106
0.8936424 -0.40676087 0.7350648
0.2256501 -0.08199582 0.12453852
-0.23522529 1.0001826 -0.41039556
0.05861412 1.8390154 -0.08635601
-0.448251 -0.24970114 -0.28663903
0.9012066 -0.08700475 0.53367305
0.88862634 -0.39954358 0.9075309
-0.06022267 1.5075891 -0.0499961
-0.50726604 1.0111884 0.48398763
0.5702807 1.9095156 -0.35170132
0.30584827 -0.40267903 -0.9167737
-0.30047384 1.7953601 -0.12018746
-0.5588979 0.6328318 0.29593366
-0.3859207 1.1481723 -0.3907007
-0.14554411 -0.40921313 -0.9086792
-0.16895226 1.8115412 0.2785902
0.41747037 1.0196767 0.26288164
0.2932716 1.8153644 0.69083965
-0.36683124 -0.4146121 0.54964006
0.5350389 0.8292594 -0.31359
0.20593634 -0.41312546 -0.7599008
-0.1326155 1.992957 0.15545109
-0.5328037 -0.08256085 -0.14449835
0.5405835 -0.1005597 0.91699505
0.73038423 0.74995124 0.10365173
0.53800523 -0.07082559 -0.12533292
-0.21109831 -0.25583977 0.76721424
-0.04942927 1.3376601 -0.91822374
0.12022911 -0.4185554 0.7534858
0.26683527 -0.2441956 0.013039371
-0.33132392 -0.4176763 0.1543709
0.22013661 0.6207413 -0.20094544
-0.008657287 1.1313522 -0.8901013
0.24764831 -0.25525385 -0.6128495
-0.10468756 1.7190247 0.7953069
-0.04814268 1.9951957 0.573938
-0.23398766 1.4544885 -0.870434
-0.45292583 -0.25661442 0.4090141
-0.15194452 2.1907725 0.09676048
-0.12839946 -0.25690234 0.4806736
-0.36238992 1.1168582 -0.6248463
0.07600445 0.932203 0.17277281
0.23026389 -0.26083818 0.7771198
0.9347764 -0.24674809 -0.7825955
0.44727075 -0.2529802 -0.62286115
-0.3002656 -0.25223786 0.03102383
0.29064426 1.575643 -0.44193414
0.72394645 -0.39874977 -0.91917264
-0.7197231 1.8015491 -0.23115376
0.08752701 1.9978333 0.15343405
-0.3751539 0.6836978 0.10695961
0.17308986 1.9392103 -0.6180098
-0.92561543 -0.2589553 0.43321335
0.45614558 -0.24655554 0.5300746
0.40760952 -0.25302988 0.35857916
-0.91232693 -0.10381791 0.17455755
-0.5121275 0.98463917 -0.6915545
0.4037866 0.4999041 0.16231763
0.37066138 0.7213408 -0.29638284
-0.3073457 -0.08366203 0.12386928
0.019751374 -0.08118358 -0.47777408
0.68301797 1.0808874 -0.013189707
-0.40789884 -0.23955095 0.7604494
-0.26747957 0.6216172 -0.19302982
-0.06567401 -0.24944997 0.29428822
-0.22757274 1.779851 0.08915335
-0.43260968 1.2064329 -0.09907354
0.7571656 0.87468225 -0.2909723
0.90384483 -0.08567801 -0.4902252
-0.305824 1.492912 0.49203977
0.1101345 0.99285775 0.6802473
-0.30509698 1.6908412 0.76517737
0.5200466 0.7234365 0.46585077
0.226271 0.8539289 -0.22304785
-0.6581526 1.1433706 -0.6145023
-0.20239449 0.54400694 -0.49144652
0.38852486 -0.4189019 0.016248122
0.08623713 -0.40459567 -0.91114867
-0.15499267 1.5743779 -0.22035259
-0.7371564 1.1122992 -0.03904058
0.38858193 0.74704957 0.6044971
0.012918839 -0.4097346 0.909047
-0.023691792 1.4132926 0.9032756
0.48376346 2.032427 0.23571822
0.40123123 -0.081984095 0.21765417
-0.41923946 1.5113931 0.3212223
0.033507593 0.73370004 -0.717379
-0.47106445 0.9766693 0.13229477
-0.20218283 1.1823883 0.18977566
-0.09698472 0.5446943 -0.10152524
0.2710405 -0.0864582 0.7336256
-0.9110766 1.2645404 0.06942293
0.48118037 1.5104182 0.7484623
-0.7466662 1.2618232 0.13197997
-0.0007681723 2.1571307 0.2730573
-0.73124754 -0.08476059 -0.9010893
0.4106836 -0.4184646 -0.18062416
-0.11454427 0.7011157 -0.22117579
0.13022342 -0.25288814 0.61253285
0.89586055 -0.08590183 -0.0922316
0.8895987 -0.081126556 -0.70755386
0.56408834 -0.4142236 -0.2932741
-0.14987072 1.563446 0.64535856
-0.4953897 1.2872751 -0.30030814
0.33653533 1.2135973 0.22513427
-0.29572642 -0.245062 0.58265257
-0.4040453 0.7373009 -0.28374165
-0.42830586 0.6435227 -0.4769067
0.36894375 0.9698175 -0.7674707
-0.65606976 0.935821 -0.536358
0.56101024 0.9270164 0.35610253
-0.6412092 1.9369874 -0.06304719
-0.078487724 1.6297562 0.43577892
-0.60474014 -0.092466086 0.15508188
-0.732383 -0.082655296 0.8022371
0.49841726 -0.24794102 0.22876078
-0.04117874 0.3940764 -0.18306941
0.1734811 0.6969828 -0.400334
0.18184489 1.046643 -0.8620244
-0.030580271 1.9860793 -0.5939561
0.74084455 1.5586925 0.4697728
0.31035155 0.8351934 -0.43172103
-0.3616862 -0.08345159 -0.25295764
-0.82732236 1.6123371 0.24977145
0.16396664 1.1266577 0.52166665
-0.12850058 0.65818185 -0.6277182
-0.42707855 0.5112096 -0.16700235
-0.8425319 1.2414066 -0.32373023
-0.575935 0.94775426 -0.37363607
-0.39951354 1.8262236 0.6215323
-0.20395705 0.77916706 -0.053414866
-0.1057709 2.098343 0.4377792
-0.9235304 -0.25394315 -0.2171398
0.56816757 -0.40672782 -0.076043434
-0.8723711 1.4313052 -0.23203486
0.8581017 -0.24956714 -0.92917573
0.46190354 1.4959894 -0.5315765
-0.22961803 0.6920171 -0.39580986
-0.4002127 0.9262339 -0.10220718
-0.32903838 1.0472516 0.22803086
-0.12354493 1.3544409 -0.14611067
0.041290868 0.56471205 -0.23389545
0.580706 1.4104952 0.42512715
0.755545 -0.24921712 0.54503816
0.8957077 -0.40695345 -0.68563426
-0.062473953 1.3144592 -0.37623453
-0.4001731 0.7084508 -0.09046387
0.35971045 1.8593751 -0.6205914
0.40892816 -0.25331214 -0.10685216
0.40849137 2.0470834 -0.3155851
-0.22994286 0.4972706 0.3680929
-0.23261425 -0.08234218 0.51649475
0.22028327 -0.4113832 -0.09453116
0.09635015 0.38736713 -0.04316651
0.64857644 1.009839 0.18063694
0.35649824 2.1274412 -0.1062978
-0.9021603 1.2436497 -0.1355966
-0.024385821 -0.09568045 0.9151664
0.89407706 1.1359658 -0.0115208365
-0.02131005 0.88274634 0.027489394
-0.24841033 -0.08348405 0.7163759
0.36541313 0.69338197 -0.10838866
-0.3150165 1.9552462 0.04449919
0.34312516 0.8914488 -0.06115025
0.19667266 -0.2447795 -0.9264671
0.08036652 1.3126171 -0.22723573
-0.22712669 2.150572 -0.23539358
0.5721184 -0.08348743 -0.5386791
-0.33253047 1.6813673 0.21473286
0.4348964 1.9281559 -0.47226116
0.5803105 1.420998 -0.3912561
0.9011731 -0.08495548 0.11184965
0.6003482 1.120611 0.33669668
0.58044565 0.82625365 0.17952302
-0.35395947 0.710354 0.5995605
0.21949111 1.9196873 -0.33418274
-0.42558092 -0.40686402 0.8972249
0.12485129 1.6668642 0.45419782
-0.732447 -0.24949718 0.92064905
0.3520478 1.1672733 -0.83145595
0.5726105 -0.24546233 -0.42006952
0.688523 1.3263735 -0.24255145
0.5607484 1.7861996 -0.52280116
0.35242826 1.7480938 0.17580435
-0.84808874 1.0693426 -0.23216406
-0.81617653 0.9004221 -0.1242509
0.39632362 -0.410721 -0.76516485
-0.66866994 1.0130556 -0.215825
0.7131301 1.7134302 0.36613306
0.72942346 -0.41663477 -0.18702616
0.73320216 1.7933992 0.17631486
0.7383716 -0.082020834 0.6497879
-0.6178498 -0.25351757 -0.61585104
0.017391574 1.2973664 -0.015626688
-0.25514936 -0.41429168 -0.25990683
-0.41142628 0.51598346 0.23615168
0.2067796 -0.08364349 -0.4975859
0.1531421 0.8384402 0.77874637
0.09564253 2.0721037 -0.45092776
0.43515664 1.2934685 -0.28357598
-0.6475898 -0.08056998 -0.7406486
0.16708982 1.9489621 0.34071618
-0.58553255 0.6132021 -0.0905672
0.31684786 -0.24933442 0.621019
0.006992766 2.1596828 -0.28344223
-0.32989135 1.0145142 0.4191078
-0.32866222 1.9104025 0.2391038
0.9022244 -0.40679336 0.33042037
0.2166786 1.4063202 0.25428477
0.029138237 -0.24286096 0.773426
-0.790587 1.6042746 -0.3174816
-0.5353673 1.3982581 -0.14613849
-0.50701153 1.484339 0.53148794
0.22522089 1.0444674 0.21099934
0.6264454 1.0178046 -0.36507583
0.5715329 -0.2041463 -0.046544492
-0.71124995 0.74559695 0.19089201
-0.6235397 1.1665134 -0.3773853
-0.31895405 1.0793372 0.025757479
-0.282349 2.0562549 -0.3962348
-0.8435559 1.6313245 -0.13767554
0.16237965 1.1800504 -0.084209785
0.67389 1.8761765 -0.208488
-0.93205035 -0.2557351 0.6394607
0.48776662 -0.41317272 0.90721905
0.707389 1.4538438 -0.06421332
0.16972876 1.775534 0.26146796
-0.33186996 -0.083131015 -0.071112886
0.039370842 1.5950792 0.8510877
-0.76897824 1.7926005 -0.026648065
0.060112484 1.3661555 0.38511127
-0.23361167 1.17681 -0.5121945
0.067987725 -0.084012434 0.25335878
0.11164967 0.7923569 0.46655017
-0.12647322 -0.4153769 -0.6118636
0.27192575 1.7872775 0.47789842
0.9011489 -0.40554005 -0.48733616
0.20357367 1.6692334 0.61770356
-0.445499 1.3759592 0.014121056
0.393947 1.6201086 0.5213541
-0.20101768 0.7271177 0.3859423
0.087679416 0.7429277 0.14400837
0.44173494 1.6306927 -0.17620865
0.7373507 -0.41916704 0.021468788
0.009280672 0.8374715 0.6271975
0.08242167 1.8488069 0.49703747
-0.25993377 1.6462729 0.38439915
-0.05206656 1.5276372 -0.8755461
-0.340829 1.0798013 -0.8131297
0.14702354 1.9337987 0.63645244
0.52757657 0.65239763 -0.3901519
0.89813507 -0.4070658 -0.2880648
-0.57641315 -0.41447693 -0.31600857
-0.04987526 0.6262038 0.29133424
0.031210195 -0.090218365 -0.91618586
0.5678607 1.3305726 0.0308282
0.11162472 2.0817795 0.45400682
-0.75161934 0.8869539 -0.3326523
-0.18735297 -0.41158515 0.6201174
0.56992126 1.6735575 0.22188923
0.22888729 1.4818776 0.48365605
-0.42980492 0.4973263 0.02458898
0.520238 1.1009417 -0.5265881
0.012069283 1.2804184 0.1946221
0.764359 -0.24062097 -0.74259335
-0.13236485 1.8827955 -0.039039813
-0.32256603 -0.41470277 0.7407396
-0.08509487 -0.41415703 0.76170635
-0.61557066 -0.25149906 0.7257302
-0.16279939 1.186574 -0.70404434
-0.25229388 -0.2559811 -0.9229791
0.7328382 -0.41366577 -0.5836227
-0.6042594 -0.24874961 -0.42271298
0.77211815 0.87993383 0.25255394
-0.13154829 -0.08322671 -0.5907235
-0.016685322 1.6815796 -0.5998701
0.6560372 0.842981 -0.4586743
-0.3633793 1.5072491 0.10717262
-0.18840188 1.1967037 -0.33060813
-0.55187035 -0.08977307 -0.9140544
0.26119462 1.2940416 0.44948956
-0.8644191 1.0972118 0.19004843
-0.27873626 -0.24485788 -0.3751353
0.53018904 -0.41021174 -0.8997031
0.37950414 -0.25208485 -0.46883202
-0.70140934 -0.41775683 -0.79821867
-0.3194191 -0.25086027 0.92636955
0.38319325 -0.4167217 0.22308922
-0.011617074 1.0561681 -0.064003095
0.012275433 0.773638 -0.51076657
0.8117099 1.7116948 0.024692336
0.70401907 -0.41600963 0.8805822
0.47821432 0.5276046 -0.013680927
-0.56069326 -0.08386485 -0.33291414
0.626112 0.95613825 -0.17592984
0.53398824 2.0109596 -0.16887286
-0.110858485 1.5210128 -0.68496585
0.63910735 0.71744037 0.30827335
0.067384265 1.834379 -0.49387223
0.89640117 -0.40616417 -0.87985355
0.5361172 0.9186282 -0.6320871
-0.7847395 0.9330898 0.2864325
0.4359884 1.2349768 0.39061403
0.54659164 -0.25339437 -0.7778256
-0.35763067 -0.08725877 -0.91127896
-0.15217558 0.81539047 -0.756866
-0.04341656 0.71400416 0.48133323
-0.21037033 -0.24573809 0.18075475
-0.25372136 1.6300504 -0.06897996
-0.03590151 0.86157477 0.80634546
0.15280524 1.2013099 0.3053136
0.29481453 0.72763574 0.42131484
-0.9241351 -0.2478576 0.008341286
-0.044732794 0.64002615 -0.39291447
0.12320899 1.7539192 0.77726465
-0.82966685 1.619947 0.05312177
0.36356938 1.3526597 -0.65192926
-0.11107603 1.1687424 0.043114625
-0.6488607 1.2008808 -0.1833506
0.5965084 1.7440097 0.5212492
-0.053085066 0.5161654 0.46825188
-0.5185237 -0.41863704 0.709039
0.7097107 1.191267 0.14995615
-0.28666115 1.9748628 -0.17390248
-0.64730275 0.9231247 -0.045593258
-0.17985919 1.5648808 0.09061874
0.48016694 1.100021 -0.2790613
0.90326107 -0.08584675 0.3233003
0.25192422 -0.24992654 0.4452693
0.23748606 1.2276171 -0.30930358
-0.54517674 0.8430583 0.5701823
0.13427407 2.1845198 -0.12058685
-0.0010272812 0.6602036 0.66636884
0.026899852 0.5710522 -0.5555276
0.50295883 1.5416499 0.018796384
0.32762873 1.0252504 0.61297596
0.62950355 -0.2505448 -0.61375546
