0.59044504 1.2832994 0.60613835
0.46261543 0.43221617 0.07877506
0.448417 1.4539616 0.36661264
0.74729776 -0.251066 0.7574113
0.3919124 0.9162251 0.5978532
-0.59645694 0.8743877 0.45722023
0.01668562 0.13452798 -0.3743709
0.6570668 1.1004925 0.6231816
0.26176396 1.7161283 -0.48502752
0.7742295 -0.24845475 0.9349044
0.4671892 -0.08405748 -0.72693527
0.0058569647 -0.41272765 -0.46585694
0.017524265 1.339983 0.1309202
-0.75130486 0.9879973 -0.08269419
0.28876758 1.3233609 0.3430788
0.10215338 -0.23914352 -0.52754396
0.3127 0.36883277 0.23042712
-0.33516783 -0.08276428 -0.5829395
0.10578838 0.5926112 -0.36235288
-0.9056848 -0.09596965 0.73586273
0.45807403 1.6601968 0.4174403
-0.6197398 1.410273 0.028887093
-0.46503103 -0.25248057 -0.92430145
0.42839193 -0.08075109 0.6462212
0.21203662 0.3472908 -0.61103916
0.85423243 1.2769127 -0.101056084
0.8694548 1.1191988 -0.20530905
-0.28885528 0.96911013 0.026319653
-0.2320474 1.5613558 -0.35583898
0.20608631 0.11389286 -0.22425193
-0.44876504 1.263634 -0.1419438
-0.76269317 0.7333183 -0.42569733
0.004052719 -0.07403699 -0.12850419
-0.75563496 1.4480735 0.17663696
-0.72654414 -0.08298993 -0.4234368
0.3085751 1.0605197 -0.46016854
-0.59192646 -0.4127761 -0.10746263
-0.36097836 1.2369196 0.64770824
0.084171414 1.3336709 -0.4107006
-0.29655182 0.74794996 -0.21169016
-0.07086399 1.1991816 -0.48630714
-0.24542049 1.0815768 0.6736839
-0.7539051 -0.07786859 0.22500488
0.20959549 0.5297096 -0.7622528
-0.05212561 -0.08695328 -0.7630075
0.75944877 -0.24986076 -0.48717898
-0.5530164 1.1358628 0.71875095
0.58141387 1.3205215 -0.6144215
-0.10147465 -0.2374845 -0.45913458
-0.17528181 1.0382578 -0.7373785
-0.11497651 -0.059938148 0.18770412
-0.79568183 1.1052029 -0.42948228
0.3768016 0.93641067 -0.0144586
0.12675796 1.3346925 -0.027223988
0.19036196 0.8945366 -0.53342664
0.92468524 -0.24789977 0.014455679
0.030524429 0.60821986 -0.82754385
0.817155 0.74871355 -0.3424852
0.6776117 1.5859184 -0.034288496
-0.24315566 0.10587683 -0.09394042
-0.44139838 1.344796 0.48457292
-0.1266982 -0.23258024 -0.26522487
0.85722566 1.1425245 0.28607997
-0.71771085 -0.42082435 0.77430856
0.34002882 1.104086 0.83744526
-0.49634266 -0.41860378 -0.7306099
-0.7531605 0.92451644 -0.49263462
0.14436592 0.2618274 0.18301405
0.29275995 0.73234636 0.8258573
-0.56647444 -0.08423303 0.54879296
0.7535188 -0.087240055 -0.5851432
0.81676733 1.0971286 -0.37595612
-0.14244229 1.5098717 -0.52081215
0.31136918 0.12574574 -0.007607903
-0.021096066 -0.41401726 -0.7636906
0.73031116 -0.41812232 0.64951897
-0.1534329 0.6807451 -0.83877087
-0.5003321 0.72396815 -0.5007323
-0.0078124804 0.8724853 0.43281734
0.5663891 -0.078271195 0.11274557
0.20340824 -0.41098177 0.29123616
-0.35257322 -0.41537544 -0.5884969
-0.3723625 1.184335 0.81361055
0.09765458 1.3467824 -0.8315685
-0.8909449 -0.09895782 -0.91276294
-0.77594614 0.968048 0.4658007
0.08720759 -0.4168225 -0.24830398
0.38805026 1.0763453 0.1299898
0.4827739 0.30115193 0.34188077
-0.060995236 -0.07616533 0.57445383
0.09419141 1.6864666 -0.2120327
0.10792796 1.1392612 -0.1018069
-0.7644515 -0.2419742 0.32932833
-0.51843756 1.6944939 0.24718858
0.4082532 1.1162752 -0.086764544
-0.4981264 0.39277637 0.47145492
-0.87081623 -0.08244583 0.024328955
-0.5262017 0.7441397 -0.029408986
0.72861755 1.0638506 -0.5262641
-0.22295144 1.3508847 -0.6009376
-0.21807078 1.555586 0.6753372
-0.36261475 1.8032284 0.1515702
0.5363081 0.7889085 -0.71305585
0.3219902 1.5778388 0.32133633
0.6663143 0.9129636 -0.6163145
-0.4061569 -0.08385259 0.44634584
-0.61816645 -0.09172121 0.91754234
0.4133703 -0.077552445 0.434688
0.59666705 -0.2649755 0.9017737
0.9225123 -0.24685054 -0.38642818
-0.8971888 -0.40722463 0.10933632
0.74234927 0.96847713 -0.050588526
0.9200573 -0.24720944 -0.18627003
0.50648886 0.4608388 -0.5239606
-0.5334989 -0.4196214 0.47473642
-0.16376083 0.14620562 -0.28801423
-0.70526814 -0.41459027 0.39936137
-0.12146033 0.45741588 0.15501392
-0.3518174 1.0271518 -0.43980747
-0.903033 1.1166544 -0.032621827
0.0046241516 -0.41340145 0.5781372
0.12880398 0.2559399 -0.024102565
-0.69615865 -0.07645874 -0.017544817
-0.7144346 -0.41753817 -0.62503135
0.022730751 0.7927518 -0.69075346
-0.89573777 -0.4080655 0.72094035
-0.90395725 -0.092323974 -0.529305
-0.61231065 -0.24668789 -0.21203718
-0.36254936 0.96201694 -0.83493835
0.4316169 -0.25440115 -0.924031
-0.5868841 1.4698157 0.5059
-0.0032985772 -0.4118393 0.37228006
-0.23439983 0.64211786 0.8124726
0.3250869 1.0588161 -0.84441364
0.38919783 1.3954351 -0.5166722
-0.52871084 1.4455 -0.16627997
-0.52339745 -0.24474613 0.91399896
-0.4841842 -0.2472428 0.11409645
0.6110389 0.9210576 -0.3856458
-0.0020246347 1.4585526 0.31916156
-0.043029964 0.26231834 0.112017065
0.10689622 0.14508331 0.35269392
-0.25734094 -0.41907972 -0.74923754
0.3993126 -0.268771 0.9229671
-0.24789429 1.3938735 0.56949437
0.39884192 -0.08073286 -0.53730065
-0.18139419 1.0442088 -0.53282857
0.8372685 0.64754385 0.058173098
-0.48419648 1.4428151 0.32972968
0.3773631 -0.07561312 0.8774805
-0.07436221 0.7500719 0.8688551
0.25594342 1.3719027 -0.29700458
0.3029859 1.7821478 0.3366602
-0.352966 -0.25566036 -0.77004635
0.7380091 -0.08033557 0.22058994
0.26795274 1.0309622 -0.1512346
0.40154523 0.9012399 0.8078587
-0.48233855 1.623075 0.4404119
0.55237913 -0.4204672 0.1310564
-0.7053225 1.1290791 0.5409728
-0.1355778 1.14773 0.45586416
-0.03146784 -0.24644557 -0.6332967
-0.5484028 -0.083842784 0.7452191
0.7727289 1.4371092 -0.18524377
0.17234959 0.66008556 -0.024612825
0.908136 1.0596199 -0.037727755
0.5316845 0.5013027 -0.10884054
0.57116425 1.4294927 -0.2634917
-0.105942994 1.6825448 -0.21731481
0.36571175 0.32799634 -0.50044405
-0.09435077 -0.4114857 -0.13818613
-0.7445103 -0.41525805 -0.21555768
-0.27331865 -0.41026756 -0.06204303
-0.2706976 0.54353637 0.26204735
0.9040431 -0.088891715 -0.89587384
-0.36867726 -0.41126508 -0.9013984
0.118514836 -0.24148759 0.31997156
-0.8967416 -0.091820344 -0.33204502
-0.026006728 0.874156 -0.19075195
-0.17494777 0.4641441 0.7188963
-0.663299 0.7587656 0.13532792
0.015309691 1.894017 0.069890335
-0.11130695 1.3761013 -0.3890651
0.9271573 -0.2470895 0.22819304
0.15698963 -0.41061157 0.46194828
-0.030607486 -0.25724554 -0.9151453
-0.9152348 -0.26034445 -0.8731067
-0.16826819 -0.4084563 0.2570966
-0.6864049 0.6401616 0.48683977
0.017185863 0.9997273 -0.764176
-0.26718235 1.325151 -0.80220914
0.6978556 0.8401562 -0.20957416
-0.33815813 0.20773765 -0.3345703
0.62862885 1.3586854 -0.090589315
0.44471532 -0.23905389 0.75828296
-0.009775766 1.3819399 0.6227842
-0.43041137 1.6071429 -0.5044113
-0.12100939 -0.23908052 -0.06592374
0.74889505 0.9097471 0.5164592
-0.24538785 0.11507131 0.14812201
-0.18105844 -0.41712558 0.44327366
0.25707895 -0.079191774 0.54400563
-0.29280847 1.134642 -0.09764442
-0.31505597 1.3561482 -0.2839808
-0.5141175 1.371768 -0.34162712
-0.39629808 0.9858735 0.816597
0.35358727 0.57745075 0.730952
-0.5508286 -0.08269733 -0.55049926
0.095993705 -0.079893604 -0.66833943
0.20037523 0.97831714 0.0861143
-0.81074387 1.1725919 0.39078635
0.36451983 0.8565864 -0.63358176
-0.68447345 0.8058642 0.58494985
-0.4636518 1.1090226 -0.5845199
-0.11609246 0.990005 0.547795
0.04044908 -0.2507279 -0.18438241
-0.77052844 -0.24263999 -0.10362342
-0.035606433 1.6155937 -0.37427637
-0.3258 0.98044 -0.21926495
0.26724666 1.0464255 0.6678595
-0.26338583 -0.24250272 0.38067758
-0.4899848 0.4682637 0.20266645
-0.5361075 1.0793071 0.1906532
0.25841683 0.11654416 0.1791386
-0.13248235 1.3406074 0.23411515
-0.9018986 -0.4049021 -0.10810758
-0.578272 -0.4055202 -0.91612613
0.54092735 0.59127784 0.6076627
0.07411822 1.2135227 -0.7039852
0.23413762 1.4590508 -0.74999464
0.4190853 1.3833885 -0.70603395
0.051640484 1.3256761 -0.20134687
0.3572268 -0.059595175 -0.1848031
-0.5183549 -0.41797793 0.2656852
0.098117314 -0.06700194 0.45716754
0.06963228 0.092047155 0.1557883
0.8823687 0.91928077 -0.21938659
0.6787238 0.42083183 -0.23558247
0.73843664 -0.086171135 -0.9044031
-0.4279375 -0.25324443 -0.47868228
0.19611436 1.8701527 0.039658807
0.09325908 -0.23054299 -0.030131858
-0.214706 -0.4101631 -0.45226085
0.41129836 0.6266594 -0.23109731
0.38581932 1.1330035 0.34551525
0.33908647 -0.41957846 -0.5840554
-0.29736578 0.3893309 -0.61778307
-0.51750886 1.7346873 0.048164852
0.42536896 -0.4121272 0.6182622
0.51070976 1.7342341 0.004968073
-0.083490245 -0.061761748 0.38613144
0.37483808 0.8642395 -0.4340785
-0.32836065 1.8435707 -0.049029525
0.23546423 -0.40100515 0.91218853
-0.2030143 -0.06296791 -0.40950808
-0.08095388 0.11694392 0.2731257
0.14125592 0.71782124 -0.5083916
0.386205 1.1733603 -0.30350608
-0.6548337 1.3242757 -0.14438039
-0.2846812 -0.23722492 -0.17022505
0.81589794 1.2866837 -0.31248984
0.5467988 -0.41189793 -0.4972
-0.43575013 0.8573546 0.33593637
0.11013694 1.0266099 -0.4284439
-0.37895754 -0.2467787 0.24135445
-0.44624949 -0.074833214 0.24710521
-0.20902851 1.1018233 -0.31901148
0.89347315 -0.09454417 0.9085963
-0.08805412 0.5253968 -0.3520041
0.92888653 -0.24916342 0.85766137
0.072504334 1.4883366 -0.28806165
0.20916796 -0.40974656 0.100538276
-0.110524505 0.93543124 0.74750614
0.35574296 1.8191415 0.10153656
0.20132719 0.20626858 -0.42024916
0.66684544 1.2483826 -0.2612282
-0.48756057 0.7551298 -0.22909167
0.43297833 1.4001405 0.688725
0.7321266 -0.41610146 0.43163696
-0.5795152 1.2258786 -0.66916126
0.5296842 -0.07859776 -0.3303439
-0.5463841 1.0130103 -0.73058826
0.72387433 -0.41618168 -0.38837343
-0.899192 -0.093831494 -0.14235348
0.7769289 0.52101326 -0.08809742
-0.8676592 -0.09526873 0.9140514
-0.88145554 1.1159508 0.17483422
-0.19951499 0.8628398 -0.11568139
0.2826513 0.5477803 0.122776724
-0.22365075 0.2801504 0.02062693
0.31734443 1.6494818 -0.18332118
0.287289 -0.23778324 0.21629378
0.0851897 0.8089247 0.10206204
-0.16912499 0.7951103 0.53400844
-0.11036891 -0.26005936 0.917156
0.51252025 0.98271334 -0.75340164
0.7076956 1.2584012 -0.4883321
-0.123062894 1.516171 0.4875313
0.20630088 1.3025434 0.15504321
-0.18102196 1.2431383 0.8480284
0.26276532 1.1690097 0.031454097
-0.1707691 0.6888461 -0.63927746
-0.528708 0.2975318 -0.27861318
-0.75107646 -0.4130634 -0.0020786917
0.12382166 1.2068399 0.69642985
0.71793926 -0.08291539 -0.19398499
0.7259649 -0.08091254 0.009175358
0.47461072 1.5252666 -0.1255929
0.7069242 -0.41550255 -0.7618256
0.31106138 0.7749797 0.0552742
0.24076611 1.4828364 -0.14269692
0.54169387 0.28962445 -0.1928707
-0.45692098 -0.08238365 -0.73918533
0.5934808 0.3199139 0.16680664
0.27495906 0.7204157 -0.35849124
0.6922959 1.4371262 -0.39543843
-0.48658293 1.5233004 0.1381135
-0.76296914 -0.24798569 -0.32003346
-0.4249611 -0.411794 -0.18884277
0.7827295 0.7505151 0.38413823
0.34486115 1.3769374 -0.003887959
0.16187876 0.93816125 -0.9008024
-0.7719088 -0.25330707 -0.5270603
-0.34746253 1.4311023 -0.47270525
0.26017398 -0.40571284 -0.2769438
-0.6294762 0.5801588 0.16107225
-0.6913013 1.0309925 -0.28410536
0.434209 1.1200724 0.5512241
0.105022356 -0.24070479 -0.7632884
0.24669906 -0.06348786 0.330836
-0.13442703 1.0011392 0.32164574
-0.59252465 0.94050515 0.01888194
-0.8906926 -0.41204363 0.32587078
-0.8573334 -0.40567845 0.9062113
-0.7232938 1.3826171 0.3750008
0.34576088 -0.41731015 0.7777139
0.6682528 0.74091053 0.56399035
-0.57385576 -0.2501905 -0.7898654
0.22932753 -0.2284635 -0.19056915
-0.8937082 -0.40533358 -0.7343486
-0.4337778 1.3386003 -0.70005023
-0.22632834 0.855113 0.37529895
0.618052 1.6506997 0.13430735
0.54603994 1.1499131 -0.17734553
-0.6116078 -0.24007599 -0.011915559
0.72824997 1.0948806 0.12952554
-0.89665365 -0.40819964 -0.32656774
0.7975184 0.9082418 -0.4267875
0.29601422 0.2068583 0.3564055
-0.66149145 1.6030442 0.11570465
-0.73350894 -0.41420287 0.21430585
-0.3948025 0.76775247 0.7890023
-0.7432941 -0.08493066 -0.6064621
-0.21392411 -0.41187048 0.8995023
-0.6607006 1.2977527 0.5533097
0.8787068 1.2153063 0.086462304
-0.74842024 -0.24088633 0.11527448
-0.012254636 0.5343088 0.3189689
-0.47087944 1.5710363 -0.059397794
-0.532482 0.5156628 -0.19468006
0.20375189 0.708877 -0.6795815
0.18818018 0.8978247 -0.7255598
0.27845132 1.2618406 -0.8205167
-0.5455224 -0.41614458 -0.52750516
-0.42775285 1.0278274 0.6135532
-0.26240295 -0.05899716 0.31299275
-0.903586 -0.09553867 0.3527394
0.09801396 -0.08155337 0.6753001
-0.44874752 -0.23985885 -0.09087522
-0.692021 1.4012234 -0.41730627
0.45964262 0.6418402 0.10530159
0.3927768 -0.059675 0.012890613
0.15119375 0.26745057 0.52764314
0.784368 -0.24275641 0.12190843
0.4932841 0.7428539 -0.06676434
0.18999213 -0.078354016 -0.87936294
-0.41857418 1.3787436 0.02045273
0.601563 -0.24552971 0.42785138
0.3091635 0.7855412 0.41072813
0.46977234 1.5668076 0.18679693
0.11749236 -0.23921159 0.1477215
0.6803148 1.2900188 0.090404585
0.5496104 1.1672494 0.20331946
0.0047223363 1.0262516 -0.5942583
-0.025689652 0.78097534 0.26917687
-0.39827085 -0.41539788 -0.39027005
-0.7270224 -0.08849752 0.62832797
0.5472125 -0.41400367 0.33388308
-0.9008116 -0.09334923 0.5448011
-0.6408756 1.5488172 0.3111948
0.024438579 -0.4104704 0.18487751
-0.67848736 1.0505285 -0.604139
0.75249076 -0.25067195 -0.29252458
0.39262685 0.60672426 0.45473248
-0.0083318725 0.92693126 0.9153857
-0.91924965 -0.26815417 0.22324029
-0.21949977 -0.091651656 0.9018406
0.12560454 1.185369 -0.51855403
-0.8489622 -0.40640873 -0.9147905
0.32533687 0.800733 -0.16202307
0.23879334 0.5622417 0.30906248
-0.59710824 -0.40862915 0.099283636
0.47216392 0.64893997 -0.4268669
0.19538616 1.6883564 -0.03583286
-0.40514126 1.1655695 -0.30005953
-0.9255345 -0.24658975 -0.64707243
0.8961493 -0.08680331 -0.28773603
0.632452 0.59871036 0.018789906
-0.71548676 1.1665716 -0.12278743
-0.3108849 1.0049574 0.4491912
0.22576332 0.6018952 0.5572989
-0.5065213 1.3400724 0.67951524
-0.037085235 -0.064792626 -0.3152308
0.5120359 0.8444077 0.10812044
-0.5395423 1.3325441 0.19643326
0.12919727 0.6944422 0.38065526
-0.7282804 -0.4167592 -0.426865
0.39626873 -0.41574413 -0.39227057
-0.07441367 -0.08244811 0.7597232
0.16195866 1.1425135 0.88396394
-0.48295766 -0.06866293 0.03406827
0.5457487 -0.42117822 -0.67697614
-0.40163356 -0.08110535 0.64382803
-0.025766592 1.527014 0.12029344
-0.70962393 0.41599232 0.0019310743
-0.44314563 -0.41186345 0.013388036
0.19414459 0.5338232 -0.5594487
-0.6825045 0.41716927 -0.20077099
-0.12546238 1.77382 -0.43492892
0.43940973 0.5018984 0.2818204
0.54162425 0.9306267 -0.1252149
-0.05302254 -0.23791307 0.100702554
0.5834679 -0.08320935 0.5359869
0.10600134 0.7533983 0.868717
-0.6913624 -0.41258243 0.59773576
-0.2344796 0.851222 0.870659
0.5060774 1.3171066 -0.38729334
-0.88869804 -0.08794843 -0.73604226
0.8986887 0.992754 0.14503941
-0.60287875 1.2399105 0.3670701
0.17227948 1.3795615 -0.6067101
-0.081737295 -0.4078791 -0.320508
-0.30006647 1.1813425 -0.63336504
-0.24543461 1.6521442 -0.56993175
0.5740617 0.9580508 0.5109998
-0.40235272 -0.07877645 -0.4251946
0.25758868 -0.18054655 0.9281919
-0.7674079 -0.24167958 -0.74418557
0.6898134 1.2235515 0.29419762
-0.4618974 1.2611444 -0.48702383
-0.3460837 1.0092571 0.23227836
-0.32610458 1.5135164 0.42320693
-0.32399774 0.5609602 -0.7351794
0.06523183 0.8250842 -0.35992962
0.08383778 1.0029037 0.76446784
-0.6086875 1.2145334 -0.30587965
-0.029912144 1.5639341 0.69645983
-0.20264782 1.6531003 0.35901457
-0.0047951154 0.39611426 -0.032607578
-0.09563196 1.8906603 -0.11294225
-0.07891503 1.3874295 -0.036258887
0.00058577023 0.56958044 -0.15812922
0.0385869 -0.06868663 0.05785711
-0.5366404 0.8924232 0.7250582
0.21431911 0.8697498 0.7075369
0.7304076 -0.41716558 0.229565
0.43137693 -0.24582101 0.0809315
-0.88763 0.74214077 -0.014092274
-0.51344955 0.47550473 0.016128171
0.17868468 0.46287414 -0.042384915
0.06712282 1.1499157 0.10279256
-0.40995198 -0.08336802 0.88619554
0.26298425 1.2545643 -0.14685458
-0.3571729 1.7511082 0.36123568
-0.50171894 0.8386728 -0.7425382
-0.23740618 0.5385343 -0.22710136
-0.9236427 -0.25627482 0.8721931
-0.31755504 0.6886023 0.6173421
0.36420918 -0.4162866 0.43299836
-0.24377227 1.1657073 0.2753088
0.04287259 -0.41002843 -0.0169084
0.35286412 0.30315274 0.5123516
-0.46022007 0.86887646 0.13903654
0.19581279 -0.41054636 -0.44858083
-0.46636608 0.58311677 0.33961248
0.1727685 1.5076122 0.061566494
-0.0019268189 0.6750442 0.5025562
0.85157794 0.71301514 -0.14023921
0.19878992 -0.06335215 -0.08253748
0.65185773 0.3612914 -0.030251637
0.18968683 1.0705492 -0.6724254
0.37198353 0.48226145 -0.6544244
0.09106412 1.0168282 0.5710732
-0.14190897 -0.4085319 0.066729695
-0.18423069 -0.05913854 -0.19810902
-0.538356 0.6982915 0.67230487
-0.55169034 1.4307714 -0.5693371
0.90091795 -0.40769565 0.12583981
0.8166797 1.3371876 0.23276621
0.5662759 -0.41241473 0.74216044
0.035157304 1.5218391 -0.72899216
-0.24657793 -0.24834844 -0.5870297
0.5208085 1.2873534 0.39210314
0.8976786 -0.4079076 0.53679323
0.26376686 1.6641314 0.16213953
0.35921207 -0.087045714 -0.9078981
-0.08867666 1.3807185 -0.8079523
0.14318699 -0.07602683 0.87714374
-0.00020659805 1.720622 -0.027966686
-0.21242118 1.8304718 0.2633844
0.27346545 1.6861999 0.5143702
0.60544986 1.582653 0.33149093
-0.57720834 1.0801125 -0.43483227
-0.25260994 -0.08576932 -0.7489556
0.7190975 -0.0836111 0.87829185
-0.7257556 -0.080858365 -0.2173686
-0.44701153 -0.24467519 -0.63832045
-0.46982825 1.7548983 -0.13951054
0.6155256 1.1262709 -0.65141225
-0.63277197 0.90150213 0.27010548
-0.34157556 0.97574204 -0.6496208
0.34892267 0.67801774 -0.5601187
-0.11637175 0.7031428 0.68740386
-0.34292877 0.62743306 -0.54984486
0.3877264 0.18135962 -0.1563675
0.86467886 0.7836807 0.19260573
-0.3516414 -0.41611364 0.35194236
-0.35556698 1.5008224 -0.66387177
0.21055627 0.93750966 0.8910552
0.73963475 -0.08247046 0.4313394
0.36904973 1.6013482 0.011593272
-0.92454714 -0.25330982 -0.42915016
0.42750144 1.5523657 0.56441283
-0.17525044 0.30800587 0.5767459
-0.8811276 -0.4142767 0.5254637
0.5012702 0.99706364 -0.5266882
0.49451646 0.7706009 0.50171316
-0.3510512 0.27545655 0.45281282
0.49257535 0.73928225 0.7250746
-0.1503942 -0.25494552 -0.76274514
-0.7096796 -0.26165533 -0.92757404
0.39331636 1.2692184 0.18855745
-0.086203784 -0.23961136 0.6405618
-0.15969099 -0.09087983 -0.9168371
-0.8653374 0.95679164 0.2908218
0.08627711 0.43311316 -0.23860422
0.5773927 -0.086407796 0.74906546
-0.037907846 0.8600546 -0.5197073
0.16703217 1.8512657 0.2342296
0.23782016 -0.4170429 0.6108422
-0.48326045 0.4853421 -0.58143276
-0.3062717 0.55465776 0.07576224
-0.59559333 1.6290002 -0.23726484
0.0349582 -0.2375817 0.47182807
-0.64465 0.9909228 0.62226546
-0.7889352 0.7870254 0.38595337
0.7520666 -0.25201094 -0.086256355
-0.26483363 1.2361443 -0.44128525
-0.05506147 1.1677017 0.252266
0.7190389 -0.083354875 -0.38928616
-0.68835235 1.249996 -0.51865375
-0.8109752 0.5857427 0.089075655
0.57039803 -0.08004436 0.3247885
0.23937364 1.4908937 -0.46437
-0.123728335 1.4685073 -0.21681473
-0.28106713 1.672765 0.53561497
0.39394903 1.5032414 -0.31931263
-0.5207951 1.0345426 0.4050575
0.29378816 0.3202834 0.049537603
-0.21324378 0.30166814 0.2255578
-0.41827452 0.8545907 0.5472065
-0.08621445 0.70773923 -0.26283717
0.32158482 -0.23706023 -0.77906704
-0.14817688 0.6596589 0.36172658
0.62728894 -0.27144593 0.07934466
0.6505954 -0.24778524 0.25205874
-0.4138934 1.5376223 -0.2960481
-0.167977 1.5240852 -0.71595657
0.105461314 -0.41283056 -0.6191556
-0.19122723 0.88949394 -0.88805735
0.64783955 -0.24450403 -0.9180459
-0.6437627 0.4856472 0.38119283
-0.59848094 -0.25744942 0.2669922
0.5725816 -0.41418457 0.52580786
-0.15344745 1.0671746 0.094705686
0.29376125 1.2335515 -0.63696504
0.011077131 0.8442313 0.6568331
-0.69798917 1.0740097 0.2968638
-0.16897112 0.5577149 0.54529274
0.89694935 -0.089772195 0.7344971
-0.5851767 1.5542153 -0.4044019
-0.5883642 -0.08561979 0.3541568
0.37591714 0.22771552 -0.3334673
0.31275916 1.2238543 0.6620379
0.26475292 1.3212428 0.8135281
0.68656427 1.0102699 0.31923863
-0.17667463 0.6581015 -0.06700707
-0.13481724 0.67087173 0.1446253
-0.6248019 -0.24736607 0.47942334
0.13697222 0.7273749 -0.2110183
0.91977465 -0.24904025 0.6470177
0.13487796 1.1364408 -0.8854804
0.41320288 -0.2428362 -0.28676662
-0.5619698 0.284354 0.11177258
-0.48504987 -0.2602052 0.5933648
-0.34379792 0.5281631 0.47783238
0.9263518 -0.24768156 0.44170946
0.595989 -0.25038096 0.64992356
-0.5627466 1.2199733 0.015841216
0.5276057 0.9852077 0.23390394
0.8484063 0.9311689 0.33111405
0.14288782 0.36392963 0.34807512
-0.39744994 0.61853576 -0.3253551
-0.77604854 -0.25491434 0.5399326
0.20931709 1.8236097 -0.29812938
-0.027350271 1.6511484 0.32116264
0.54626 -0.08661663 -0.90941644
0.21578716 0.40617138 0.65559113
0.09593254 -0.2583147 0.92629
0.6588763 -0.0820551 -0.7383244
-0.009387322 1.1725235 -0.29696798
-0.0831389 0.08385174 0.03434381
0.4632693 1.1920421 -0.75700164
0.15148515 -0.059791937 -0.2920919
-0.7873099 -0.25388658 0.732476
-0.7429534 -0.081499524 0.43817812
0.50666595 1.0438205 0.7382803
0.18778273 1.1614177 -0.30493647
0.08985622 1.2563148 0.3126496
-0.3803354 0.5564132 0.7112582
0.58694386 -0.24195603 -0.21600111
-0.2112837 1.04666 0.8812932
0.78006625 1.0909326 0.46276075
-0.59082925 0.7168052 0.30891752
-0.18679082 1.7453527 -0.0425636
-0.6190814 -0.40393624 0.9046879
0.23078457 -0.23486137 -0.37770057
-0.5842804 0.43274635 -0.40848324
-0.4470064 1.7207116 -0.32206583
0.78249204 -0.24823141 0.34403867
0.9163082 -0.24269417 -0.5919131
-0.15915512 -0.07077873 0.0009581087
0.029335909 1.2011373 0.52951396
0.33716244 -0.07027951 -0.36049873
0.6016816 0.89182425 0.6812007
0.5374478 1.4583726 0.045291178
-0.7087855 1.1073444 0.063032284
-0.41435874 1.1577672 -0.7911928
0.8989692 -0.40786493 -0.082068026
0.68993497 0.5769781 0.45580328
-0.163719 0.51589537 -0.5422059
-0.36426938 0.3946057 0.31808096
-0.34260914 0.495906 -0.43645146
0.058115575 -0.24585396 -0.35482463
0.70481455 0.73546875 -0.5325402
-0.5086247 0.91998214 -0.5334734
-0.053847656 1.1299798 0.7062778
-0.68360174 1.2445078 0.1781908
0.27911413 -0.08005141 -0.69902754
-0.8944099 -0.40708998 -0.535692
0.014476417 0.6017995 -0.64062345
-0.27612597 0.8842071 0.66948825
-0.048453785 0.6820323 -0.46957898
0.8925721 -0.40776327 0.73559755
0.2254982 -0.06419495 0.12210914
-0.22659364 0.6795807 -0.4051653
0.046953864 1.5311658 -0.09243812
-0.44698215 -0.24232306 -0.28777242
0.9016297 -0.088065304 0.53431666
0.8869891 -0.40064234 0.9079374
-0.06439611 1.1972514 -0.052446544
-0.50064063 0.69722694 0.48742467
0.55781615 1.6100364 -0.3579002
0.30703664 -0.40353316 -0.9159777
-0.31111658 1.4786538 -0.12669903
-0.5428597 0.31584042 0.30518943
-0.38014635 0.8257737 -0.3891486
-0.14371306 -0.40981224 -0.9082541
-0.1807524 1.503133 0.27236807
0.42643905 0.7274488 0.26876783
0.27911916 1.522307 0.6857152
-0.36660022 -0.41349846 0.5463549
0.54772866 0.5298494 -0.30608165
0.20718578 -0.41285145 -0.7578305
-0.14876232 1.6836228 0.14709711
-0.53529155 -0.075554036 -0.14711562
0.5396006 -0.101906165 0.9173087
0.7442484 0.4625529 0.11347365
0.53974557 -0.064891875 -0.12342022
-0.21204147 -0.25585425 0.7650101
-0.046629816 1.0171044 -0.9188812
0.11835787 -0.41850537 0.74979603
0.2661139 -0.23253241 0.013050079
-0.33199897 -0.41258454 0.15185034
0.239684 0.31305692 -0.19071135
-0.0013559314 0.8118465 -0.88782454
0.24865752 -0.25288105 -0.6105263
-0.115835875 1.4185488 0.7899974
-0.06504384 1.6929445 0.56530714
-0.23481265 1.1287607 -0.87299645
-0.45384285 -0.25357497 0.40686974
-0.17196609 1.8803141 0.08594511
-0.1293091 -0.24983844 0.47753966
-0.35604167 0.7924487 -0.62364376
0.08432667 0.62811756 0.17917499
0.22784774 -0.260925 0.7756127
0.9346408 -0.2477887 -0.78104365
0.44790578 -0.25230974 -0.6219621
-0.30144194 -0.23894402 0.029211607
0.2858469 1.2684691 -0.44448888
0.7244742 -0.39985934 -0.9185864
-0.7307755 1.4738746 -0.23916249
0.07146786 1.6935737 0.1457289
-0.35890752 0.36664796 0.11541574
0.16098027 1.628041 -0.6246687
-0.92536265 -0.26060557 0.4315549
0.4540053 -0.24521548 0.5292235
0.40537506 -0.2475273 0.35754222
-0.9134504 -0.10550176 0.17306697
-0.50245553 0.65540624 -0.6884321
0.4271711 0.20588167 0.17657126
0.3864373 0.41817218 -0.286443
-0.3149643 -0.05944807 0.1213474
0.019805657 -0.06884085 -0.47951734
0.6886773 0.78882086 -0.008667669
-0.40877336 -0.24016923 0.7585094
-0.24977267 0.3027904 -0.18463507
-0.06695682 -0.23665175 0.29286018
-0.237804 1.4672819 0.0832992
-0.42927754 0.88783586 -0.098413415
0.7684512 0.5814127 -0.2827766
0.90461427 -0.086705536 -0.4875411
-0.31027782 1.1830064 0.4881358
0.11730697 0.6971381 0.68490744
-0.31528407 1.3855003 0.75996006
0.5336116 0.43566403 0.47575217
0.23864728 0.5481833 -0.21565875
-0.652449 0.81149995 -0.6134538
-0.18267477 0.2251443 -0.48301306
0.3852047 -0.41456276 0.017010218
0.08781867 -0.40540457 -0.9103591
-0.16005033 1.2599862 -0.22391352
-0.7321774 0.7867577 -0.03779772
0.40067226 0.45673677 0.6132796
0.0115493145 -0.4112212 0.90629566
-0.028256986 1.1167159 0.901812
0.4673468 1.7376161 0.22865689
0.40133882 -0.06584279 0.2172598
-0.42462543 1.1983147 0.3179357
0.050015133 0.41757149 -0.7098559
-0.46390474 0.6590155 0.13519117
-0.203178 0.8725264 0.19099903
-0.0767187 0.23074809 -0.09264517
0.27045554 -0.08651103 0.7346275
-0.91016835 0.9352933 0.06873943
0.47470608 1.2232625 0.7466241
-0.74542636 0.93771756 0.13161922
-0.020664353 1.8521705 0.26285768
-0.7311516 -0.085396886 -0.9013938
0.40759325 -0.4147662 -0.17815477
-0.09782448 0.38489556 -0.21346188
0.12847361 -0.24999847 0.61032844
0.896921 -0.087175414 -0.088643126
0.8901968 -0.08200626 -0.70598906
0.5618013 -0.41298234 -0.28992635
-0.15612344 1.2600603 0.641842
-0.49370682 0.9637215 -0.30111367
0.33744103 0.91638833 0.22662976
-0.29702282 -0.24290456 0.5804626
-0.38971972 0.41597366 -0.27607432
-0.41112116 0.31927305 -0.46899146
0.37972587 0.6611448 -0.7619424
-0.6459156 0.60522115 -0.5327044
0.5704908 0.6384373 0.36276764
-0.6556927 1.6135535 -0.07238476
-0.08637838 1.3254073 0.432402
-0.6080015 -0.08990439 0.15238936
-0.73297596 -0.08333496 0.80227286
0.49647373 -0.2422727 0.22891214
-0.015097008 0.08027065 -0.1742051
0.19044039 0.38743228 -0.391432
0.19116113 0.7320132 -0.8579782
-0.04379951 1.6703777 -0.60177773
0.7334464 1.2736039 0.46862933
0.32412565 0.5286512 -0.42385644
-0.3611526 -0.061326914 -0.25592992
-0.8352978 1.2878964 0.24467349
0.16744646 0.8294818 0.5244563
-0.11039587 0.33919314 -0.6196829
-0.4086053 0.1913412 -0.15685798
-0.8403076 0.90911937 -0.3243367
-0.5646969 0.6199231 -0.37001318
-0.4128009 1.516455 0.614434
-0.19015901 0.46373266 -0.045777064
-0.12456559 1.7930666 0.42803037
-0.9234539 -0.25573385 -0.21882789
0.5650543 -0.40455258 -0.073814735
-0.87457013 1.0993842 -0.23518224
0.8587831 -0.25040603 -0.92866385
0.4593323 1.1919675 -0.5326427
-0.21387951 0.37316507 -0.38781524
-0.39020655 0.6065068 -0.097027145
-0.32317 0.73181 0.23153076
-0.123509675 1.0416481 -0.14723472
0.06324956 0.250391 -0.2258163
0.57698095 1.1215732 0.4249698
0.75475395 -0.24989833 0.54573333
0.8954911 -0.40780413 -0.684156
-0.061019246 1.0000979 -0.3761214
-0.3850196 0.38857698 -0.08231793
0.34902605 1.5523055 -0.6258422
0.40709776 -0.243391 -0.105943665
0.39274758 1.7448856 -0.32324073
-0.21095479 0.1893749 0.3821946
-0.23436947 -0.07744145 0.51729476
0.21821533 -0.4059066 -0.09369726
0.12078628 0.082847334 -0.030018575
0.65524584 0.72059214 0.18597761
0.3386451 1.8260152 -0.114774406
-0.9003557 0.91208696 -0.13601437
-0.025773514 -0.09676099 0.9151257
0.8977146 0.84930354 -0.0061010476
-0.010045499 0.5730139 0.03408374
-0.25051028 -0.08347878 0.71659803
0.3818122 0.39240104 -0.09786451
-0.3301652 1.6398699 0.036221307
0.35427755 0.5907271 -0.05415845
0.19865274 -0.24576603 -0.9263209
0.08148166 1.0031722 -0.22707489
-0.24600422 1.8343406 -0.2457695
0.5743836 -0.08354534 -0.5372435
-0.34128633 1.3685772 0.2099833
0.42198503 1.6253903 -0.4781376
0.5787678 1.1213273 -0.39081466
0.9024428 -0.08624705 0.115101114
0.60688204 0.8326125 0.3410669
0.5920354 0.53593946 0.18785065
-0.33992204 0.40276393 0.60890305
0.20662478 1.6129603 -0.34026054
-0.42519122 -0.407965 0.8957944
0.11635725 1.3670061 0.4499944
-0.7320496 -0.25062105 0.91986644
0.35819203 0.8576334 -0.8287808
0.5740862 -0.24446008 -0.41697037
0.6889427 1.0312657 -0.24074027
0.5502683 1.4861127 -0.52719575
0.34210378 1.4500992 0.1713756
-0.8414053 0.73770344 -0.23020175
-0.8054093 0.570835 -0.11979966
0.396658 -0.41100135 -0.76279676
-0.66023177 0.6857581 -0.2126391
0.7026533 1.4261253 0.36281097
0.72728044 -0.4164917 -0.18340227
0.7220291 1.5042024 0.17158711
0.7382034 -0.08270145 0.65029216
-0.61785424 -0.25421843 -0.61692417
0.016917763 0.98870116 -0.0149001535
-0.25438038 -0.4090799 -0.2593469
-0.39310417 0.20191067 0.24850398
0.20731476 -0.076628014 -0.4981953
0.16407396 0.54590213 0.7857933
0.07966691 1.7609375 -0.45912433
0.43612325 0.9920858 -0.28226846
-0.6472208 -0.08117169 -0.74167407
0.15194911 1.6483926 0.3338006
-0.56846327 0.28971738 -0.08218936
0.3148732 -0.24808364 0.62030387
-0.01166193 1.8482649 -0.2929107
-0.32278255 0.704126 0.42346537
-0.34331203 1.5975769 0.23132387
0.9009393 -0.40795195 0.3316454
0.21389467 1.1063249 0.2536159
0.027222633 -0.24320394 0.7714244
-0.7968222 1.2735322 -0.32305652
-0.5367136 1.0757993 -0.14837389
-0.51174843 1.1708367 0.52847016
0.23392278 0.74197835 0.2150358
0.6342436 0.72014934 -0.3591063
0.57128215 -0.19944839 -0.044521227
-0.6974486 0.42235422 0.19770926
-0.61885804 0.8382561 -0.37675762
-0.31316882 0.7638414 0.028425831
-0.29823345 1.7369125 -0.4059124
-0.85095465 1.3015006 -0.14352173
0.16597381 0.87491095 -0.08178216
0.66182464 1.5802765 -0.21427765
-0.9321711 -0.25712913 0.6380558
0.48488846 -0.4146494 0.90518457
0.7044319 1.1617343 -0.064260945
0.15890831 1.4744205 0.25626105
-0.34126955 -0.056087308 -0.07310988
0.03064968 1.2986575 0.84745836
-0.7801103 1.4662951 -0.0342108
0.05865751 1.0636736 0.38474178
-0.22820994 0.8549094 -0.5106419
0.06754424 -0.06523369 0.2564528
0.123997584 0.49373496 0.4746499
-0.12477949 -0.4141237 -0.609941
0.25992873 1.4913006 0.47239184
0.9008671 -0.40643924 -0.48402762
0.19429591 1.3732121 0.6136409
-0.4468161 1.0580552 0.012814013
0.38558197 1.3275714 0.5183542
-0.18689239 0.41880068 0.39520282
0.10274183 0.43749195 0.15324226
0.4354213 1.3303429 -0.17873357
0.7348606 -0.4191327 0.024085164
0.020444501 0.53887624 0.63453746
0.0690061 1.548213 0.4909927
-0.2681293 1.3371646 0.38036168
-0.055241004 1.2079499 -0.87833285
-0.3328128 0.7527411 -0.8110002
0.13116938 1.6368846 0.6289636
0.5455279 0.35288894 -0.37978983
0.8971856 -0.40796912 -0.28417626
-0.5743433 -0.41310334 -0.3167407
-0.032224603 0.31898963 0.3025651
0.034019563 -0.09121242 -0.9167719
0.56718487 1.0368705 0.03200687
0.09326811 1.7815396 0.4450301
-0.7404908 0.55672485 -0.32852542
-0.18760347 -0.4102592 0.61537874
0.56083465 1.381451 0.2186529
0.22427395 1.1846318 0.4820035
-0.40933853 0.17579833 0.035435103
0.5269212 0.79885805 -0.5221434
0.012230615 0.9755066 0.19533753
0.76461685 -0.24145547 -0.7412547
-0.14525357 1.571104 -0.046221144
-0.32227767 -0.41494945 0.7375828
-0.08627297 -0.41435146 0.7573408
-0.6162303 -0.25221094 0.7243452
-0.15780947 0.8655186 -0.70292807
-0.25117418 -0.25688058 -0.9231386
0.7323219 -0.41400856 -0.5808196
-0.6033285 -0.24763104 -0.42419517
0.7814852 0.59472907 0.2606763
-0.13128789 -0.08030768 -0.5929229
-0.022759484 1.3657186 -0.60401964
0.6689602 0.54541814 -0.4503883
-0.3676262 1.1924465 0.10403167
-0.1834003 0.8789433 -0.3295007
-0.55167246 -0.09085934 -0.9150081
0.26060596 0.9970968 0.44965112
-0.8590842 0.77073383 0.19199243
-0.277693 -0.23580632 -0.37569627
0.5305835 -0.4111166 -0.89866173
0.38236943 -0.24796402 -0.4666749
-0.7001926 -0.4182766 -0.7989282
-0.32062757 -0.2516683 0.924198
0.37936145 -0.41285262 0.22182703
-0.004579397 0.74651533 -0.058665607
0.027473034 0.4591228 -0.50367415
0.80221224 1.4223282 0.02115988
0.7016487 -0.41698712 0.8798411
0.50024706 0.23249796 -0.0006411063
-0.5629239 -0.0818102 -0.33582604
0.6350145 0.6607288 -0.1697357
0.51893383 1.7124486 -0.17608687
-0.113328755 1.2018435 -0.6876759
0.6533281 0.43079373 0.31837904
0.05728453 1.5220412 -0.4996364
0.8967668 -0.4068082 -0.8794205
0.5475377 0.6158509 -0.6252666
-0.77605855 0.6097915 0.29117954
0.4365741 0.94103104 0.39215028
0.54772526 -0.25402278 -0.77674216
-0.35687715 -0.088007785 -0.9118454
-0.13784218 0.4938665 -0.7506423
-0.028948234 0.4121289 0.49079633
-0.21297362 -0.2318728 0.17994937
-0.26065308 1.3149053 -0.073031135
-0.025417732 0.5648111 0.81305736
0.1547227 0.8995805 0.30595648
0.3089568 0.4332604 0.43071243
-0.924267 -0.2497127 0.006516739
-0.026555693 0.32292256 -0.38476598
0.11086442 1.4581852 0.7719408
-0.83739257 1.2930998 0.0477281
0.36414772 1.043983 -0.65103155
-0.10707154 0.85746884 0.04760299
-0.64577734 0.87512344 -0.18339893
0.58461493 1.4565554 0.51694405
-0.03391013 0.2147725 0.48198587
-0.5180948 -0.41899663 0.70715415
0.71196735 0.9026313 0.15270059
-0.30184302 1.6577685 -0.18268295
-0.6374389 0.59970915 -0.039152544
-0.1851256 1.2540159 0.08772889
0.48553497 0.80030525 -0.27505797
0.9038749 -0.08713098 0.32528466
0.2502095 -0.24315657 0.44352543
0.24030392 0.9201926 -0.307692
-0.5344527 0.5300423 0.57667553
0.11496344 1.877992 -0.13013682
0.01410019 0.3629367 0.6765836
0.04760583 0.25638565 -0.54626036
0.49801114 1.245584 0.017541915
0.33356434 0.73407805 0.61758435
0.630131 -0.2507462 -0.6115116
