0.5891451 1.4445217 0.5321402
0.4704643 0.5324496 0.107525826
0.4559242 1.5815535 0.26941052
0.74638593 -0.25313807 0.75506485
0.39078724 1.075017 0.561155
-0.59238255 1.0270879 0.39630666
0.032729283 0.19773468 -0.3249798
0.6529023 1.2633817 0.5743574
0.2943542 1.7458549 -0.6078751
0.7718443 -0.25047356 0.9319711
0.4635274 -0.08631249 -0.726684
0.0025036451 -0.41546512 -0.46901125
0.030838326 1.4441032 0.0379316
-0.7311117 1.0715925 -0.15999371
0.29734433 1.4469204 0.25827518
0.09828849 -0.24401256 -0.53278124
0.315284 0.4893456 0.26088557
-0.33800453 -0.08596115 -0.5801368
0.12997659 0.6428621 -0.36155215
-0.90517944 -0.09663003 0.73263407
0.4692613 1.7886173 0.30169642
-0.6017509 1.5015664 -0.09725817
-0.46718162 -0.25287265 -0.9217168
0.4280088 -0.08364673 0.6443541
0.23848431 0.36698276 -0.57625175
0.877238 1.3469706 -0.15892634
0.894605 1.1764 -0.24003454
-0.2784205 1.0680242 -0.031733014
-0.20035788 1.6044438 -0.48045433
0.2100735 0.18836108 -0.16575807
-0.42438272 1.3360233 -0.24035694
-0.7366842 0.7777803 -0.46471235
0.0066785635 -0.05161868 -0.1323045
-0.74048764 1.5569966 0.043537594
-0.726611 -0.08555799 -0.422359
0.34085155 1.0951965 -0.5053599
-0.5922991 -0.41546506 -0.10822111
-0.3599587 1.4013454 0.54414594
0.11696817 1.3736192 -0.4972247
-0.2694558 0.825743 -0.23531587
-0.041452054 1.2319905 -0.5614104
-0.24849229 1.2509232 0.59644866
-0.75117785 -0.0805801 0.22255832
0.24664447 0.53076303 -0.7466861
-0.05867073 -0.08970666 -0.760202
0.7638167 -0.25144184 -0.4897249
-0.5584018 1.3116977 0.624825
0.62520564 1.3378317 -0.6743685
-0.10012534 -0.24507138 -0.45861006
-0.13241524 1.0399518 -0.7934119
-0.109862626 -0.070180774 0.18286343
-0.76401204 1.1433623 -0.51821935
0.39172724 1.026327 -0.05721744
0.1458784 1.4164033 -0.114961945
0.22579159 0.9203667 -0.5658688
0.92360073 -0.24905139 0.011746748
0.07044536 0.60143304 -0.82694006
0.84070456 0.79042816 -0.33563334
0.70081127 1.6625378 -0.13829874
-0.23305245 0.1963755 -0.052909773
-0.43641037 1.489772 0.37358496
-0.12054462 -0.23770383 -0.26756132
0.86574745 1.2609576 0.24340172
-0.71948725 -0.42147207 0.7737216
0.32853037 1.2931757 0.7768376
-0.50057197 -0.41931224 -0.73119426
-0.72051316 0.95612514 -0.5556258
0.14411813 0.38102463 0.21754357
0.2832051 0.9191737 0.8067757
-0.5666453 -0.08799734 0.5392462
0.7466804 -0.08883547 -0.5831653
0.84891677 1.1313894 -0.40789765
-0.10486986 1.5355937 -0.6353277
0.30911034 0.22392711 0.04504474
-0.02190065 -0.41493365 -0.7646642
0.7296661 -0.41911644 0.64654255
-0.1121337 0.6733014 -0.8542937
-0.46228343 0.7488308 -0.52474964
-0.00392332 1.0116959 0.39311022
0.5643767 -0.08536578 0.11050697
0.20067282 -0.41502684 0.28846127
-0.35594887 -0.4165374 -0.5944506
-0.38229263 1.37064 0.71757627
0.14293218 1.335885 -0.9166591
-0.89180946 -0.099409826 -0.91093826
-0.7738497 1.1152778 0.38889068
0.08016334 -0.41968992 -0.24640512
0.40178373 1.1762042 0.07794173
0.47907418 0.43073523 0.38062432
-0.063275725 -0.08262773 0.5705129
0.119554795 1.7468351 -0.34037656
0.1302653 1.208092 -0.16541038
-0.76360774 -0.24480298 0.32612082
-0.50549114 1.8081768 0.091237575
0.4267634 1.2003791 -0.14058937
-0.49929905 0.54385495 0.47313163
-0.86783886 -0.083334364 0.024583118
-0.5093169 0.837224 -0.075098366
0.7638439 1.0797477 -0.5572109
-0.18331966 1.3683907 -0.7002356
-0.21935123 1.7230731 0.5432631
-0.34464937 1.9040508 -0.009852124
0.57376254 0.7931959 -0.7201083
0.334923 1.7018037 0.20579937
0.7003864 0.9256778 -0.6348474
-0.4042862 -0.08869638 0.43310118
-0.61768436 -0.09284237 0.91583127
0.4135209 -0.083769426 0.430418
0.5949414 -0.26702225 0.8990202
0.92263484 -0.24747124 -0.38867745
-0.8968852 -0.40749997 0.108579926
0.7582152 1.045476 -0.07701625
0.9198046 -0.2478351 -0.18818042
0.53430974 0.4885865 -0.49389845
-0.5364878 -0.42251152 0.48498946
-0.14296247 0.21729589 -0.24539109
-0.7106581 -0.41596133 0.4013986
-0.11055294 0.57203627 0.16236322
-0.3197058 1.061805 -0.5060709
-0.8836762 1.2040946 -0.12909776
0.00407101 -0.4159752 0.57922626
0.13712336 0.35121468 0.012582047
-0.6925145 -0.08107884 -0.022622712
-0.7175781 -0.41839072 -0.62451583
0.059010327 0.7966722 -0.71762705
-0.8965086 -0.4079314 0.71932364
-0.9043844 -0.09360318 -0.52619493
-0.6103072 -0.2509129 -0.21016976
-0.32010216 0.9501753 -0.8874437
0.43001416 -0.25560254 -0.9219109
-0.58340836 1.6171653 0.37387323
-0.0065170517 -0.41658807 0.3710047
-0.24332687 0.83115983 0.7881743
0.368345 1.050702 -0.8876755
0.4227379 1.4203497 -0.5961447
-0.5030264 1.5136285 -0.28987128
-0.5237652 -0.2467083 0.9110719
-0.46789828 -0.25281155 0.10802668
0.6381024 0.96031785 -0.40712827
0.009806452 1.5832806 0.20901817
-0.03623106 0.3709497 0.14176568
0.101240516 0.28743112 0.39437646
-0.25805908 -0.420655 -0.75246704
0.39615393 -0.26818487 0.9219439
-0.24515295 1.549501 0.45733792
0.38142014 -0.083522305 -0.5448327
-0.14783695 1.0659689 -0.59236765
0.84602594 0.7373903 0.075599715
-0.47850186 1.566083 0.20587486
0.37967128 -0.076826155 0.87380236
-0.084775575 0.9475255 0.8378736
0.29046506 1.4224224 -0.38644046
0.31659704 1.9044809 0.198956
-0.35652548 -0.25946888 -0.7675012
0.73701847 -0.0829692 0.217561
0.29532623 1.1022459 -0.20926952
0.39221153 1.086406 0.7736955
-0.47611195 1.7610145 0.29222625
0.55078757 -0.42366132 0.12906125
-0.7059565 1.2837725 0.4422335
-0.1320994 1.2906532 0.3744088
-0.036107413 -0.2500099 -0.63527
-0.5438988 -0.085381754 0.7403398
0.7986535 1.4959166 -0.2684375
0.18931773 0.75103676 -0.030622475
0.9263529 1.135717 -0.06496732
0.5460439 0.5702586 -0.088235945
0.6001638 1.4826033 -0.34906825
-0.0799716 1.7421778 -0.35240465
0.38856128 0.36164936 -0.46072286
-0.0945865 -0.41253734 -0.14027181
-0.74568534 -0.41654712 -0.21439168
-0.2701043 -0.41485596 -0.06743003
-0.26786363 0.6615618 0.25525966
0.90425205 -0.0899989 -0.8949022
-0.37116727 -0.41199702 -0.90065634
0.1177419 -0.25137496 0.31829938
-0.89664584 -0.09338177 -0.32891113
-0.0054127565 0.9425771 -0.2379529
-0.1806409 0.64215815 0.72153103
-0.6521221 0.8680055 0.08718006
0.036315337 1.9846157 -0.08769041
-0.07991369 1.4175739 -0.48822075
0.92600775 -0.24814606 0.22565177
0.15516913 -0.41449016 0.46002907
-0.031802125 -0.25705248 -0.9130621
-0.91616714 -0.26019353 -0.87056017
-0.1740903 -0.41370508 0.2555647
-0.68526715 0.7933556 0.45196888
0.05689442 0.99419785 -0.8084074
-0.22084363 1.3158398 -0.8974695
0.71728045 0.89877236 -0.21986811
-0.31788665 0.26345763 -0.29264405
0.65223646 1.4307649 -0.16646765
0.44473535 -0.24148574 0.75678617
-0.0093561495 1.5409887 0.52018833
-0.39422685 1.6316402 -0.6416354
-0.114879884 -0.23704739 -0.07241055
0.74791306 1.0568111 0.4951594
-0.23999166 0.23535311 0.18297635
-0.18387565 -0.42152977 0.4440019
0.25878102 -0.08501916 0.5405297
-0.27222854 1.2089157 -0.17942664
-0.2849555 1.4068737 -0.387466
-0.48153937 1.4177921 -0.4531299
-0.4062217 1.1742729 0.7454391
0.3446762 0.7540555 0.73147726
-0.55213 -0.0855491 -0.54802155
0.09137141 -0.08264506 -0.6705743
0.21178831 1.0829327 0.03396751
-0.8062272 1.3086605 0.285316
0.40177706 0.86390877 -0.6556052
-0.6852337 0.9692382 0.5294156
-0.42789304 1.1270735 -0.6606178
-0.11210479 1.1456878 0.48823944
0.04369736 -0.24748994 -0.18443806
-0.7680247 -0.24614784 -0.102168426
-0.0026671467 1.6560137 -0.4964015
-0.29717076 1.0422313 -0.2838695
0.2656527 1.2128401 0.61120415
-0.26369035 -0.25151578 0.38129604
-0.4809124 0.5868746 0.19948179
-0.5276128 1.1954677 0.106540814
0.24958867 0.23790406 0.22382608
-0.120158516 1.4529386 0.1409075
-0.9005809 -0.40594006 -0.10463791
-0.580549 -0.405967 -0.9150294
0.53267545 0.75125146 0.61717606
0.115040824 1.2204809 -0.7777127
0.27823812 1.4563812 -0.84477556
0.46293068 1.3854167 -0.7830291
0.07924097 1.3872895 -0.28971237
0.35839894 -0.080762915 -0.18658084
-0.52706695 -0.41834903 0.28305602
0.098643884 -0.083064124 0.4566735
0.067201324 0.2046712 0.20585023
0.9048451 0.9742557 -0.22976093
0.69520426 0.4791906 -0.19785765
0.7377678 -0.08710259 -0.90095544
-0.42475754 -0.258816 -0.4802239
0.21882251 1.957154 -0.10653314
0.09258465 -0.2236577 -0.031299237
-0.2185077 -0.41354382 -0.4575131
0.43560708 0.68655276 -0.22412694
0.392327 1.2566626 0.2859187
0.33783662 -0.41957206 -0.581499
-0.26925278 0.41190815 -0.60039914
-0.4968232 1.8252997 -0.11074872
0.42387024 -0.4135934 0.61653376
0.53127575 1.8157246 -0.118812025
-0.082021505 -0.0847366 0.38072827
0.40384042 0.9016112 -0.46017578
-0.30702782 1.9207938 -0.21124691
0.23554423 -0.40069026 0.91268516
-0.20377645 -0.079008505 -0.40955275
-0.08287679 0.24873109 0.30975598
0.16854909 0.7469014 -0.52147853
0.41726857 1.2278798 -0.36432457
-0.6296494 1.3951712 -0.2619599
-0.2785705 -0.2463842 -0.17388949
0.8449433 1.329712 -0.36995065
0.5451431 -0.4136563 -0.49490196
-0.42526156 0.9865621 0.2853825
0.14411986 1.0645001 -0.48065233
-0.38237923 -0.25638622 0.24836265
-0.44405916 -0.08593348 0.23836854
-0.1819776 1.1568199 -0.39330035
0.8939825 -0.0962363 0.9079413
-0.05736645 0.57956946 -0.34513733
0.92846614 -0.25128567 0.858177
0.10425684 1.5388838 -0.3935469
0.20451117 -0.41192815 0.0980614
-0.115355656 1.1159773 0.69349086
0.37659502 1.9121499 -0.034014247
0.21992025 0.25089112 -0.37262017
0.69166064 1.3006513 -0.3214451
-0.4629547 0.825867 -0.26853496
0.4290148 1.5662241 0.598663
0.7311144 -0.41714683 0.4267695
-0.5385153 1.2331895 -0.76429534
0.5283998 -0.08404724 -0.32937557
-0.5052106 1.0157855 -0.7976899
0.7245214 -0.41785896 -0.38941938
-0.89827025 -0.095224485 -0.14046773
0.788141 0.5961087 -0.05703084
-0.86794835 -0.09571986 0.9121661
-0.8684316 1.2272153 0.076991096
-0.17062385 0.9557066 -0.14658833
0.2867348 0.6501155 0.13156208
-0.2110184 0.38392603 0.0454545
0.34355134 1.7131501 -0.29813933
0.28345984 -0.2462879 0.21067639
0.10836734 0.913857 0.07720467
-0.17060232 0.9517436 0.49510658
-0.110987715 -0.26109576 0.9172665
0.5524219 0.9837897 -0.7827437
0.7472297 1.2753093 -0.54186016
-0.12005705 1.6618804 0.36423552
0.21882665 1.4062492 0.07218089
-0.19260366 1.4324813 0.75209856
0.28004396 1.2614539 -0.034521196
-0.13537982 0.70000964 -0.65871465
-0.5109539 0.36282173 -0.26236892
-0.74486744 -0.41506478 0.0018894718
0.12232273 1.375601 0.6187637
0.716992 -0.08577025 -0.1967621
0.7242093 -0.08392569 0.0070131635
0.5000004 1.594665 -0.22324552
0.7049422 -0.4163996 -0.760783
0.3249782 0.8777946 0.034302227
0.26541543 1.5499418 -0.24406016
0.5530851 0.3551191 -0.14438081
-0.45835036 -0.08430578 -0.7376829
0.59437287 0.42574787 0.21008667
0.3001179 0.7662436 -0.36826956
0.72313416 1.4683523 -0.48254767
-0.4745624 1.6256661 0.006822019
-0.76155746 -0.25001207 -0.31810498
-0.42530024 -0.41489482 -0.19580588
0.78496385 0.875134 0.38762796
0.36463568 1.459982 -0.0905388
0.20716813 0.9235301 -0.93412006
-0.77264845 -0.2543959 -0.5239685
-0.31228918 1.4612005 -0.5858488
0.2513444 -0.40755382 -0.27918267
-0.62068474 0.6944698 0.1485807
-0.6643027 1.0871208 -0.36279756
0.43475062 1.2717521 0.4922014
0.10427816 -0.24295545 -0.7611433
0.24597138 -0.08544044 0.32773903
-0.12899375 1.1247411 0.25973153
-0.5764339 1.034774 -0.047972687
-0.89166766 -0.41217357 0.3234052
-0.85809314 -0.40622362 0.9050962
-0.7171312 1.5142606 0.25007278
0.3441321 -0.41813266 0.77636707
0.6631995 0.8941909 0.56097484
-0.5769243 -0.25103176 -0.7886121
0.23079076 -0.23329222 -0.19706753
-0.89512396 -0.4050934 -0.73115253
-0.39034516 1.3419998 -0.8031336
-0.21487737 0.97757864 0.32291943
0.635975 1.7469487 0.01973735
0.57035244 1.2108654 -0.22761603
-0.60704505 -0.24786153 -0.006777387
0.74311185 1.1967463 0.08376923
-0.8973247 -0.40837318 -0.3241015
0.82664734 0.93879735 -0.4378336
0.28932124 0.33872786 0.39804566
-0.6451322 1.7031643 -0.034102008
-0.7316135 -0.41524196 0.21214914
-0.40346035 0.9541149 0.74627346
-0.7446296 -0.08688831 -0.60504854
-0.21450672 -0.41226274 0.9004196
-0.65938365 1.4523104 0.44041216
0.89535815 1.308022 0.035674408
-0.7503433 -0.24344276 0.112974316
-0.0043287575 0.65958226 0.3201162
-0.44917136 1.6503413 -0.19676107
-0.51738155 0.5908244 -0.19246395
0.23852643 0.7168896 -0.68646246
0.22651866 0.8999722 -0.75380147
0.32395655 1.2533005 -0.888937
-0.5480604 -0.4173708 -0.5291892
-0.4300723 1.1908237 0.53680444
-0.2577186 -0.08345489 0.30792862
-0.903043 -0.0968152 0.3494987
0.0955091 -0.084893316 0.67175925
-0.44353747 -0.246407 -0.09498407
-0.6574448 1.4363978 -0.53941095
0.46123987 0.7500483 0.11728458
0.38823956 -0.0790093 0.009720968
0.14362231 0.42221457 0.55900836
0.7826836 -0.24442588 0.11902255
0.50897735 0.82325083 -0.07407595
0.18970941 -0.080484495 -0.8827268
-0.39860952 1.4726231 -0.09209132
0.5985025 -0.24774402 0.42543894
0.30666882 0.91600406 0.38898635
0.48304296 1.6733279 0.07544686
0.111358255 -0.2409738 0.14477481
0.6974473 1.3849516 0.023989603
0.5614531 1.2734399 0.14850152
0.041219976 1.0559016 -0.6477182
-0.03126929 0.9100443 0.23370951
-0.40107378 -0.41874552 -0.39468646
-0.7238318 -0.08981514 0.6270158
0.5465326 -0.41606992 0.33173656
-0.8999742 -0.09437694 0.54147685
-0.6311569 1.672052 0.16894615
0.020063065 -0.41313362 0.18195075
-0.64154947 1.0655258 -0.68158126
0.7563911 -0.2524044 -0.29168087
0.398931 0.7494012 0.45714855
-0.018293202 1.1281323 0.8635143
-0.91962194 -0.2687192 0.2226457
-0.22077821 -0.09347065 0.9015683
0.15734527 1.2143557 -0.5874988
-0.85184336 -0.40666533 -0.91259503
0.3420545 0.86463875 -0.17906952
0.24115485 0.692721 0.31808117
-0.58039856 -0.41290292 0.10506758
0.49700922 0.6869186 -0.41975102
0.21544906 1.7684658 -0.16306901
-0.37889194 1.2169745 -0.3857969
-0.9257109 -0.24689612 -0.6438016
0.8958594 -0.08789401 -0.28891587
0.6339392 0.6864103 0.033165824
-0.6928894 1.2425158 -0.22007841
-0.29994702 1.1353112 0.386831
0.22324249 0.7601292 0.5478063
-0.5085238 1.5089467 0.5649276
-0.029866915 -0.075807266 -0.3143558
0.5240656 0.9479008 0.07950394
-0.5263232 1.4426742 0.08018345
0.11893201 0.8324814 0.35840338
-0.72990716 -0.41752404 -0.42637038
0.38995653 -0.4167807 -0.3936417
-0.07934141 -0.08494313 0.7554972
0.14683262 1.3327872 0.81475544
-0.47796485 -0.083548285 0.028162163
0.54456633 -0.42184424 -0.67437685
-0.403404 -0.08499131 0.6287698
-0.0087827165 1.6278173 0.0030184817
-0.6981782 0.513669 -0.003499372
-0.43748114 -0.41434526 -0.0019466376
0.22565837 0.55792546 -0.5461905
-0.6658322 0.49213192 -0.20564124
-0.09178303 1.8069742 -0.578762
0.44003618 0.6305705 0.29857647
0.5613477 1.0027683 -0.15319052
-0.057614557 -0.23768851 0.09282839
0.5822276 -0.08576283 0.53355753
0.095871665 0.9474368 0.8401076
-0.6935055 -0.4129651 0.59932
-0.2448345 1.0468974 0.82151353
0.53842485 1.3568033 -0.46043175
-0.8896791 -0.08914893 -0.73370093
0.9099531 1.0933893 0.12535933
-0.5969162 1.3736926 0.26282325
0.21340853 1.3960723 -0.6944196
-0.08391653 -0.41016883 -0.32447386
-0.2614268 1.1941019 -0.7131142
-0.20727725 1.6705253 -0.7035347
0.5754074 1.1079639 0.47383168
-0.40373868 -0.08603458 -0.42273018
0.2559647 -0.17220993 0.9279585
-0.768979 -0.24234295 -0.74213725
0.6992575 1.3475358 0.23348457
-0.4298435 1.2905136 -0.5840178
-0.34476906 1.1356457 0.16930465
-0.32067895 1.6474749 0.29309908
-0.2884555 0.56661284 -0.74138856
0.0898391 0.87175316 -0.3932964
0.078916475 1.1820668 0.7078489
-0.58005476 1.2654803 -0.4050129
-0.031832553 1.7318115 0.5698281
-0.19570205 1.7807039 0.21624339
0.007314738 0.49155423 -0.011366427
-0.071646884 1.9592631 -0.27238822
-0.0569781 1.4692509 -0.1393666
0.01956586 0.6479336 -0.1553434
0.04139431 -0.048189506 0.054361705
-0.5429615 1.0708412 0.6618654
0.21059594 1.0424504 0.6697683
0.730073 -0.4182024 0.22480178
0.4294559 -0.25475407 0.07894425
-0.8710112 0.83284724 -0.060529057
-0.50277233 0.5722914 0.014688744
0.19156274 0.5534247 -0.027100848
0.07899944 1.2506055 0.030619964
-0.41116697 -0.08535513 0.88586044
0.28310525 1.32528 -0.22335073
-0.3479013 1.8791316 0.2031284
-0.46409246 0.8415425 -0.7865421
-0.21482389 0.6064516 -0.22562139
-0.9246479 -0.25639898 0.8719771
-0.32277822 0.8586552 0.58833164
0.36298454 -0.4194805 0.43171656
-0.23496842 1.2843956 0.19012329
0.038870595 -0.40922236 -0.017428823
0.3442592 0.45133793 0.5452709
-0.4502685 0.9779831 0.0870993
0.18956402 -0.41520733 -0.44999737
-0.46414444 0.71853805 0.31946385
0.19008476 1.5989649 -0.04613162
-0.0039060554 0.8239661 0.4892832
0.8693136 0.7798935 -0.12894726
0.19538128 -0.05853569 -0.08528797
0.6594703 0.44264972 0.012480589
0.22590351 1.0800853 -0.7255074
0.4042946 0.4958508 -0.6299613
0.092263415 1.1729262 0.5153091
-0.1463813 -0.41172498 0.06575757
-0.17791198 -0.06786883 -0.19933617
-0.5436218 0.8712598 0.6342432
-0.51295924 1.4484258 -0.6884726
0.9006654 -0.4082201 0.12150081
0.8298963 1.4480019 0.16316742
0.5651624 -0.41360104 0.7402507
0.07929897 1.5229948 -0.83575
-0.24825215 -0.25172612 -0.5875914
0.5263685 1.4189427 0.3182553
0.8970518 -0.4088652 0.5329422
0.27807587 1.7672293 0.037933644
0.35917485 -0.08859475 -0.90616614
-0.042268615 1.3757257 -0.90109015
0.13822158 -0.076999426 0.8733332
0.019885985 1.8012882 -0.1643644
-0.19877845 1.9467769 0.10292578
0.27890372 1.8304181 0.3842668
0.61774766 1.7041957 0.22094357
-0.54597074 1.1145511 -0.5139106
-0.25731677 -0.088767886 -0.74762625
0.7199056 -0.08533062 0.8772706
-0.724335 -0.08405626 -0.21784464
-0.45227307 -0.24367817 -0.63714486
-0.44503057 1.8227403 -0.29878122
0.65621597 1.1372505 -0.6929844
-0.62271273 1.0269494 0.20645002
-0.30283695 0.9887456 -0.7052219
0.37868947 0.6992663 -0.558367
-0.121486664 0.88030076 0.662308
-0.3024292 0.65418184 -0.5690679
0.3963747 0.25503093 -0.103657186
0.8704875 0.89013135 0.19517916
-0.35469377 -0.4202215 0.35633832
-0.31378922 1.5079241 -0.78425074
0.20127645 1.1309968 0.8446959
0.7377993 -0.08479287 0.42885557
0.38588202 1.6844338 -0.10088633
-0.92470765 -0.25371665 -0.4250593
0.42544448 1.7018561 0.45955455
-0.17906924 0.47068536 0.59676707
-0.882571 -0.41360003 0.52421176
0.5348263 1.0213702 -0.5618034
0.49583787 0.9195125 0.48530775
-0.35157365 0.4248203 0.4736942
0.48583546 0.91634333 0.71265244
-0.15407318 -0.25722563 -0.76359993
-0.7119496 -0.2624585 -0.9255278
0.40536976 1.374299 0.11542634
-0.08993792 -0.24270782 0.6370663
-0.16180952 -0.091492474 -0.9147372
-0.8568367 1.0842686 0.21288322
0.10557118 0.5011018 -0.21533772
0.57824564 -0.089394934 0.7474286
0.0024262292 0.8960475 -0.56689095
0.1816546 1.9616897 0.08801158
0.23548642 -0.41875732 0.6098256
-0.45436287 0.5108375 -0.58691823
-0.29561108 0.65501666 0.066741295
-0.5674088 1.6847363 -0.38575774
0.032791905 -0.24691877 0.4697937
-0.64777416 1.1580164 0.5445989
-0.7841773 0.9284066 0.33241743
0.7512324 -0.2542228 -0.087376975
-0.23583546 1.2723663 -0.53098273
-0.04542543 1.2825739 0.17551371
0.717412 -0.08528035 -0.39148077
-0.65299964 1.2731842 -0.62177444
-0.7994373 0.69134724 0.0642432
0.5687101 -0.08398913 0.32011673
0.27344614 1.5243977 -0.56244195
-0.09509377 1.5295098 -0.32866544
-0.27955922 1.8209777 0.38761443
0.42517364 1.5540464 -0.4139772
-0.5087942 1.1751459 0.32537687
0.2991742 0.42176262 0.08711164
-0.20736122 0.42722368 0.24679872
-0.42015207 1.0101264 0.49646986
-0.06528261 0.76887584 -0.27890766
0.3176758 -0.23970094 -0.7791481
-0.13990152 0.7836128 0.3472098
0.6256747 -0.27763766 0.076972365
0.64916205 -0.25030848 0.2496363
-0.38308522 1.5871731 -0.42546695
-0.124877974 1.5277998 -0.8309522
0.104103036 -0.41457486 -0.6210079
-0.14648147 0.87443984 -0.92821527
0.64720607 -0.24529998 -0.9166284
-0.64159703 0.6258717 0.36881766
-0.59607834 -0.25721782 0.2530502
0.57165426 -0.41530797 0.5235615
-0.1409593 1.1644094 0.024718177
0.33237717 1.2427756 -0.7042313
0.008526126 1.0121996 0.6184002
-0.6880479 1.1998141 0.21270916
-0.17670493 0.71800816 0.54342294
0.8972635 -0.09190868 0.73412204
-0.5512767 1.5901129 -0.54121333
-0.58666116 -0.08920966 0.3456337
0.38984656 0.2795176 -0.2841617
0.31178492 1.3890029 0.5860325
0.2559651 1.5021362 0.72563446
0.6946415 1.1417668 0.2761619
-0.15859029 0.749449 -0.08085218
-0.13430153 0.777024 0.13343875
-0.6254939 -0.2523044 0.46361995
0.1541808 0.7960223 -0.22792453
0.91846454 -0.2507207 0.6458181
0.1778337 1.1220441 -0.9437771
0.41569176 -0.25183168 -0.28703445
-0.55310845 0.39456952 0.12634799
-0.49639273 -0.26227048 0.5946515
-0.3475958 0.67932665 0.46874297
0.9253776 -0.24898374 0.4400514
0.5948987 -0.2523578 0.6459718
-0.54674965 1.3138907 -0.08516943
0.5343381 1.0914757 0.19962096
0.850808 1.0525683 0.3144101
0.14294311 0.49929196 0.37077564
-0.36672533 0.68207204 -0.32538533
-0.7700151 -0.2546264 0.5449457
0.23962423 1.8726149 -0.43584734
-0.01720533 1.7745813 0.18894419
0.5457113 -0.08797002 -0.90803343
0.2079725 0.5755687 0.67366743
0.09580445 -0.2581181 0.92447484
0.654848 -0.08392499 -0.7350483
0.021569315 1.2262002 -0.3715859
-0.0832389 0.1799556 0.084800676
0.50752234 1.1904058 -0.8096788
0.15528588 -0.07370171 -0.2887339
-0.79064167 -0.25374126 0.73623383
-0.7421254 -0.08441922 0.43553996
0.49893206 1.2182302 0.6921686
0.21644062 1.21365 -0.37062854
0.09675399 1.3783484 0.23017699
-0.38654673 0.7347549 0.69378
0.587909 -0.2466493 -0.21360867
-0.2244474 1.2414069 0.80786115
0.7813003 1.2294662 0.42165336
-0.58490366 0.851415 0.2688638
-0.16723752 1.8233154 -0.18777286
-0.62168944 -0.40494388 0.9041965
0.24733534 -0.24428347 -0.3957054
-0.5638928 0.47859597 -0.40898317
-0.4163727 1.7652166 -0.47410253
0.78134865 -0.25020325 0.34110337
0.9158242 -0.24343607 -0.5940295
-0.1485292 -0.062238805 -0.0023947253
0.032422334 1.3501171 0.4491771
0.3393345 -0.08198978 -0.36403793
0.59685737 1.0632429 0.6530136
0.55726254 1.547482 -0.046302974
-0.69349986 1.2063423 -0.027704349
-0.37109298 1.1516622 -0.87054074
0.89851916 -0.4086259 -0.08605686
0.6829813 0.7139343 0.47453135
-0.13635677 0.5411473 -0.5301638
-0.3624937 0.52487385 0.3288249
-0.34158865 0.5452728 -0.43687618
0.069600716 -0.25357038 -0.35641766
0.73524916 0.7597568 -0.52801645
-0.47498247 0.9432363 -0.58889496
-0.057033878 1.303609 0.63025784
-0.67188555 1.3556445 0.07302396
0.27110612 -0.08335753 -0.7028854
-0.8955821 -0.4068396 -0.5325227
0.04609253 0.61735225 -0.63933086
-0.27976388 1.0562165 0.61875725
-0.02650799 0.7257234 -0.48422736
0.8919804 -0.40884092 0.7326206
0.2234737 -0.07154611 0.11890511
-0.20330665 0.71356523 -0.41592655
0.07041596 1.6056113 -0.2064594
-0.44613773 -0.24963966 -0.29070574
0.90100753 -0.08971462 0.5339052
0.88688767 -0.40268502 0.90540683
-0.04389769 1.2782252 -0.13156313
-0.5004723 0.84945506 0.4509076
0.58994776 1.6497962 -0.46466166
0.30617344 -0.404805 -0.9146704
-0.28568298 1.5475838 -0.24717546
-0.5394904 0.44767708 0.31548768
-0.34710544 0.87022597 -0.43178433
-0.14457238 -0.40986973 -0.908651
-0.16786486 1.6205418 0.15183544
0.44508767 0.8643061 0.26357955
0.2739447 1.6876442 0.57618845
-0.3695281 -0.41530526 0.5519459
0.5679828 0.5777169 -0.28670737
0.20727912 -0.41387314 -0.756287
-0.1336134 1.7851439 0.0077498443
-0.5323207 -0.08465692 -0.14891514
0.54090214 -0.103227116 0.9166342
0.7475867 0.56071866 0.1461463
0.5404322 -0.07258269 -0.12422112
-0.21199758 -0.2570488 0.76365346
-0.0003516772 0.999928 -0.96804595
0.11816102 -0.41939878 0.7511412
0.2628252 -0.23686145 0.008244272
-0.34468198 -0.41792586 0.15236504
0.25215313 0.38448232 -0.15407601
0.043350026 0.79793453 -0.91408074
0.2509277 -0.25538588 -0.6050097
-0.12279284 1.5983841 0.67607576
-0.06264849 1.8453522 0.42393285
-0.19205847 1.1096377 -0.94173074
-0.45466602 -0.25873545 0.412334
-0.15217099 1.9737257 -0.07772765
-0.13028952 -0.25912654 0.4743472
-0.32294208 0.81114674 -0.65943646
0.08718622 0.74814445 0.17574772
0.22592142 -0.2612331 0.77739644
0.93298244 -0.24807888 -0.78101313
0.4419419 -0.25564295 -0.6312337
-0.28800166 -0.250577 0.025753528
0.31613183 1.2997872 -0.5199136
0.723649 -0.40089673 -0.9168453
-0.70270646 1.5322716 -0.37314445
0.08758469 1.7955607 0.013806798
-0.35078996 0.47433683 0.13009524
0.20169143 1.6403848 -0.74069333
-0.9228138 -0.2603743 0.43100387
0.44976547 -0.24785972 0.52741474
0.40104198 -0.25494516 0.35474077
-0.91291153 -0.10637809 0.17141877
-0.46730983 0.66799355 -0.7092458
0.42373174 0.3153299 0.22669911
0.40165392 0.47339904 -0.2550816
-0.30400842 -0.08207842 0.11841068
0.013142515 -0.0815605 -0.483375
0.70492744 0.8691326 -0.016046017
-0.40900335 -0.24112381 0.7549798
-0.23488745 0.38054588 -0.1583488
-0.06658657 -0.24700335 0.28681982
-0.21644342 1.5607753 -0.03245368
-0.40852487 0.9752768 -0.15221345
0.78830194 0.6331686 -0.25691426
0.9034487 -0.08786748 -0.48935896
-0.3127947 1.317465 0.3925962
0.11443094 0.867793 0.6654767
-0.32107884 1.5637853 0.6435081
0.5279354 0.57860404 0.5017012
0.25886366 0.6192161 -0.20475492
-0.6170112 0.8283752 -0.65806574
-0.16420844 0.26871738 -0.4461112
0.38058478 -0.41845077 0.015650429
0.087048724 -0.40629685 -0.9094181
-0.13097231 1.3231537 -0.31206995
-0.7166123 0.8801855 -0.090545304
0.39169586 0.6168219 0.6304481
0.010758479 -0.4118264 0.9062433
-0.044811293 1.3136768 0.8255001
0.4847961 1.8461993 0.10488252
0.3989575 -0.082788765 0.21524672
-0.41828573 1.3317084 0.22037755
0.08306116 0.42758375 -0.6874424
-0.45787746 0.76730084 0.10057886
-0.2180852 0.9920814 0.14120567
-0.062904574 0.31612882 -0.055221684
0.2681076 -0.08866047 0.7318475
-0.89472437 1.0349858 -0.005631175
0.47041807 1.3970265 0.6757032
-0.7314571 1.0466915 0.061360657
-0.0076935487 1.9667593 0.10635905
-0.73249996 -0.08641681 -0.8983005
0.40122503 -0.4190569 -0.18033925
-0.07882341 0.45513785 -0.19299366
0.12634532 -0.2532444 0.60992944
0.89607286 -0.08856985 -0.088961095
0.8878084 -0.083218455 -0.70483303
0.5587901 -0.4160657 -0.28958994
-0.1583809 1.4219127 0.5444343
-0.46679688 1.0176134 -0.36529553
0.3393965 1.0319917 0.18860713
-0.30064788 -0.24761099 0.5785812
-0.37621847 0.4830429 -0.2629814
-0.38728556 0.3576179 -0.44641316
0.41777316 0.6612393 -0.7576382
-0.61625147 0.63927585 -0.5513897
0.5769049 0.7718972 0.3650353
-0.63189656 1.6918371 -0.22200012
-0.07793294 1.4666419 0.33727172
-0.6058529 -0.09405707 0.14336155
-0.73140705 -0.08429515 0.8007026
0.4947744 -0.24887682 0.22726752
-0.009292098 0.15262035 -0.11585365
0.20686454 0.43362656 -0.36169583
0.23411718 0.7216604 -0.8672175
-0.0039124917 1.6857431 -0.7302542
0.7368002 1.4136028 0.40396467
0.3480741 0.567204 -0.40495077
-0.3604806 -0.08257218 -0.2551872
-0.82490814 1.4061074 0.1252437
0.16695419 0.97974575 0.49209186
-0.081989944 0.3613005 -0.59535545
-0.40097022 0.27442098 -0.12084357
-0.8138433 0.96348345 -0.38960236
-0.53424037 0.6616512 -0.38279662
-0.41267627 1.6763222 0.48028442
-0.1722961 0.5578973 -0.039427347
-0.11817294 1.9272381 0.27370048
-0.9229175 -0.25730854 -0.21479549
0.562391 -0.40777135 -0.07548639
-0.8495259 1.1622305 -0.32649493
0.85766053 -0.25095594 -0.92682207
0.4939602 1.2151232 -0.59199595
-0.20251694 0.43472153 -0.36425847
-0.3715605 0.69053143 -0.11140962
-0.32107383 0.84065753 0.20119411
-0.09792206 1.1192368 -0.21939805
0.07589351 0.32024845 -0.18985161
0.58055 1.2580786 0.37112916
0.75397956 -0.25178862 0.54243624
0.8941868 -0.40872335 -0.68558335
-0.0305472 1.0467882 -0.43216646
-0.36891487 0.4770456 -0.06796009
0.3872369 1.564029 -0.7284281
0.40651724 -0.25344247 -0.107021675
0.42342132 1.7912705 -0.4451021
-0.21166787 0.3302541 0.41434097
-0.2345949 -0.08530974 0.513907
0.21250303 -0.4071669 -0.09529656
0.12131816 0.17304082 0.0249522
0.66186917 0.831804 0.18235113
0.36493355 1.8957801 -0.25069737
-0.88019747 0.9882106 -0.20450851
-0.028507765 -0.097958215 0.9134809
0.9121797 0.9315683 -0.00825057
0.0032265033 0.68180573 0.032733694
-0.25857872 -0.085855894 0.71578413
0.39138952 0.47009888 -0.06522389
-0.31171763 1.7245237 -0.10261211
0.37402874 0.67317593 -0.04234583
0.19623633 -0.24795958 -0.9244926
0.10835913 1.063732 -0.28023696
-0.2185589 1.88817 -0.40285832
0.5616251 -0.086636975 -0.5332444
-0.32725957 1.4829208 0.10119337
0.4517972 1.6574608 -0.5861311
0.6086329 1.1594198 -0.43800133
0.90168643 -0.08785352 0.1145325
0.62672544 0.9656076 0.32718456
0.5964663 0.6475075 0.20775321
-0.3443113 0.5693569 0.61344403
0.23769024 1.6593182 -0.45332074
-0.42626947 -0.40896553 0.8959304
0.124727756 1.5042629 0.35317373
-0.73270637 -0.25069422 0.9187498
0.3998566 0.85147285 -0.8487977
0.59074545 -0.25081408 -0.40811098
0.7145319 1.0864224 -0.2749561
0.57891214 1.5142076 -0.61849284
0.35682127 1.5531778 0.07470963
-0.8197272 0.8046838 -0.27417493
-0.78785 0.6524517 -0.14335012
0.39611274 -0.4127171 -0.7619897
-0.6370388 0.7532114 -0.24379504
0.71145177 1.5528572 0.27931875
0.7263478 -0.41787636 -0.18578899
0.7381092 1.6053139 0.079135105
0.73797846 -0.085163176 0.6487621
-0.62129295 -0.25707674 -0.6154814
0.021928001 1.069577 -0.06777938
-0.25437674 -0.41302925 -0.263849
-0.38724142 0.32712394 0.27768296
0.19742708 -0.08320862 -0.4969055
0.15453799 0.729777 0.7845473
0.11356747 1.7921222 -0.593932
0.4619962 1.0466607 -0.32111627
-0.64709544 -0.08293185 -0.73846525
0.16241273 1.7702638 0.20886624
-0.55824286 0.38001466 -0.0669326
0.31235445 -0.25160402 0.6229377
0.01804695 1.8983886 -0.44251135
-0.31722832 0.84475386 0.39553505
-0.33196938 1.7082382 0.09400538
0.90052354 -0.40874797 0.32726276
0.22154261 1.2227285 0.19151771
0.023714732 -0.24547437 0.76926476
-0.7675674 1.3228757 -0.43385747
-0.5137555 1.1489902 -0.22895217
-0.5134388 1.3233969 0.43411207
0.25667417 0.8450478 0.1992474
0.6559178 0.7636835 -0.35434598
0.5693981 -0.20390199 -0.044222027
-0.6891377 0.54154575 0.19108264
-0.5889337 0.87885064 -0.42839366
-0.30177695 0.86119187 -0.0076390933
-0.2655149 1.7726278 -0.5530956
-0.82618505 1.3740239 -0.26049203
0.18486792 0.9612907 -0.117810935
0.69059086 1.6354482 -0.3175145
-0.9318501 -0.2567919 0.63598573
0.48283848 -0.41517934 0.9045569
0.72644985 1.2385296 -0.11537178
0.17293364 1.5889075 0.15049726
-0.32691842 -0.07998589 -0.07461932
0.02074479 1.4863615 0.7534052
-0.7587048 1.5507472 -0.17049327
0.06383069 1.1934457 0.32310808
-0.19059554 0.87440026 -0.5497387
0.06823632 -0.077071756 0.2517069
0.12183972 0.63985574 0.4861394
-0.12732622 -0.4160958 -0.6132232
0.2648284 1.6325853 0.3639294
0.9007144 -0.4071861 -0.4872917
0.19480643 1.5307243 0.51770246
-0.43417642 1.1545885 -0.061154515
0.38786155 1.475215 0.4338687
-0.18744062 0.5608424 0.4058134
0.1094424 0.5529245 0.1673586
0.4625446 1.3946531 -0.25463653
0.7346201 -0.42075783 0.020921245
0.014136532 0.7066359 0.6351094
0.072206914 1.6888826 0.3736204
-0.25902754 1.4663887 0.2798
-0.014048876 1.1942971 -0.9509988
-0.29294014 0.74648535 -0.83910567
0.13188548 1.7965047 0.4983005
0.5635249 0.39627385 -0.33739877
0.8969828 -0.40892145 -0.28792286
-0.5772108 -0.41513842 -0.31811616
-0.031630017 0.45007104 0.32648563
0.032314423 -0.091457754 -0.9119959
0.5825126 1.1303067 -0.008883864
0.10012077 1.9181881 0.29925227
-0.7186196 0.6165371 -0.3489881
-0.18870124 -0.41224885 0.61512065
0.5720267 1.4914112 0.13541377
0.2281801 1.3254143 0.41007528
-0.4006862 0.2812798 0.06764381
0.5579928 0.82367885 -0.5305538
0.02279515 1.0902216 0.14119956
0.7616013 -0.24285734 -0.73847127
-0.12385484 1.6501663 -0.17174612
-0.32169294 -0.41601604 0.7401644
-0.087619066 -0.4159153 0.75743073
-0.6194396 -0.25270194 0.72605896
-0.12213257 0.8697251 -0.7413379
-0.2540242 -0.25705546 -0.9213687
0.7305106 -0.41428185 -0.58084035
-0.6012206 -0.2502054 -0.42392117
0.78330475 0.7089114 0.2793635
-0.13703217 -0.0856241 -0.5927037
0.017404102 1.3817594 -0.69552934
0.6955778 0.58142805 -0.4250126
-0.3511071 1.2961612 0.0117369555
-0.15383598 0.92873013 -0.37572008
-0.5541936 -0.09178801 -0.9128616
0.26178592 1.1334705 0.39888206
-0.84823954 0.88852787 0.14060788
-0.27562678 -0.24403226 -0.37576246
0.52957773 -0.4120401 -0.89736265
0.4160161 -0.24421388 -0.46814823
-0.70340097 -0.4188787 -0.7990856
-0.32092458 -0.25315565 0.9221227
0.37726933 -0.41665956 0.22027346
0.015214516 0.8415184 -0.08333604
0.056055486 0.49630243 -0.49065942
0.8222372 1.5063479 -0.058840513
0.70063037 -0.41843933 0.87781954
0.50212955 0.3204351 0.051835462
-0.5626975 -0.086127214 -0.33470356
0.6509088 0.7248876 -0.16086046
0.5479504 1.773305 -0.29565433
-0.07335514 1.209718 -0.7629645
0.6513184 0.55434763 0.34993282
0.0934369 1.5500866 -0.6082627
0.8962016 -0.40731132 -0.87934077
0.5799693 0.6316756 -0.6108426
-0.77012694 0.7411564 0.2613199
0.43842372 1.071312 0.35745817
0.5485568 -0.2558751 -0.77616453
-0.35963285 -0.08922761 -0.9102569
-0.10376841 0.49838552 -0.74152195
-0.034863383 0.5675076 0.5034441
-0.21550865 -0.24290845 0.18302107
-0.23851272 1.3910074 -0.16951878
-0.03488134 0.75659025 0.805772
0.15904148 1.017775 0.26251733
0.3073412 0.5752529 0.45040146
-0.92428017 -0.24975416 0.006951148
-0.013441451 0.37963223 -0.36033532
0.1044244 1.6347678 0.6625565
-0.8188048 1.3890524 -0.070012085
0.39749843 1.0493177 -0.69047445
-0.092573136 0.9431642 0.029503621
-0.62473273 0.9455807 -0.24410342
0.58664536 1.6053181 0.42239156
-0.038777586 0.36630583 0.51459897
-0.51922315 -0.41932994 0.71193284
0.72235215 1.007863 0.12784876
-0.27658695 1.7202048 -0.3217314
-0.6253887 0.6958458 -0.05309493
-0.16572368 1.3519865 -0.00060982205
0.50390124 0.8577735 -0.28787902
0.9032007 -0.08870621 0.32497525
0.24831608 -0.25117496 0.4447152
0.26658553 0.9668657 -0.34304765
-0.5382315 0.6932354 0.5593566
0.14086348 1.9467248 -0.27945763
0.007549675 0.5359293 0.6935512
0.06928258 0.28766215 -0.50619394
0.5186709 1.3346262 -0.04656232
0.3314861 0.89681625 0.6004437
0.623809 -0.25088298 -0.6055613
