0.62002707 1.2754736 0.50118005
0.5210922 0.38078415 0.047865175
0.48292798 1.416421 0.24678172
0.7413199 -0.2531447 0.7559024
0.4317098 0.9000485 0.5221759
-0.5548271 0.85984135 0.376805
0.12207791 0.10230492 -0.39150092
0.68789834 1.0939584 0.53965044
0.29860422 1.614666 -0.6125041
0.7614415 -0.24785604 0.93146217
0.4584874 -0.08447361 -0.72752154
-0.00012861128 -0.4052601 -0.47262245
0.051069282 1.2828453 0.021174353
-0.7063844 0.91276324 -0.17519888
0.32644424 1.2767372 0.23365945
0.080295585 -0.17891125 -0.5174278
0.3720554 0.32734683 0.20823339
-0.32753757 -0.07001586 -0.583272
0.16305888 0.50948054 -0.42176157
-0.9039057 -0.09381436 0.7232832
0.4928824 1.6189828 0.287619
-0.57996386 1.3390969 -0.100652836
-0.46567726 -0.25242493 -0.92512
0.4182109 -0.08220039 0.6384753
0.2921946 0.25736183 -0.66327167
0.89582443 1.2110591 -0.19414175
0.9193044 1.0428219 -0.28189442
-0.26973274 0.915383 -0.03768519
-0.19066818 1.4552438 -0.48236865
0.2558989 0.08944814 -0.24622169
-0.40089434 1.1749113 -0.24990842
-0.71983576 0.6329975 -0.4944314
0.027056951 -0.119833075 -0.16939273
-0.71482855 1.3854336 0.044555824
-0.7243738 -0.08416787 -0.4311495
0.36297035 0.9659505 -0.5371597
-0.5842333 -0.4129882 -0.11044486
-0.3232513 1.2089578 0.5213371
0.13054039 1.2389985 -0.51827013
-0.23862916 0.6806991 -0.26557505
-0.03534037 1.1003041 -0.5851567
-0.21059665 1.0619005 0.5760172
-0.7455868 -0.0785373 0.20532945
0.2752599 0.41540235 -0.81451905
-0.061505392 -0.08660918 -0.7674326
0.7615007 -0.25115895 -0.49315047
-0.5200037 1.121319 0.6153302
0.63453794 1.22118 -0.70098674
-0.097956665 -0.21539739 -0.463903
-0.11756103 0.9137012 -0.8241797
-0.100740366 -0.05874458 0.16866544
-0.7457517 0.9916136 -0.52917624
0.42251486 0.8773534 -0.10942793
0.16523463 1.2613049 -0.13543299
0.25846934 0.78786194 -0.6034681
0.92090577 -0.24809375 0.014781756
0.09230742 0.47775975 -0.88662827
0.87071276 0.6648438 -0.3931735
0.7167779 1.5266719 -0.16432028
-0.2118648 0.10081563 -0.10786162
-0.4041799 1.3011874 0.36723852
-0.107078925 -0.2210243 -0.2773912
0.89220774 1.1099463 0.20475045
-0.72545546 -0.4207454 0.77568483
0.36654133 1.1078537 0.7462572
-0.49716705 -0.41854113 -0.7319714
-0.70105016 0.80971384 -0.5771189
0.19735971 0.23129234 0.15450823
0.33083278 0.73541987 0.7649286
-0.5712845 -0.08603953 0.5098751
0.7387266 -0.086267374 -0.58265764
0.8722013 1.0081251 -0.4510892
-0.096096285 1.3974693 -0.64211166
0.33801794 0.122159034 -0.05126316
-0.01973724 -0.41399837 -0.7632279
0.7239296 -0.41895884 0.64896995
-0.09541817 0.5520182 -0.90557075
-0.43607512 0.59938043 -0.5603643
0.03647343 0.8357334 0.35968068
0.5707779 -0.053156912 0.11914157
0.19458222 -0.41091245 0.28353214
-0.35137504 -0.41403157 -0.5942186
-0.34508526 1.1787469 0.70308304
0.15098676 1.2190032 -0.93974113
-0.8907966 -0.099029616 -0.91424346
-0.7406405 0.93039864 0.37487084
0.078071065 -0.4337678 -0.2617525
0.43182325 1.0163528 0.03976649
0.53374875 0.26441705 0.3173646
-0.0775373 -0.07242271 0.56327844
0.13010064 1.5975206 -0.34320647
0.1542902 1.054292 -0.1975967
-0.7630913 -0.24478143 0.3067087
-0.48531884 1.6377845 0.10032156
0.4482689 1.0593228 -0.17468834
-0.46187428 0.36303687 0.4378026
-0.85985005 -0.07869688 0.011845849
-0.48085368 0.68326545 -0.1108779
0.787408 0.95954907 -0.6003356
-0.1739343 1.23356 -0.7126205
-0.1901992 1.5327272 0.5367577
-0.32891345 1.7356684 -0.0013764879
0.5959229 0.68705344 -0.7773857
0.3578541 1.53549 0.19200324
0.7233647 0.8133371 -0.6865324
-0.40221566 -0.07844053 0.39579898
-0.6223183 -0.0901207 0.9116066
0.40619528 -0.07019636 0.43179977
0.5805831 -0.26926884 0.8980603
0.92067885 -0.24717414 -0.38890862
-0.8954104 -0.40625677 0.09894122
0.7871413 0.90259945 -0.12339209
0.9183717 -0.24775949 -0.18569079
0.581879 0.3747947 -0.56644964
-0.54447013 -0.42157245 0.48865023
-0.09781581 0.13045228 -0.32909322
-0.7203803 -0.4162941 0.40009797
-0.071086824 0.42369875 0.11973733
-0.29982823 0.9110998 -0.5337705
-0.8596028 1.0428605 -0.13329816
-0.0021729004 -0.41306815 0.5700275
0.17872572 0.25087166 -0.062567264
-0.6858289 -0.08082532 -0.042686883
-0.7135372 -0.41787648 -0.6261061
0.07295635 0.6536812 -0.7737324
-0.90005064 -0.4042055 0.7153355
-0.9035125 -0.09220322 -0.5326878
-0.5998442 -0.24095058 -0.21175179
-0.30629703 0.82951033 -0.92173535
0.42700228 -0.25468293 -0.9236097
-0.5527854 1.4267349 0.37409002
-0.014140304 -0.4094696 0.36802346
-0.19370316 0.64114666 0.7515519
0.37988627 0.94375503 -0.9230229
0.43084192 1.2931507 -0.6200671
-0.4833036 1.3541644 -0.28822982
-0.52476203 -0.24616635 0.9133457
-0.43516713 -0.21960934 0.08818658
0.664333 0.8341445 -0.45468464
0.038877957 1.4129404 0.19587123
0.008692529 0.24126574 0.09017588
0.15679938 0.1280278 0.3510818
-0.25604117 -0.4200598 -0.75368017
0.368735 -0.25425243 0.92267
-0.21204108 1.3679521 0.4511802
0.36322844 -0.06473358 -0.5563961
-0.13369998 0.9268537 -0.62524825
0.8854414 0.5904027 0.01995352
-0.45114505 1.3891289 0.20388928
0.39722633 -0.07652153 0.8600024
-0.03666135 0.754658 0.8104799
0.30886614 1.2838154 -0.41069743
0.3340764 1.7348058 0.19506212
-0.3544709 -0.25902697 -0.76945376
0.73898983 -0.08194786 0.22427541
0.32099277 0.9602405 -0.25366062
0.4369887 0.9057332 0.7378696
-0.45025718 1.5793886 0.29381245
0.54395527 -0.4173871 0.12843665
-0.67412025 1.093904 0.4316849
-0.101392046 1.1116943 0.34144783
-0.032093294 -0.24608728 -0.63253033
-0.5349802 -0.08067967 0.72713065
0.8139024 1.3626046 -0.30048424
0.22713381 0.6060605 -0.0813314
0.95281875 0.99617946 -0.10752374
0.58810484 0.4235155 -0.15460761
0.615109 1.3539963 -0.37606382
-0.070046656 1.588738 -0.35153908
0.44582486 0.24945426 -0.54436207
-0.09997965 -0.42114967 -0.14738312
-0.73927855 -0.41591072 -0.21691388
-0.27104086 -0.4093753 -0.077236876
-0.23191825 0.4930923 0.22477078
0.9031924 -0.08881484 -0.8977425
-0.36979073 -0.41140828 -0.9028485
0.11536135 -0.24011113 0.3178659
-0.89606225 -0.092236444 -0.33880383
0.011634778 0.7920573 -0.27665895
-0.13002884 0.45603353 0.68022263
-0.6243293 0.7034795 0.0637579
0.049783915 1.8249831 -0.07929221
-0.06854262 1.2744985 -0.50219584
0.92442304 -0.24751416 0.22839558
0.14805233 -0.40778908 0.45260406
-0.03152881 -0.25690395 -0.91685677
-0.9156749 -0.2600837 -0.8727479
-0.18042979 -0.40339243 0.25276425
-0.64516294 0.61011267 0.42427513
0.070836015 0.8646295 -0.83480895
-0.2134946 1.1897029 -0.91014487
0.74799323 0.76354146 -0.27111882
-0.3118697 0.12861991 -0.3611636
0.6714338 1.2914889 -0.1979984
0.43666035 -0.24315576 0.75325274
0.02232501 1.3500745 0.50930107
-0.38607556 1.4873052 -0.638709
-0.107462674 -0.256216 -0.08636814
0.7859047 0.89078784 0.45285323
-0.20461151 0.11597781 0.14293075
-0.1960167 -0.41663307 0.44045705
0.2382051 -0.07637293 0.53213835
-0.24656527 1.0386554 -0.19987099
-0.2680742 1.2523342 -0.39758742
-0.46621418 1.2661204 -0.45611167
-0.36292827 0.9818549 0.7233794
0.39200214 0.57437664 0.6796951
-0.54768074 -0.08302691 -0.5546098
0.08160469 -0.058595687 -0.67395484
0.24458969 0.9330253 -0.011171313
-0.77591306 1.1358068 0.28036362
0.42468214 0.7414087 -0.7057497
-0.64349794 0.7797234 0.50607985
-0.40966052 0.98747313 -0.6799933
-0.06569211 0.9729513 0.46268046
0.05185323 -0.29746667 -0.186295
-0.7628659 -0.2473479 -0.11015546
0.0064123785 1.5096676 -0.4995678
-0.26949602 0.88396335 -0.31964964
0.3075816 1.0318485 0.5793666
-0.2604044 -0.22338617 0.36272198
-0.44513398 0.4263195 0.16216567
-0.5003699 1.0282073 0.090117306
0.3026905 0.09584233 0.15318175
-0.09289408 1.2752302 0.13787223
-0.8976517 -0.40570343 -0.10864293
-0.5791868 -0.4051488 -0.91719556
0.57690793 0.57810783 0.5631283
0.1283029 1.0961118 -0.8070821
0.27926838 1.3438007 -0.8664798
0.4667051 1.2671821 -0.8068981
0.0974271 1.2365782 -0.3107322
0.37946284 -0.06508789 -0.18372151
-0.53494066 -0.41488862 0.29029524
0.081544615 -0.026094984 0.4394349
0.103678554 0.07674029 0.15892306
0.9330766 0.8417485 -0.27790526
0.7416532 0.34583682 -0.26324594
0.7355939 -0.08565128 -0.901304
-0.4127704 -0.24273899 -0.47856212
0.23024647 1.7989218 -0.10556142
0.097733796 -0.2410421 -0.0352062
-0.21707204 -0.4029495 -0.45776433
0.47468522 0.54907215 -0.2830783
0.42380938 1.0887892 0.25094032
0.3326342 -0.4153893 -0.5807717
-0.25243735 0.28929234 -0.6715939
-0.48052543 1.659368 -0.102893576
0.4162963 -0.41252157 0.61186343
0.5376227 1.6729288 -0.1318194
-0.095981136 -0.040656283 0.3860857
0.43433082 0.77405167 -0.50577706
-0.29523763 1.7553651 -0.2006413
0.22767115 -0.3995518 0.9111091
-0.19924128 -0.020102084 -0.4312684
-0.03804767 0.10015309 0.2704575
0.18838927 0.6167235 -0.5784527
0.43927354 1.0957003 -0.3959915
-0.60753566 1.2343175 -0.269296
-0.26761627 -0.21905753 -0.18790743
0.8612882 1.2006876 -0.40113986
0.5400021 -0.41086417 -0.49108016
-0.38612878 0.8108149 0.26505843
0.16854483 0.92590266 -0.52145845
-0.41640893 -0.2400774 0.25990838
-0.41751993 -0.041624915 0.19619553
-0.16268286 1.0105866 -0.42341626
0.8925272 -0.09514274 0.9083182
-0.02491448 0.44525027 -0.4047143
0.925666 -0.25150436 0.8614725
0.12018496 1.3941714 -0.40562543
0.20281719 -0.40986377 0.096711144
-0.07104103 0.93154967 0.66478485
0.38752666 1.7551055 -0.03748289
0.3019645 0.12610458 -0.48709273
0.7051357 1.1695493 -0.35719582
-0.4346729 0.679582 -0.30031765
0.45651275 1.3882109 0.57708776
0.72551465 -0.41674808 0.42792007
-0.52688015 1.0950803 -0.7774369
0.5424927 -0.054393724 -0.31226182
-0.49142784 0.88553846 -0.8255252
0.72066605 -0.41689515 -0.386882
-0.8980931 -0.093511865 -0.15139133
0.82912827 0.4584461 -0.118053876
-0.86787796 -0.09176099 0.90867066
-0.8379094 1.0587678 0.07167946
-0.14692384 0.8211149 -0.16193494
0.32946813 0.49159834 0.07575144
-0.18008003 0.2615493 0.004107056
0.35887396 1.5736955 -0.30562386
0.28028822 -0.21991244 0.21857996
0.1607207 0.7605895 0.038919248
-0.12402095 0.7741529 0.4620229
-0.11494479 -0.2610218 0.9171889
0.5676271 0.87611043 -0.82820565
0.7619849 1.1525254 -0.57434046
-0.09369751 1.4820032 0.3550912
0.24159867 1.2451357 0.05014214
-0.15796056 1.239295 0.73990947
0.30572748 1.1120716 -0.06513083
-0.112111926 0.56382966 -0.7094964
-0.5004589 0.21463268 -0.3194861
-0.7340332 -0.41459668 -0.0008441154
0.16161081 1.189879 0.59413236
0.71948874 -0.08158821 -0.19252786
0.72929025 -0.079309046 0.013324251
0.5187447 1.4575579 -0.24417646
0.69976914 -0.4154912 -0.7617949
0.36243898 0.7272564 -0.012983487
0.28329307 1.4039104 -0.2611658
0.6069969 0.21605082 -0.21762435
-0.4553839 -0.08275353 -0.74127126
0.6453017 0.26737535 0.14364596
0.32931125 0.6294403 -0.4248711
0.735476 1.3429826 -0.51065904
-0.4522605 1.4588814 0.007900074
-0.7561319 -0.25014225 -0.32293308
-0.4220376 -0.40861425 -0.20076093
0.82729256 0.71328765 0.3383677
0.38596636 1.3101208 -0.11410047
0.22148469 0.81392384 -0.9732069
-0.7700391 -0.25372767 -0.5270946
-0.30280718 1.3166606 -0.59234744
0.24793784 -0.3994053 -0.28469285
-0.5902875 0.52944154 0.12569669
-0.6427383 0.93281716 -0.38076842
0.47040236 1.098946 0.45835555
0.100353085 -0.23444909 -0.76087105
0.24909526 -0.034030035 0.33011898
-0.09628383 0.9442688 0.22867802
-0.54958236 0.871901 -0.07048395
-0.89327013 -0.4108178 0.31286013
-0.8633671 -0.40291572 0.9043497
-0.6939063 1.3348775 0.25220543
0.3325849 -0.41629663 0.7705915
0.70665 0.7232321 0.5124209
-0.5737764 -0.250421 -0.7902556
0.23288327 -0.22651704 -0.20041434
-0.8939315 -0.40520254 -0.73309183
-0.3832991 1.208873 -0.8150285
-0.16213855 0.78006876 0.27588144
0.6496068 1.5968139 -0.0029203817
0.59290874 1.0692635 -0.26122105
-0.5925765 -0.24400136 -0.008976677
0.7721078 1.0486481 0.040399447
-0.89524066 -0.4086062 -0.32581264
0.85450274 0.8183825 -0.48727784
0.34920457 0.16365096 0.33686775
-0.62245756 1.5336466 -0.029601166
-0.7269719 -0.41469747 0.20313492
-0.3562245 0.76274216 0.71715575
-0.7435765 -0.08465278 -0.6116355
-0.21543668 -0.41175178 0.9001833
-0.63465357 1.2617073 0.44195443
0.9209692 1.1625445 -0.0035712807
-0.75485563 -0.24018624 0.09566281
0.045245275 0.49056345 0.27378148
-0.43121368 1.4897146 -0.19626167
-0.49860787 0.4407404 -0.22250931
0.2619468 0.5903747 -0.7405753
0.23849878 0.7716514 -0.791245
0.33195865 1.1440709 -0.91884243
-0.5419731 -0.41501027 -0.52989215
-0.39229518 1.0025072 0.5161449
-0.25247204 -0.015515966 0.29678553
-0.9015062 -0.09435615 0.33671236
0.08063861 -0.08537535 0.6540954
-0.43324167 -0.22490534 -0.10544303
-0.642277 1.2828088 -0.5430907
0.501155 0.60100996 0.0677747
0.41038275 -0.025181007 0.02156506
0.19631164 0.24830401 0.5099879
0.7766534 -0.24610266 0.12182756
0.544536 0.6779237 -0.12722547
0.18644267 -0.07955831 -0.8898737
-0.37435466 1.3121493 -0.09677675
0.59543014 -0.24600439 0.42525625
0.35025412 0.74606013 0.34541494
0.50274897 1.5173182 0.05853959
0.106971025 -0.24047244 0.14329436
0.7206974 1.2358537 -0.010814359
0.5892116 1.1151356 0.11322631
0.050662607 0.9477072 -0.67877376
0.013908196 0.7369722 0.19509652
-0.39691427 -0.41302556 -0.39746913
-0.71737325 -0.086406216 0.618093
0.5371548 -0.41336098 0.3289737
-0.8943963 -0.090822615 0.5295137
-0.60357815 1.4932095 0.1733957
0.0129420515 -0.4120651 0.18237124
-0.62451786 0.92135715 -0.7019824
0.75466895 -0.2509488 -0.2880868
0.44518661 0.5832925 0.40119773
0.027067231 0.9346485 0.8348973
-0.9210624 -0.2661315 0.21204345
-0.23315364 -0.0916771 0.89919794
0.16955072 1.0868249 -0.61426204
-0.85064197 -0.40600222 -0.91477734
0.3710989 0.71570146 -0.22713995
0.27695128 0.5169499 0.27103287
-0.5603701 -0.41180092 0.10369233
0.52993554 0.5621975 -0.47954786
0.23025745 1.6157516 -0.16934448
-0.35945937 1.0625012 -0.40388477
-0.9251227 -0.24704872 -0.64705294
0.8960834 -0.08672489 -0.2896405
0.66889715 0.53696537 -0.02491396
-0.66922176 1.0813015 -0.23055515
-0.24949485 0.9296769 0.37270325
0.27079883 0.58395016 0.49897665
-0.47535577 1.3161786 0.56006706
-0.006947453 -0.060640574 -0.36908132
0.5602572 0.79881954 0.023856819
-0.50358844 1.2758021 0.07201449
0.16307771 0.6608834 0.3172558
-0.7252319 -0.41714674 -0.4286371
0.38385558 -0.41021422 -0.39432418
-0.10012524 -0.08232625 0.746559
0.18560565 1.138557 0.78948414
-0.4745007 -0.03313618 0.001000997
0.5385987 -0.41962922 -0.6713183
-0.41432577 -0.09013644 0.59006953
0.013773421 1.464478 -0.0062430957
-0.6760999 0.3556052 -0.045484908
-0.42703292 -0.40617126 -0.008821195
0.26192623 0.43324554 -0.60556525
-0.6432085 0.34178802 -0.25177792
-0.086211525 1.6606271 -0.57427084
0.483271 0.47792113 0.24101457
0.59437346 0.8611617 -0.19842854
-0.07060684 -0.24053925 0.0894536
0.57906437 -0.084184736 0.53647935
0.14311074 0.7570488 0.8041066
-0.702368 -0.4124401 0.6005564
-0.19565713 0.85414076 0.78947747
0.5521548 1.2289476 -0.49029607
-0.8894758 -0.08800316 -0.7382283
0.93931335 0.947422 0.08104932
-0.5658988 1.1993334 0.25840706
0.22555083 1.2694846 -0.7178477
-0.08840902 -0.40425038 -0.33085316
-0.24910983 1.0592486 -0.7373034
-0.20305093 1.5317624 -0.70065284
0.6138487 0.94225544 0.43265122
-0.3966946 -0.04662951 -0.43074918
0.24473813 -0.11145395 0.91894805
-0.7672497 -0.24158576 -0.74487525
0.72423375 1.1920272 0.19806987
-0.4213222 1.1478987 -0.59751856
-0.3177781 0.96786344 0.16047104
-0.29312617 1.4617257 0.28772837
-0.2709893 0.44612658 -0.80300814
0.10948907 0.7324758 -0.44187418
0.12064555 0.99638593 0.6775973
-0.5591334 1.1100466 -0.41746736
-0.0036150685 1.5411001 0.56093436
-0.17754024 1.6049116 0.21311104
0.039206445 0.36917844 -0.06591655
-0.06366321 1.8003659 -0.2624802
-0.037271686 1.3075529 -0.15643398
0.052470088 0.511101 -0.2036439
0.052804343 -0.075306125 0.032792903
-0.50042295 0.8782928 0.64062625
0.2556095 0.860799 0.63476837
0.7236929 -0.41794798 0.22555706
0.42095223 -0.22085637 0.078281984
-0.84455395 0.6684688 -0.08466892
-0.48029095 0.4086679 -0.019766223
0.23177052 0.42154092 -0.089944854
0.10453147 1.0913432 0.0001517953
-0.4210972 -0.085748374 0.888378
0.30172345 1.1820602 -0.25182906
-0.3318157 1.7060051 0.2036959
-0.44714087 0.7144716 -0.82057375
-0.18857352 0.46650887 -0.2703361
-0.92573285 -0.25013977 0.8650393
-0.27755946 0.676504 0.5561353
0.35418826 -0.41579577 0.42566767
-0.20528418 1.1070011 0.16132817
0.0324556 -0.4169882 -0.014743617
0.39500505 0.27639186 0.48512077
-0.42613894 0.81316507 0.06536003
0.18721601 -0.4058972 -0.45349926
-0.43318287 0.54335725 0.292814
0.21094403 1.4402459 -0.060353756
0.043482658 0.64690876 0.4528678
0.9070506 0.64517295 -0.18486898
0.21766302 -0.061181203 -0.0931381
0.7068247 0.29450607 -0.055503763
0.23658133 0.95035756 -0.7557688
0.44509435 0.38814718 -0.7021898
0.13548125 0.9927174 0.48647845
-0.1590613 -0.4123525 0.066405915
-0.16753384 -0.034637287 -0.23708329
-0.50096023 0.68153197 0.60989165
-0.50370157 1.3078108 -0.6950183
0.89783907 -0.40811032 0.123674266
0.8482124 1.2946354 0.12754473
0.5552194 -0.4144382 0.74069935
0.08250615 1.4028584 -0.84942734
-0.24094155 -0.24241325 -0.5928431
0.5534313 1.2533698 0.2873486
0.89405704 -0.4088987 0.5337787
0.29478616 1.6048517 0.030133097
0.35718602 -0.08773039 -0.9085709
-0.03409671 1.2533256 -0.9143272
0.10002805 -0.07521088 0.8517364
0.033584192 1.6438348 -0.16355243
-0.18147093 1.7751889 0.10783802
0.3034164 1.6549193 0.37722355
0.6442132 1.5464051 0.1975796
-0.52767026 0.96448946 -0.5346886
-0.25610173 -0.0873675 -0.752609
0.7199379 -0.08202713 0.87381005
-0.724851 -0.08198143 -0.23117131
-0.4467662 -0.24076435 -0.635656
-0.4361843 1.6631054 -0.28966212
0.6710453 1.0238973 -0.72833693
-0.58804774 0.8555583 0.189275
-0.2873579 0.8526379 -0.7372559
0.406523 0.57721674 -0.6138147
-0.07262513 0.6986213 0.6291425
-0.2718234 0.5092264 -0.6233199
0.45503545 0.11470865 -0.20190781
0.9058828 0.74005294 0.14541884
-0.35916412 -0.414325 0.35549045
-0.30670238 1.3725872 -0.78731775
0.2464112 0.94087064 0.8136139
0.73909104 -0.08291516 0.43550837
0.40270376 1.5319223 -0.11336316
-0.9237716 -0.2541728 -0.42990333
0.45101067 1.5254142 0.44283435
-0.13232636 0.29294577 0.5551407
-0.88591254 -0.40983534 0.5183694
0.5564158 0.89958894 -0.6067045
0.5408848 0.7528633 0.43855315
-0.3145237 0.24695188 0.43179047
0.5274296 0.7406361 0.66512096
-0.14987716 -0.25672677 -0.7659434
-0.7108594 -0.26158816 -0.9283378
0.43126994 1.2128506 0.08598672
-0.09598012 -0.23907974 0.62750185
-0.16446553 -0.091084 -0.91910493
-0.82213676 0.91102844 0.19902518
0.13920312 0.37393087 -0.28684628
0.57496345 -0.08878884 0.7449133
0.040790725 0.7697999 -0.63076496
0.19580781 1.7934966 0.088463664
0.22929785 -0.41864347 0.60133946
-0.43959612 0.37832278 -0.64693
-0.26814133 0.4885341 0.032909796
-0.5557217 1.5258098 -0.3815859
0.0395775 -0.21094139 0.467647
-0.60954154 0.971025 0.5330401
-0.74738836 0.7504039 0.3118297
0.7445642 -0.2514308 -0.08502735
-0.22958213 1.1268829 -0.5521548
-0.013629541 1.1048417 0.14901537
0.7215149 -0.083255544 -0.39202607
-0.6393106 1.1244004 -0.6312578
-0.77173316 0.5266466 0.036076635
0.5722314 -0.07632351 0.32859457
0.2822149 1.3936081 -0.578694
-0.07794945 1.3772347 -0.33857659
-0.2548677 1.63417 0.38436866
0.43917432 1.421756 -0.4321612
-0.4645477 0.9985001 0.30433375
0.3473565 0.28616372 0.03381732
-0.1664406 0.27950567 0.2099011
-0.3865347 0.8246221 0.4786143
-0.04048101 0.6218631 -0.32303235
0.30971324 -0.23915823 -0.7795721
-0.09301555 0.60073113 0.31826466
0.61161935 -0.26301825 0.067001626
0.63981843 -0.25018555 0.24583301
-0.37031552 1.43129 -0.4245721
-0.11868715 1.3952004 -0.8355288
0.101551 -0.40574577 -0.6148783
-0.1288926 0.75709546 -0.96581805
0.6438357 -0.24347678 -0.918735
-0.6085851 0.44606948 0.33626938
-0.596681 -0.25227982 0.2083604
0.56534207 -0.41519982 0.52201223
-0.11121739 0.99218786 -0.004930153
0.34139866 1.1135011 -0.7356583
0.053957224 0.82975554 0.58717453
-0.6535555 1.0254741 0.20981197
-0.13338982 0.5406339 0.5104929
0.8964479 -0.090990126 0.7356905
-0.54010504 1.4384222 -0.5404668
-0.5726836 -0.08772336 0.3123053
0.455007 0.15494642 -0.3756138
0.348128 1.2087 0.5588126
0.28866643 1.3158352 0.70218045
0.72823286 0.9877472 0.22950543
-0.12734917 0.6063025 -0.11750083
-0.11319218 0.61481214 0.10571911
-0.6106068 -0.25601643 0.40544635
0.18089119 0.6542554 -0.2800178
0.91705036 -0.25095177 0.64834106
0.18936181 1.0104183 -0.97534645
0.409713 -0.23056994 -0.2922976
-0.53087187 0.23052862 0.08384077
-0.53636813 -0.2582704 0.5928893
-0.30762458 0.503981 0.4345241
0.92338717 -0.24872631 0.44240442
0.58902574 -0.25300378 0.64547
-0.52704287 1.1569461 -0.09537272
0.56824315 0.9294518 0.1583154
0.8848753 0.89746773 0.26971942
0.19757771 0.32637763 0.32080227
-0.34369913 0.5352723 -0.35442024
-0.7464837 -0.24857835 0.53091204
0.24594581 1.7327524 -0.4334534
0.0033035795 1.603415 0.18637699
0.543385 -0.08660011 -0.91027987
0.26101395 0.39659065 0.6239289
0.10313662 -0.24644418 0.92647874
0.6481548 -0.081545904 -0.7340528
0.04266614 1.0797791 -0.4054169
-0.05980049 0.08018303 0.02631098
0.5189841 1.0790844 -0.8408855
0.17835674 -0.07148568 -0.30388585
-0.7907828 -0.25130433 0.72551227
-0.7359388 -0.08288619 0.4148393
0.5391526 1.0400774 0.6585256
0.23563969 1.0745819 -0.40232888
0.1231024 1.2061443 0.20827085
-0.3400898 0.5478553 0.6574447
0.5791996 -0.23515517 -0.20737845
-0.18381914 1.0482459 0.7877746
0.8125073 1.0657991 0.3827036
-0.54932815 0.6818491 0.24461679
-0.15545535 1.6599851 -0.18277775
-0.62692916 -0.40392756 0.90589917
0.2571699 -0.2118339 -0.41153526
-0.5518708 0.34053847 -0.46106547
-0.407152 1.6074911 -0.46602076
0.77608603 -0.24882391 0.34186268
0.9159881 -0.24253674 -0.59536576
-0.13070413 -0.08001981 -0.042535305
0.0646463 1.1660383 0.42569572
0.36789614 -0.026198668 -0.37816933
0.63836825 0.8891773 0.6104093
0.5788322 1.4002731 -0.071621165
-0.66715944 1.0431116 -0.039652884
-0.3606497 1.0250909 -0.8948046
0.89522564 -0.40802315 -0.082921684
0.72277236 0.54469776 0.4182643
-0.10713972 0.3987105 -0.5864053
-0.3292969 0.35528794 0.2932435
-0.33919597 0.41244212 -0.49098498
0.08011218 -0.25376183 -0.3544377
0.76440895 0.6499251 -0.5861133
-0.4563152 0.7980205 -0.61798644
-0.018689057 1.1261564 0.61155474
-0.6480005 1.1836699 0.074489474
0.26027685 -0.07740168 -0.7109648
-0.8940533 -0.40723938 -0.5341008
0.07160802 0.48237926 -0.69232905
-0.23551303 0.86896086 0.5927267
-0.006351269 0.59543824 -0.5362767
0.8897134 -0.40857488 0.73340684
0.23657751 -0.06581837 0.110983334
-0.18537647 0.5633888 -0.46007884
0.087516084 1.4508147 -0.2157509
-0.4317695 -0.23143345 -0.29602265
0.90052044 -0.08867869 0.5382282
0.88177013 -0.40249193 0.9055408
-0.021974226 1.1166211 -0.15682761
-0.46239185 0.6718732 0.42322525
0.6039989 1.5259204 -0.4844433
0.3032223 -0.40403914 -0.9163742
-0.26460823 1.3854184 -0.25076336
-0.50867915 0.2775653 0.27326012
-0.3220692 0.7195363 -0.46772426
-0.14263105 -0.40970707 -0.91025054
-0.14092247 1.4448078 0.14671206
0.5003083 0.7203458 0.21636471
0.30018958 1.5118157 0.55743676
-0.37990665 -0.41422784 0.5585696
0.6103486 0.44855982 -0.3540733
0.20275071 -0.4123859 -0.7533868
-0.114897594 1.6170505 0.0088570975
-0.52817225 -0.054191034 -0.16569304
0.5465237 -0.10397053 0.9190904
0.7909312 0.4099933 0.08261462
0.5570258 -0.010063759 -0.10822247
-0.21617204 -0.25350255 0.7595418
0.014265828 0.8867607 -0.9945414
0.11347038 -0.41820782 0.7464216
0.26325047 -0.23012161 0.011297895
-0.34973204 -0.40856612 0.15488112
0.29875708 0.26313308 -0.23303366
0.06286125 0.6828264 -0.9617226
0.23100078 -0.24365765 -0.59909916
-0.09057212 1.4014999 0.6621293
-0.039646532 1.660147 0.41981477
-0.18152016 0.98917687 -0.968872
-0.4377798 -0.25525242 0.43780002
-0.13769679 1.8078942 -0.069015115
-0.1262447 -0.25291157 0.4601937
-0.30208528 0.6748168 -0.69286
0.13514319 0.5941389 0.1293751
0.21964101 -0.2528472 0.7806202
0.9309326 -0.24667162 -0.78308654
0.42370513 -0.25129426 -0.63474596
-0.27151537 -0.2339472 0.009710428
0.32963368 1.1663034 -0.5493585
0.721388 -0.39918083 -0.9188133
-0.68485606 1.3718284 -0.37225336
0.10493106 1.6317372 0.012413101
-0.32909352 0.3068525 0.09668726
0.20511252 1.5152693 -0.74963284
-0.9180752 -0.25678664 0.42210504
0.44373176 -0.24566428 0.52358425
0.40033054 -0.24457206 0.3519761
-0.91261077 -0.103352726 0.15783876
-0.44925278 0.538977 -0.7536839
0.48270035 0.15184417 0.15761538
0.45075172 0.3402322 -0.31837493
-0.2783335 -0.033974364 0.080206305
-0.012528729 0.05301836 -0.53063005
0.74290663 0.7204146 -0.06864178
-0.41522992 -0.24314237 0.7430675
-0.21847147 0.25019103 -0.2206761
-0.07087521 -0.22595707 0.28105354
-0.18825445 1.390096 -0.037021704
-0.37828097 0.82812625 -0.17885561
0.8226609 0.50509644 -0.3166415
0.9023168 -0.0863263 -0.49277663
-0.28738526 1.109693 0.36387283
0.16408202 0.68536085 0.6255775
-0.2880633 1.3690646 0.6348281
0.5756659 0.40813673 0.44139493
0.29839677 0.48315263 -0.26559067
-0.5992489 0.6893753 -0.6897762
-0.19204569 0.15017965 -0.539645
0.38071877 -0.4112069 0.016247394
0.08682409 -0.40563953 -0.9105488
-0.11176786 1.1705517 -0.3310104
-0.6914647 0.7233213 -0.11238044
0.44200093 0.44096714 0.5743656
0.01029619 -0.40794152 0.9054303
-0.007236846 1.1180546 0.8031477
0.50152457 1.6884694 0.096135825
0.41425103 -0.033830278 0.2347624
-0.39103323 1.1651347 0.19958368
0.11374581 0.3051579 -0.75974345
-0.43492994 0.60369587 0.058605313
-0.19977677 0.8235947 0.10863918
-0.037466414 0.20525527 -0.11632615
0.25617105 -0.08325007 0.7273053
-0.86542153 0.8692665 -0.018225253
0.5079678 1.2166965 0.6442079
-0.6988815 0.8839663 0.04777077
0.007751022 1.8023117 0.109476686
-0.7319096 -0.08506094 -0.90098596
0.39687404 -0.4133868 -0.1826815
-0.049686223 0.33080864 -0.25794804
0.12121084 -0.25974363 0.60962313
0.8966229 -0.087322325 -0.08813217
0.8840715 -0.081184775 -0.7066636
0.55250406 -0.41202673 -0.28835565
-0.13088268 1.2274389 0.5176716
-0.44488376 0.86556363 -0.3919214
0.3701313 0.8693125 0.1441894
-0.29991168 -0.24977747 0.57310593
-0.36529067 0.33996892 -0.31057495
-0.38307604 0.22728509 -0.50917625
0.4426561 0.555218 -0.81820405
-0.5997409 0.5014243 -0.59243023
0.62279314 0.6122656 0.31070775
-0.61435616 1.5338618 -0.21817006
-0.0424427 1.2944493 0.3262253
-0.5950773 -0.08485328 0.11909791
-0.730644 -0.080996856 0.79153454
0.4863268 -0.22754744 0.2221112
0.02606089 0.046224385 -0.18441091
0.24625951 0.2938691 -0.43003854
0.2542866 0.6078415 -0.92289674
1.783402E-05 1.55266 -0.7331458
0.7653004 1.2500492 0.37088287
0.38845068 0.43307954 -0.46563864
-0.3644957 -0.03507433 -0.26949355
-0.80203795 1.2414448 0.12377894
0.21031341 0.8031535 0.45486167
-0.05164334 0.2216528 -0.6664479
-0.40513265 0.12233934 -0.17881057
-0.7920944 0.81221926 -0.40783393
-0.5159596 0.5179462 -0.41320455
-0.3828445 1.484124 0.47557777
-0.14331925 0.4191141 -0.090480044
-0.09602618 1.7479482 0.27520624
-0.9217125 -0.25682425 -0.22244406
0.55591 -0.40198025 -0.07588043
-0.8295382 1.0040491 -0.33435807
0.85403204 -0.24937779 -0.9288738
0.506759 1.0916591 -0.6262142
-0.19150737 0.31288242 -0.42314923
-0.3442332 0.5333431 -0.14512454
-0.30436772 0.66236186 0.16969323
-0.0670262 0.96748865 -0.26208144
0.10492564 0.20889775 -0.24883088
0.6132422 1.093775 0.33476928
0.75105506 -0.25190258 0.5446067
0.8911716 -0.4083979 -0.68727696
-0.0106334705 0.8999637 -0.4752118
-0.34746575 0.31806856 -0.109086454
0.3915934 1.4438581 -0.74294436
0.4017647 -0.23883748 -0.103875995
0.43257833 1.6613395 -0.45070052
-0.16825742 0.16570774 0.3780365
-0.24382138 -0.08017109 0.5085205
0.21361855 -0.41032496 -0.098007604
0.1430808 0.09282064 -0.030212212
0.70105726 0.6802124 0.12805466
0.3732401 1.7570659 -0.2580436
-0.8547547 0.8296858 -0.218445
-0.047568977 -0.09712827 0.9138371
0.94704515 0.7896322 -0.057842836
0.03546562 0.5481601 -0.0065232357
-0.28876087 -0.08221237 0.7134219
0.4355026 0.31931078 -0.12457529
-0.29293948 1.554938 -0.098179825
0.41828656 0.52384305 -0.0973769
0.19366023 -0.2480661 -0.92709327
0.1318402 0.91389066 -0.3215254
-0.21197006 1.7329843 -0.39251828
0.5481932 -0.07494266 -0.5225375
-0.29845738 1.313319 0.09564957
0.45684272 1.5311549 -0.5968224
0.6274012 1.0311513 -0.47717267
0.90154576 -0.08689527 0.11786418
0.67575926 0.8098289 0.28359658
0.6413028 0.49334365 0.15140718
-0.29926014 0.3860621 0.5729389
0.25035843 1.5212948 -0.45992506
-0.42978305 -0.40861815 0.89536774
0.15811196 1.3246702 0.3354991
-0.73924935 -0.24731216 0.918928
0.4155207 0.745157 -0.89826006
0.59305185 -0.24102476 -0.39756382
0.7411487 0.95457447 -0.32006937
0.58431077 1.393436 -0.6371179
0.38122728 1.3919715 0.055532258
-0.7952039 0.64932114 -0.29899216
-0.76292765 0.49574262 -0.17471021
0.39210564 -0.41260642 -0.7631275
-0.6121875 0.6019744 -0.26993364
0.73392725 1.3941269 0.25198662
0.7208985 -0.4166273 -0.18298148
0.75999916 1.4612181 0.05252862
0.7365258 -0.083585575 0.6505929
-0.6183457 -0.25493348 -0.6176214
0.049279064 0.91130114 -0.10137462
-0.25536168 -0.40169296 -0.2707268
-0.3623288 0.15916285 0.2388974
0.18794566 -0.024020944 -0.51681054
0.20429558 0.5451201 0.738562
0.118304595 1.6513456 -0.5905046
0.48767412 0.9116129 -0.3604319
-0.6447033 -0.081143305 -0.7428739
0.18274832 1.5965874 0.20563081
-0.54447347 0.22517541 -0.11487207
0.3024968 -0.24707767 0.6168944
0.023403324 1.7475876 -0.43468672
-0.2749629 0.6729919 0.36558095
-0.30962902 1.5352544 0.09451145
0.89752346 -0.40819937 0.32898948
0.2515124 1.0561717 0.15923545
0.01369594 -0.24478546 0.7673507
-0.74568 1.1639254 -0.437126
-0.49138963 0.9910809 -0.24931677
-0.48672152 1.1359718 0.42410243
0.31744844 0.6695665 0.16356206
0.68589646 0.6378268 -0.40986285
0.55822194 -0.16672727 -0.05140774
-0.6586137 0.37428838 0.15200712
-0.5661084 0.7265392 -0.45828027
-0.27534598 0.70170903 -0.039467648
-0.25765663 1.6249747 -0.5451834
-0.8030307 1.2117927 -0.26102903
0.21553153 0.8147662 -0.16343254
0.71083224 1.5067141 -0.3450017
-0.9273935 -0.25159985 0.6218585
0.46501964 -0.411133 0.90474755
0.75167453 1.0975713 -0.15662335
0.19915256 1.420687 0.13513008
-0.32081604 -0.0534796 -0.096304625
0.058590118 1.2962862 0.73650885
-0.73730814 1.3860965 -0.16917357
0.09855972 1.01668 0.2942475
-0.15802014 0.7328664 -0.58728844
0.0720343 -0.07576692 0.2505093
0.17004013 0.4610868 0.44289625
-0.12764588 -0.4151303 -0.6128136
0.2918556 1.4577992 0.34606904
0.89808166 -0.40722424 -0.48787576
0.22810657 1.3503126 0.49907142
-0.4187768 1.0013524 -0.08245434
0.41848934 1.30184 0.40826756
-0.14569959 0.3885518 0.37003508
0.15233046 0.40255317 0.114822716
0.4826361 1.256502 -0.28058854
0.72677267 -0.41894758 0.022761524
0.06251362 0.5265084 0.593753
0.09785698 1.5041463 0.3684914
-0.22785614 1.2784641 0.2800368
-0.0047119306 1.0771012 -0.9747888
-0.27710196 0.62770355 -0.8842436
0.15473127 1.617896 0.4866509
0.61953396 0.2752815 -0.41308296
0.89522076 -0.40854788 -0.28574574
-0.5712376 -0.41196895 -0.31921518
0.018316172 0.28763062 0.2810751
0.028599229 -0.09024502 -0.9163003
0.610927 0.9855161 -0.05064626
0.11984582 1.7424395 0.2964186
-0.6991729 0.47470093 -0.38567865
-0.19261688 -0.4120648 0.6109741
0.5966346 1.335542 0.10649229
0.26221424 1.1491753 0.38226038
-0.38528675 0.13101004 0.021986801
0.58530754 0.7055019 -0.58429897
0.062223118 0.92382604 0.1088453
0.75609887 -0.24173589 -0.7349828
-0.1058305 1.4894042 -0.17544125
-0.322354 -0.41617173 0.7419674
-0.0902458 -0.4152212 0.7535304
-0.62168586 -0.25026438 0.74577487
-0.10871437 0.7390692 -0.7813796
-0.25263494 -0.2576048 -0.9241144
0.7240701 -0.4126866 -0.580878
-0.593346 -0.24864036 -0.42615715
0.8260386 0.55399036 0.2213007
-0.12978566 -0.057738163 -0.6032017
0.029756203 1.2512622 -0.71330935
0.7378107 0.46444005 -0.4914779
-0.32537365 1.1323094 -0.0057619475
-0.12990579 0.77951306 -0.411672
-0.55332863 -0.091054566 -0.91620064
0.2985615 0.9602027 0.36256665
-0.8171687 0.71942157 0.11946891
-0.26240116 -0.20548415 -0.3840249
0.5264578 -0.41101062 -0.89886355
0.42666578 -0.22975284 -0.46951395
-0.7012811 -0.41825438 -0.8006959
-0.32494962 -0.25384098 0.9188584
0.37027168 -0.40807018 0.21544799
0.049647875 0.69914913 -0.12649453
0.09441161 0.366157 -0.55284584
0.8354323 1.3660431 -0.090508655
0.6911119 -0.41756433 0.87872946
0.55350584 0.16827857 -0.019390285
-0.55744135 -0.076730475 -0.34618646
0.6870764 0.5864426 -0.21711016
0.5619037 1.6401471 -0.31034297
-0.06275972 1.0844607 -0.78899777
0.69863987 0.39229822 0.2868204
0.10251583 1.4158643 -0.62054384
0.8949332 -0.40597737 -0.8817589
0.61410725 0.5272337 -0.6711148
-0.73669004 0.5694712 0.23421142
0.47496662 0.90786624 0.31775755
0.5448613 -0.25489217 -0.77516437
-0.3596896 -0.08861568 -0.9137777
-0.081336856 0.37056443 -0.8017049
0.011340138 0.39595956 0.45784637
-0.24257565 -0.21023321 0.18169186
-0.21823409 1.2230754 -0.18004481
0.014814908 0.5681236 0.7669556
0.1993297 0.84409684 0.22660497
0.36112675 0.40760207 0.39697146
-0.9259635 -0.2446965 -0.004697914
0.0057223295 0.24832332 -0.4472927
0.13671383 1.4480579 0.64582705
-0.79284877 1.2234075 -0.070909716
0.41114563 0.9252947 -0.7268735
-0.05416321 0.7756753 0.009740873
-0.6018033 0.79071295 -0.26968682
0.6133565 1.4369638 0.3970522
0.009772576 0.19353898 0.47125572
-0.5251588 -0.41869724 0.71384263
0.756065 0.8577819 0.07785605
-0.26567402 1.5617485 -0.31774068
-0.6002924 0.54191995 -0.07774962
-0.1358594 1.1837796 -0.01621255
0.5321938 0.7246778 -0.33683944
0.9029641 -0.08719611 0.32957298
0.24455354 -0.23332646 0.43455273
0.2926403 0.8235694 -0.38494936
-0.49798328 0.50905675 0.5276569
0.14888886 1.795424 -0.2756016
0.059736244 0.35381827 0.6473262
0.13467643 0.17026342 -0.5977052
0.5437315 1.1877203 -0.07757854
0.377115 0.71998745 0.5545759
0.6091129 -0.2436845 -0.59890556
