0.5784245 2.743332 0.6310514
0.45612025 1.9165642 0.07297909
0.44499522 2.9305701 0.39125842
0.7516766 -0.2524712 0.7534345
0.37177545 2.3837333 0.6101711
-0.61295307 2.3637764 0.43695545
0.019861512 1.6413052 -0.38242334
0.64041674 2.55903 0.64766645
0.28013986 3.2093015 -0.4705937
0.78450745 -0.25060502 0.9310261
0.4559129 -0.08692381 -0.7290176
0.0047348766 -0.41743794 -0.46444368
0.020544607 2.826139 0.13778648
-0.75004435 2.487064 -0.095307454
0.28228348 2.805893 0.35927355
0.09493546 -0.24788791 -0.5277885
0.29963237 1.8487048 0.22002177
-0.34322986 -0.08682327 -0.57978034
0.11205685 2.0911586 -0.36936712
-0.9057884 -0.09753013 0.73472285
0.44906604 3.1453753 0.4360332
-0.61334145 2.9099922 0.02973238
-0.4869827 -0.25533605 -0.9255868
0.43043107 -0.08392455 0.6429528
0.22108659 1.8489083 -0.6195946
0.85640675 2.7650943 -0.068551496
0.8735398 2.6142483 -0.18281816
-0.28924862 2.458705 0.023280831
-0.21823284 3.0634189 -0.34450573
0.19868383 1.6159863 -0.23230651
-0.44421935 2.7624617 -0.14263324
-0.75628436 2.2444897 -0.45009115
0.001775661 -0.087370425 -0.12366179
-0.75254977 2.9471312 0.17074889
-0.7227994 -0.08615779 -0.40876517
0.31959093 2.558064 -0.4537068
-0.5883385 -0.4163661 -0.09326342
-0.4033118 2.732627 0.68866867
0.09283756 2.830061 -0.4036057
-0.29509607 2.2429938 -0.23289007
-0.056133166 2.700145 -0.48495227
-0.26437727 2.5632224 0.67112863
-0.7626207 -0.078524396 0.22125435
0.21921375 2.0352516 -0.7686331
-0.06706607 -0.09042899 -0.76368797
0.75588894 -0.25094473 -0.49713108
-0.56819797 2.6216054 0.7133107
0.59246993 2.8165212 -0.60166025
-0.10907435 -0.24914977 -0.45929348
-0.16328347 2.5470533 -0.74009275
-0.11188401 -0.08302902 0.19209714
-0.78767204 2.6158745 -0.43935317
0.3768904 2.4173698 0.0011474004
0.13280612 2.8250656 -0.017677957
0.20103079 2.3931684 -0.5277865
0.92514646 -0.24892515 0.0034256568
0.04071419 2.117457 -0.8349691
0.8249763 2.249158 -0.33217496
0.6821712 3.0721793 -0.0008116269
-0.24388415 1.6041116 -0.111425795
-0.44764316 2.8361692 0.48344764
-0.13217604 -0.24551934 -0.2564176
0.84875137 2.6201668 0.31486592
-0.71848154 -0.42078555 0.7778282
0.32216668 2.5620556 0.8493099
-0.50554204 -0.42018184 -0.721473
-0.7445064 2.4371562 -0.5078666
0.12955697 1.7507703 0.17139584
0.2603218 2.1957994 0.82727957
-0.5578927 -0.08695033 0.5616549
0.75041676 -0.08987164 -0.5926378
0.82406527 2.5965562 -0.35703725
-0.13261682 3.0130782 -0.5110299
0.3033051 1.6239345 -0.02512899
-0.039218582 -0.41508344 -0.76613545
0.7360231 -0.41822103 0.64057887
-0.14317115 2.1933868 -0.8486743
-0.49496496 2.2347097 -0.5184097
-0.024613645 2.355745 0.42581254
0.56542873 -0.086249344 0.105728775
0.21504785 -0.416928 0.29407436
-0.35765097 -0.41859585 -0.57460034
-0.37627602 2.6454883 0.8208857
0.11243624 2.8530917 -0.8209334
-0.89436984 -0.09990037 -0.90879226
-0.7884134 2.460201 0.44808772
0.09365243 -0.42044073 -0.25170147
0.38444602 2.5586028 0.14319086
0.4656285 1.7760985 0.33491734
-0.059221357 -0.08394243 0.57340425
0.11170502 3.177803 -0.19958144
0.11123909 2.6354723 -0.096046075
-0.7612149 -0.24059063 0.3286295
-0.5095202 3.1884942 0.25297755
0.416058 2.595708 -0.072332576
-0.5236424 1.8816729 0.4377161
-0.87531066 -0.086088665 0.033309773
-0.531049 2.235608 -0.040901534
0.7379365 2.569199 -0.51171505
-0.21571265 2.8561778 -0.5931933
-0.22068708 3.0373373 0.6810463
-0.35091165 3.2980413 0.16096276
0.54525363 2.2934275 -0.70912886
0.3183393 3.0555756 0.3431388
0.6765267 2.4155762 -0.6065922
-0.39609408 -0.09087029 0.4562282
-0.6197372 -0.09329828 0.9165826
0.41405392 -0.085335836 0.43273568
0.60590756 -0.26402858 0.89774454
0.9238764 -0.24672273 -0.39325696
-0.8961046 -0.40970173 0.118560545
0.7462448 2.4574602 -0.032800645
0.91985834 -0.24832098 -0.19618887
0.51416713 1.9637588 -0.5266706
-0.53048956 -0.42056924 0.4788332
-0.163715 1.6474428 -0.30204618
-0.70277727 -0.41563076 0.40588582
-0.13274758 1.9499725 0.13897417
-0.34487078 2.5348763 -0.4451301
-0.8998655 2.6215816 -0.045716368
0.014100195 -0.41687566 0.5803243
0.12105274 1.7479352 -0.03209632
-0.6948968 -0.08026155 -0.0003590876
-0.71603394 -0.41713664 -0.6107229
0.032937843 2.2963471 -0.6907182
-0.89704746 -0.4076839 0.7237568
-0.9020021 -0.09331463 -0.51660466
-0.6119223 -0.25278926 -0.19937351
-0.34720188 2.4841082 -0.84259516
0.4208533 -0.25552022 -0.92518395
-0.5918423 2.9640002 0.4958994
0.008001567 -0.41770887 0.37738222
-0.26444963 2.1158648 0.7952883
0.33956248 2.5635724 -0.83702385
0.405645 2.8939214 -0.5031992
-0.5217378 2.947567 -0.16307834
-0.5185933 -0.2459505 0.9111911
-0.5003301 -0.2519083 0.12872449
0.61841375 2.4184632 -0.37615663
-0.0047680335 2.9425292 0.32593313
-0.055459335 1.7542899 0.09490171
0.087483406 1.6360234 0.33497155
-0.27481747 -0.4183393 -0.7436563
0.41054785 -0.27147973 0.9202973
-0.25917828 2.8753886 0.57336295
0.39236358 -0.08640593 -0.535637
-0.17114541 2.5549912 -0.5351795
0.83505124 2.13673 0.06572315
-0.4772051 2.938385 0.32908738
0.38000023 -0.078098685 0.874586
-0.102239095 2.2191818 0.8590317
0.2594223 2.8656235 -0.2824849
0.3013069 3.2647393 0.35614407
-0.37224394 -0.25361225 -0.7721283
0.737513 -0.0831029 0.21144348
0.2699721 2.522118 -0.13657793
0.37890562 2.3531928 0.81395626
-0.47796422 3.1153932 0.44327998
0.55924785 -0.4232901 0.12587672
-0.7155651 2.6185837 0.5305751
-0.15786012 2.638053 0.46034902
-0.041202933 -0.25027785 -0.63493705
-0.5449805 -0.086775824 0.7505052
0.78029895 2.9277647 -0.14873168
0.17025617 2.1483054 -0.03597351
0.90925264 2.550531 -0.015586938
0.53259575 1.9964149 -0.10659682
0.5810908 2.9187016 -0.23826173
-0.08875011 3.1776361 -0.20567852
0.37434483 1.8297856 -0.5084834
-0.08643074 -0.41700625 -0.13245276
-0.7418747 -0.41606814 -0.2032179
-0.266842 -0.41726542 -0.04830901
-0.28626424 2.0418587 0.24118796
0.90110326 -0.089759976 -0.89920545
-0.387308 -0.41205764 -0.8998591
0.12300365 -0.255987 0.31673795
-0.89626646 -0.092677 -0.31856722
-0.025737222 2.371818 -0.19624114
-0.2095612 1.9393209 0.6936699
-0.6719835 2.2587366 0.118154064
0.026076715 3.3831906 0.08371394
-0.10095313 2.875546 -0.38239282
0.9270972 -0.24752408 0.21925691
0.16860706 -0.41464287 0.46692145
-0.051479153 -0.25769913 -0.91599154
-0.9174447 -0.26034456 -0.8645893
-0.15402898 -0.41535616 0.26458514
-0.7043232 2.129669 0.4567059
0.030330552 2.5079556 -0.76309514
-0.2609871 2.8428106 -0.7921419
0.7045969 2.3363967 -0.19845182
-0.33248228 1.7108157 -0.3649513
0.63136023 2.844874 -0.06581947
0.45232114 -0.2405236 0.75497437
-0.025363822 2.8570998 0.63149744
-0.41914278 3.1147327 -0.49409854
-0.116836295 -0.25261688 -0.05357939
0.7334845 2.3783913 0.5351427
-0.25628853 1.6118014 0.11842757
-0.17266126 -0.42158097 0.45182592
0.25682098 -0.085432045 0.53944063
-0.29037568 2.6310585 -0.09597789
-0.30687898 2.8573766 -0.28043282
-0.5051199 2.8764617 -0.33975905
-0.4154726 2.4573784 0.80721974
0.3047813 2.039678 0.73648524
-0.5503142 -0.08636183 -0.53412104
0.083272815 -0.08475664 -0.6668134
0.19922103 2.4596267 0.09494221
-0.81601727 2.667994 0.3759114
0.37244844 2.3696089 -0.62954134
-0.7027205 2.2923117 0.56180227
-0.4533288 2.6193452 -0.58996534
-0.13133551 2.474522 0.5438405
0.040865578 -0.26079065 -0.18436652
-0.772043 -0.2431407 -0.09384948
-0.021293033 3.1142025 -0.36446166
-0.32629055 2.4811034 -0.2219231
0.24866876 2.5162952 0.6793336
-0.25446653 -0.25496382 0.38099295
-0.51027536 1.9660721 0.17775917
-0.5353842 2.5693655 0.18669231
0.23963495 1.6114044 0.1564772
-0.13550104 2.8311188 0.23079821
-0.9021683 -0.4052353 -0.0961189
-0.5966402 -0.4082287 -0.91295683
0.53669286 2.058901 0.5958103
0.08664563 2.7125425 -0.6938122
0.24991277 2.9632912 -0.73400575
0.43431327 2.8874242 -0.6907947
0.057163678 2.81972 -0.1924804
0.3545298 -0.086238846 -0.18954575
-0.51135784 -0.4229378 0.2681107
0.099710375 -0.08463436 0.45181122
0.054773998 1.5802983 0.14003915
0.88677317 2.4162328 -0.20373169
0.6832454 1.918086 -0.2337722
0.73072135 -0.0872753 -0.90676165
-0.43322128 -0.2569746 -0.46407467
0.20529419 3.3583972 0.053443015
0.09600325 -0.24278198 -0.03154576
-0.21564524 -0.41528043 -0.44417763
0.40700972 2.1230843 -0.22799268
0.37673622 2.6160054 0.36132365
0.33151752 -0.42188632 -0.5955608
-0.28608787 1.8971257 -0.6401018
-0.5056678 3.2330348 0.055949777
0.43726093 -0.4131822 0.6194159
0.51958495 3.2197518 0.030877534
-0.079612166 -0.087913126 0.38244468
0.38805854 2.3637702 -0.42538545
-0.31243652 3.34172 -0.038926095
0.24680886 -0.4038148 0.9100445
-0.20495364 -0.08441077 -0.40565407
-0.097847685 1.6088129 0.24681698
0.15132152 2.2177508 -0.5118255
0.38856387 2.6633859 -0.29065728
-0.6484317 2.8257778 -0.14507067
-0.28510988 -0.25242865 -0.15434417
0.82499576 2.7838326 -0.2844413
0.54438287 -0.41368112 -0.5095839
-0.44923428 2.3555071 0.32352042
0.11860652 2.5232153 -0.42300922
-0.3765434 -0.26246914 0.23969828
-0.44152173 -0.09003776 0.25932044
-0.20285477 2.6001039 -0.3182151
0.89523745 -0.09624433 0.9054936
-0.08720454 2.0263104 -0.36565965
0.92959094 -0.25092977 0.84542924
0.08092931 2.9837298 -0.27770007
0.22284378 -0.41609693 0.10065861
-0.13083571 2.4118557 0.74059904
0.36141357 3.3048742 0.11919813
0.20748733 1.7043407 -0.42739376
0.6779399 2.73952 -0.23911032
-0.48474503 2.253777 -0.24584046
0.42307886 2.8667092 0.7089119
0.7380111 -0.41672665 0.4226271
-0.569414 2.7384362 -0.66938835
0.52101916 -0.08403812 -0.33923122
-0.5349597 2.528808 -0.73852336
0.72310436 -0.41650677 -0.40059924
-0.896557 -0.09391613 -0.13077211
0.7774484 2.013483 -0.082930334
-0.86753833 -0.09589918 0.91186106
-0.8821456 2.6165576 0.16135356
-0.20612155 2.3553061 -0.12927175
0.27623177 2.0333204 0.11640701
-0.23325744 1.7804236 -0.0004983019
0.32973439 3.136708 -0.16845444
0.29422736 -0.25029695 0.21590877
0.06921653 2.293911 0.08942634
-0.18696204 2.2791135 0.52167344
-0.1007359 -0.2612257 0.9148771
0.5237459 2.4865217 -0.74628186
0.7164156 2.7637534 -0.46697176
-0.123245314 2.997167 0.4960928
0.2073737 2.7881389 0.16618478
-0.19456145 2.719748 0.8511438
0.26494622 2.654673 0.042501368
-0.15977293 2.1974213 -0.64915764
-0.5246881 1.7993526 -0.3110053
-0.75184685 -0.41388288 0.0054554148
0.10732393 2.6793451 0.7028381
0.7148211 -0.08680838 -0.20397884
0.72303975 -0.08463267 -0.0011072455
0.48294187 3.013476 -0.104309574
0.70299613 -0.41517365 -0.7659589
0.30200586 2.2534947 0.061680958
0.24899407 2.9732604 -0.12760334
0.5441177 1.7856493 -0.20029841
-0.478319 -0.08609751 -0.72725725
0.58341795 1.801167 0.1617212
0.28274655 2.2218032 -0.35948378
0.7068181 2.9355068 -0.3602541
-0.47676593 3.0197706 0.13897526
-0.76568747 -0.24912813 -0.3058129
-0.42184007 -0.41727817 -0.16992033
0.7705971 2.23378 0.3909898
0.34982944 2.8656197 0.013136098
0.17436612 2.4464455 -0.89891577
-0.77177596 -0.25417632 -0.5122738
-0.33639482 2.9386015 -0.46459132
0.2672767 -0.4125421 -0.28439635
-0.63831735 2.0838113 0.11634345
-0.68570244 2.5369005 -0.29371887
0.41972107 2.5918539 0.57063425
0.08899801 -0.24276772 -0.7687056
0.24986416 -0.08797097 0.3269226
-0.1407614 2.4933846 0.32098037
-0.59471536 2.4360151 0.007380021
-0.8888298 -0.41311145 0.33407128
-0.85716116 -0.40664464 0.9058374
-0.7251775 2.8784082 0.36336124
0.35949486 -0.41894373 0.7780129
0.6562328 2.2088218 0.5661278
-0.58417165 -0.25393632 -0.78036106
0.23089024 -0.24267375 -0.18998033
-0.8960198 -0.40513968 -0.7220864
-0.42556518 2.8516173 -0.6934179
-0.24291381 2.350342 0.3689186
0.61838096 3.132285 0.16868252
0.5474509 2.6469982 -0.16464612
-0.6168236 -0.24350122 -0.004954205
0.7243861 2.5745912 0.15436637
-0.89694893 -0.40816432 -0.30718574
0.8043233 2.4097881 -0.41491437
0.27840987 1.6868181 0.3445573
-0.6526129 3.1024027 0.11916092
-0.73180616 -0.41573456 0.22346462
-0.41904473 2.2444692 0.77147627
-0.73755264 -0.087130494 -0.5917226
-0.20266294 -0.41502202 0.89438367
-0.6750001 2.7891011 0.53830564
0.87674797 2.6980429 0.117596574
-0.74572647 -0.24500301 0.12527743
-0.022478215 2.0245624 0.30270126
-0.459024 3.0702336 -0.053864677
-0.5250937 2.0149283 -0.2268932
0.21651131 2.2135658 -0.6822969
0.19538048 2.400918 -0.72305155
0.2926314 2.7677798 -0.80942386
-0.54858625 -0.4170583 -0.5138036
-0.44343895 2.516159 0.60964954
-0.25978416 -0.0876667 0.31397948
-0.9021909 -0.0965803 0.36004204
0.10023898 -0.085314915 0.66882086
-0.45213115 -0.25251496 -0.07155009
-0.68302196 2.9108596 -0.41348684
0.45798832 2.1221201 0.109938815
0.39134338 -0.084184006 0.0055445703
0.12890175 1.7445161 0.5119681
0.7847786 -0.24395129 0.10869831
0.4902978 2.2300599 -0.055508256
0.17334962 -0.079510026 -0.8788276
-0.41551238 2.8714929 0.020935267
0.60687363 -0.24861188 0.41928375
0.30561012 2.2757092 0.41759932
0.4728135 3.046974 0.21693757
0.12996131 -0.25300103 0.1428765
0.6790994 2.7712517 0.11524078
0.5444446 2.648561 0.21976563
0.015070297 2.5206094 -0.5912986
-0.016801525 2.258062 0.2672538
-0.39881814 -0.4188862 -0.37597036
-0.7247572 -0.09115091 0.6221374
0.5560539 -0.4166484 0.32942152
-0.899284 -0.09416233 0.54583466
-0.63647443 3.0440598 0.30818528
0.03854443 -0.4173212 0.1877029
-0.6685597 2.565528 -0.6125947
0.7511587 -0.2530111 -0.30588102
0.36867177 2.0842223 0.45306307
-0.031281028 2.3936043 0.9110583
-0.91944146 -0.2736324 0.22950369
-0.21281287 -0.09402254 0.90112555
0.14020246 2.6807535 -0.5099101
-0.85437655 -0.4066113 -0.9115099
0.33126938 2.2985578 -0.15728104
0.22424464 2.0384035 0.2969811
-0.6030469 -0.41097134 0.10720247
0.47903597 2.1454287 -0.42339718
0.2082453 3.1752555 -0.019781956
-0.3976855 2.668165 -0.30081028
-0.9260719 -0.24897614 -0.62941086
0.8949286 -0.08788286 -0.29310077
0.6326176 2.0884686 0.026419524
-0.710959 2.667441 -0.12983418
-0.32468086 2.5022583 0.44250786
0.2008204 2.0710769 0.55735266
-0.52747375 2.8403897 0.6623079
-0.0437684 -0.08697359 -0.30515322
0.50330204 2.32267 0.12776533
-0.53941786 2.8295712 0.19748169
0.13639039 2.17202 0.38306087
-0.7286489 -0.41749418 -0.41175097
0.3984127 -0.41863453 -0.40586346
-0.06588969 -0.08647508 0.7614434
0.14582168 2.609054 0.8897977
-0.49264053 -0.08492475 0.052945606
0.5378048 -0.42184353 -0.68785733
-0.39183518 -0.08413704 0.6524347
-0.021143895 3.0156326 0.12946868
-0.71541286 1.9156301 -0.034501147
-0.4408499 -0.41586578 0.038798757
0.2003766 2.0357218 -0.567759
-0.68057346 1.9199377 -0.235648
-0.110673726 3.2734752 -0.4231121
0.42755872 1.9746695 0.27834153
0.5453279 2.418907 -0.11182803
-0.03919771 -0.25070947 0.11016013
0.58566916 -0.086539015 0.53137213
0.075825796 2.2180939 0.8644458
-0.6946838 -0.41357723 0.60119265
-0.25833857 2.3221874 0.8595748
0.51605415 2.8105006 -0.36666894
-0.8910667 -0.091189295 -0.72511196
0.89480674 2.4768598 0.16496153
-0.60457003 2.733245 0.36147842
0.17600764 2.87671 -0.59798336
-0.08108605 -0.41374648 -0.31474447
-0.2891534 2.6891265 -0.6341622
-0.23194832 3.1572359 -0.55996156
0.55900395 2.42407 0.5325618
-0.39564988 -0.08727092 -0.41592196
0.26634455 -0.18809581 0.9250053
-0.7726793 -0.2450007 -0.7307329
0.6807065 2.694265 0.31913254
-0.44876528 2.7683449 -0.48612192
-0.34360522 2.494995 0.2218994
-0.32200032 3.0026555 0.42859697
-0.3125916 2.0740962 -0.75309974
0.07763376 2.3234086 -0.3577671
0.061278448 2.4760747 0.76459974
-0.6007104 2.7196102 -0.30875033
-0.03269758 3.04105 0.70655715
-0.19555512 3.1396997 0.36813956
-0.010378022 1.8907504 -0.04621252
-0.07908295 3.3854148 -0.10069698
-0.07458687 2.878717 -0.026089232
0.00044864573 2.0646608 -0.17161256
0.040426277 -0.08322324 0.058977842
-0.55654067 2.3746183 0.70835304
0.18854399 2.338655 0.71110326
0.734985 -0.41741097 0.22089729
0.43308145 -0.25504655 0.0781658
-0.89153814 2.249378 -0.041693892
-0.5172155 1.9740081 -0.012557215
0.17296372 1.952533 -0.055668525
0.06885448 2.63619 0.109303005
-0.4044633 -0.08579026 0.88725996
0.2724231 2.7426987 -0.13286778
-0.34845483 3.2419176 0.36934265
-0.4877364 2.3554184 -0.75533175
-0.23902583 2.0393963 -0.24725595
-0.9229567 -0.25676602 0.8693149
-0.33941078 2.170606 0.5980351
0.37484586 -0.41904154 0.4356935
-0.24955605 2.6558983 0.27530438
0.055751957 -0.41624498 -0.01676841
0.33495528 1.7838175 0.51005286
-0.46664754 2.3603013 0.12497464
0.19512081 -0.41468862 -0.45705017
-0.4811076 2.0729182 0.32190263
0.17915997 2.9948118 0.07635011
-0.017163495 2.15678 0.48679566
0.85441244 2.2082715 -0.1291976
0.19573165 -0.0827426 -0.08175492
0.64918065 1.850753 -0.032173038
0.20628814 2.5701866 -0.66470134
0.38114494 1.9876144 -0.6588448
0.07451044 2.4941194 0.57223475
-0.1266101 -0.41514468 0.07221016
-0.18510538 -0.084809124 -0.18152231
-0.56121486 2.182475 0.64990866
-0.5415336 2.9414458 -0.5622434
0.9022397 -0.40788412 0.114701346
0.8100756 2.8151813 0.26492202
0.57801163 -0.4135418 0.7396387
0.046864167 3.023902 -0.7212939
-0.25560206 -0.25228938 -0.58155406
0.5127105 2.7613807 0.4133355
0.9000982 -0.4085799 0.52511466
0.27151304 3.146978 0.18074587
0.34335133 -0.088350624 -0.90891993
-0.07997976 2.880526 -0.8066716
0.15373218 -0.078838795 0.87690115
0.013471587 3.2112486 -0.017134663
-0.20195237 3.3200655 0.27448502
0.27028155 3.1630714 0.5337087
0.598981 3.0592175 0.3710174
-0.5688278 2.5897427 -0.44169754
-0.2705599 -0.08838962 -0.74719894
0.7220292 -0.08626084 0.8776335
-0.7198571 -0.08397007 -0.20557806
-0.44637808 -0.2537297 -0.62823796
-0.45501673 3.256609 -0.12892844
0.62626463 2.6267545 -0.6395155
-0.64132273 2.3953285 0.25303864
-0.33118135 2.4848177 -0.6566673
0.35985178 2.185485 -0.5616449
-0.14250292 2.180718 0.6735231
-0.33652318 2.1327295 -0.5684572
0.3863556 1.6758382 -0.17194033
0.8607948 2.2676535 0.2053164
-0.34409952 -0.4208957 0.35709226
-0.3447413 3.012219 -0.65374714
0.18571955 2.4011557 0.89381665
0.73910403 -0.08462444 0.42448628
0.37956163 3.0876238 0.03261549
-0.9250916 -0.25414595 -0.4126142
0.42840415 3.0282722 0.5808675
-0.20667097 1.7893323 0.5498681
-0.88255996 -0.41439646 0.5299535
0.5122422 2.4974313 -0.51753485
0.4768369 2.2391634 0.5151712
-0.3766818 1.7628896 0.4188817
0.46225995 2.1786985 0.7271606
-0.16865745 -0.25669616 -0.76108575
-0.7209412 -0.26160836 -0.92364746
0.3903 2.7509198 0.20586523
-0.07255648 -0.24554779 0.64520764
-0.18023562 -0.09158972 -0.9160155
-0.8719039 2.454165 0.27108508
0.08545758 1.9292779 -0.25590056
0.5811009 -0.0884621 0.7454401
-0.031787112 2.3531258 -0.512311
0.1749192 3.3372426 0.24752441
0.25084114 -0.41949967 0.6141615
-0.47195965 1.9959011 -0.60340405
-0.3098401 2.0464125 0.054027684
-0.5832106 3.1347637 -0.22794014
0.044541165 -0.24690571 0.47549897
-0.65862584 2.4764094 0.60667884
-0.8016054 2.279929 0.3595904
0.751696 -0.25499684 -0.09954721
-0.25192675 2.7393665 -0.43753815
-0.060259193 2.657261 0.2540276
0.71308905 -0.08691184 -0.39719304
-0.6780296 2.762904 -0.52022135
-0.8187493 2.0868902 0.05415349
0.57006204 -0.085126385 0.31914616
0.25082058 2.982706 -0.45757565
-0.11462336 2.9632645 -0.20775598
-0.2767883 3.1602974 0.5430925
0.4043496 2.9910445 -0.30437297
-0.5316738 2.5275905 0.40269628
0.28611085 1.8130351 0.035773605
-0.2293201 1.7948146 0.20237188
-0.43474877 2.3448725 0.5323744
-0.0816043 2.208788 -0.27948076
0.30979908 -0.23806772 -0.7837281
-0.16264 2.1539574 0.3426245
0.6271547 -0.2763262 0.06863026
0.65516424 -0.24916855 0.2403296
-0.402983 3.0413191 -0.2888018
-0.15485579 3.0289335 -0.70813453
0.092942774 -0.41559556 -0.6252285
-0.17921343 2.4046812 -0.89299905
0.6413447 -0.24584255 -0.9189511
-0.66404986 1.9781913 0.34591216
-0.59389794 -0.26849476 0.29197878
0.5806552 -0.4153505 0.5207069
-0.15116209 2.5556383 0.09517467
0.3055877 2.7413716 -0.62493646
-0.011256121 2.3197248 0.6494352
-0.7012749 2.566648 0.28720146
-0.1884828 2.044251 0.5215658
0.89816964 -0.091390446 0.72587377
-0.5744989 3.0620222 -0.39518315
-0.5738567 -0.09225226 0.37489727
0.38348943 1.7287958 -0.34430936
0.2957291 2.694827 0.6765569
0.25083303 2.787856 0.82747537
0.67560124 2.4739623 0.3458882
-0.17779535 2.153886 -0.08430456
-0.13786383 2.1630173 0.1300176
-0.6213486 -0.2500147 0.5005642
0.14673556 2.2191982 -0.21550903
0.92082334 -0.25158542 0.6375363
0.15477291 2.6429744 -0.8786527
0.40916735 -0.25215465 -0.29842073
-0.5752411 1.7821383 0.076533616
-0.4714526 -0.26222962 0.59796953
-0.36095244 2.011116 0.458359
0.9277643 -0.24962625 0.43348992
0.60291505 -0.25218326 0.64800537
-0.56047 2.716652 0.013999193
0.522664 2.4711475 0.2506556
0.84272945 2.4129064 0.3495677
0.1278036 1.8464332 0.33556876
-0.39788622 2.1172366 -0.35828853
-0.7816532 -0.2548719 0.52581954
0.22481044 3.3147788 -0.28528598
-0.023594148 3.135535 0.33032408
0.53289676 -0.08800202 -0.91132426
0.19111885 1.8761652 0.64432764
0.106196165 -0.26209038 0.9224069
0.6512367 -0.08487284 -0.7435862
-0.0051062377 2.6686497 -0.29285982
-0.091081135 1.5721251 0.016846288
0.47548646 2.6974044 -0.74751455
0.14473686 -0.08488946 -0.28504872
-0.7832267 -0.25507575 0.720394
-0.7340137 -0.083042055 0.42983073
0.4870427 2.5001764 0.7537852
0.19223705 2.658033 -0.295945
0.08616844 2.7420108 0.31977075
-0.4086554 2.0365944 0.68722415
0.58541083 -0.24572358 -0.22901763
-0.22417358 2.5152664 0.8792106
0.7664683 2.5618038 0.4887171
-0.5978458 2.206898 0.2844017
-0.17078197 3.2410266 -0.033508513
-0.6132028 -0.4058926 0.9021354
0.21295881 -0.24808648 -0.37098554
-0.5763403 1.9412965 -0.4378525
-0.4332403 3.2252069 -0.3104468
0.7835996 -0.24899957 0.33604652
0.91840166 -0.24295697 -0.5964712
-0.15768497 -0.0897273 0.0115159135
0.011174357 2.682037 0.53549755
0.3258909 -0.086720206 -0.3621643
0.5758257 2.3394966 0.6970558
0.541496 2.942463 0.07092549
-0.70616484 2.6037073 0.054824352
-0.40175527 2.674282 -0.7924819
0.899155 -0.40878037 -0.09195121
0.68372226 2.0534534 0.4465065
-0.15299761 2.0221672 -0.56175053
-0.38164014 1.889493 0.2885487
-0.32156116 1.9982649 -0.45785534
0.042752966 -0.25457984 -0.3564129
0.71444523 2.2374234 -0.52540195
-0.5006771 2.4310486 -0.54452205
-0.072922125 2.610365 0.7077529
-0.68172723 2.737774 0.17365049
0.26824677 -0.08369894 -0.69750893
-0.8948806 -0.40827543 -0.51721096
0.02655028 2.1029305 -0.65079045
-0.29499152 2.3648489 0.65763724
-0.03357824 2.1739314 -0.48114276
0.8924979 -0.40975237 0.7277715
0.22960699 -0.08520028 0.12043749
-0.21760692 2.1900668 -0.4263672
0.055493116 3.0217106 -0.080574155
-0.44570875 -0.25171548 -0.27000052
0.9011873 -0.09044789 0.52434
0.8897127 -0.40237832 0.9038098
-0.06085024 2.6892493 -0.0475081
-0.517046 2.189002 0.4676888
0.57096565 3.1024327 -0.33031756
0.29282147 -0.40272474 -0.9191735
-0.3041656 2.9770153 -0.12199825
-0.5611825 1.8068027 0.2693959
-0.37484986 2.3317356 -0.40286398
-0.16361412 -0.41047692 -0.90867555
-0.18102568 2.9902973 0.2784143
0.39493644 2.195067 0.26875478
0.27573925 2.992962 0.70218563
-0.35991666 -0.41632193 0.54857683
0.55629945 2.0363164 -0.2972827
0.19291374 -0.41393074 -0.7650651
-0.13795184 3.1748788 0.15612605
-0.5323806 -0.08633679 -0.13362087
0.5420319 -0.102082044 0.91436446
0.7395334 1.9465699 0.115112804
0.5380198 -0.07425475 -0.13309479
-0.20411405 -0.25952375 0.76507056
-0.033710837 2.5278366 -0.91833377
0.13149658 -0.41945925 0.750366
0.27054238 -0.24598199 0.008311905
-0.3137027 -0.41992915 0.16151989
0.23991117 1.8084333 -0.20400295
0.010390898 2.3222337 -0.8905717
0.23342587 -0.25842243 -0.6216337
-0.12529197 2.8959944 0.79706466
-0.06303772 3.1743536 0.57786345
-0.21591803 2.6535459 -0.871891
-0.4427899 -0.25991702 0.4134309
-0.15978734 3.3726065 0.098494485
-0.121005714 -0.25945967 0.48384237
-0.34357116 2.3016677 -0.6305855
0.08911379 2.114849 0.16584642
0.24432775 -0.26478228 0.77135783
0.93339527 -0.24922277 -0.7840469
0.4369344 -0.25545692 -0.6243737
-0.30483803 -0.2544402 0.040280793
0.29795784 2.7677338 -0.43130308
0.72037697 -0.40015513 -0.9200983
-0.72094154 2.9806173 -0.236182
0.08104466 3.1806607 0.15702654
-0.3748475 1.8625636 0.09039658
0.17476657 3.1271014 -0.61198765
-0.92891115 -0.26176384 0.4314003
0.46753177 -0.24870539 0.5273557
0.41253448 -0.25542018 0.35768732
-0.9178087 -0.111123055 0.18347326
-0.49115953 2.170381 -0.70741844
0.4141371 1.6885734 0.1626761
0.39516935 1.9205742 -0.2979978
-0.31205037 -0.08766241 0.1290367
0.010548008 -0.084550865 -0.4763197
0.6850234 2.2812295 0.0065815393
-0.40190905 -0.24167329 0.7610748
-0.2485578 1.8011115 -0.2071044
-0.059786014 -0.25166288 0.29818487
-0.23705587 2.961996 0.0867161
-0.42975086 2.3794043 -0.10796024
0.7741412 2.0806491 -0.27616554
0.90261006 -0.08804336 -0.49316135
-0.33211726 2.678835 0.5104052
0.08820782 2.1685982 0.68000185
-0.3261533 2.8708992 0.7622633
0.51607454 1.908284 0.47158885
0.24049453 2.036364 -0.22493498
-0.6425847 2.3261158 -0.6311786
-0.17188463 1.7244849 -0.5005767
0.39582175 -0.4195332 0.013030752
0.07013679 -0.40468627 -0.91232896
-0.15469362 2.7557135 -0.21925567
-0.73197913 2.2803125 -0.05823221
0.38703653 1.945483 0.6174798
0.021313585 -0.41311598 0.9058305
-0.04415907 2.5877433 0.90408665
0.46706903 3.2212071 0.25047487
0.4038386 -0.08511546 0.21476573
-0.4274428 2.6858141 0.31887364
0.059990488 1.9207851 -0.7188623
-0.46335563 2.1503606 0.121523574
-0.18363214 2.357986 0.1882991
-0.08330766 1.7274137 -0.10643062
0.2716707 -0.09087443 0.72867
-0.9124029 2.4393373 0.049038056
0.45666778 2.6839736 0.76680535
-0.7516408 2.434814 0.11451179
-0.010756573 3.338821 0.27691603
-0.73907816 -0.087347746 -0.905913
0.4150836 -0.4196036 -0.1868194
-0.09852199 1.8851467 -0.22881284
0.14097467 -0.25652698 0.61177766
0.89551914 -0.089247346 -0.09438807
0.8894051 -0.08375315 -0.71053076
0.5635437 -0.4147625 -0.3022734
-0.18161336 2.7411432 0.6501676
-0.48841769 2.4672782 -0.3104381
0.33546662 2.3996267 0.24117994
-0.28561777 -0.24802834 0.5833404
-0.382671 1.9138961 -0.30471322
-0.40292174 1.8261653 -0.49720764
0.39069498 2.1672752 -0.76270616
-0.6361679 2.115453 -0.5575822
0.54879725 2.1125767 0.36334246
-0.6443641 3.1164107 -0.06574545
-0.094891325 2.8085723 0.43253762
-0.61086994 -0.096560396 0.18766573
-0.7324102 -0.08641036 0.7968228
0.5016089 -0.25057012 0.22517332
-0.020457089 1.5774477 -0.18498132
0.19809473 1.8857193 -0.40286058
0.20192087 2.2396774 -0.86042607
-0.030316573 3.1712413 -0.59124815
0.72337747 2.7433348 0.49520215
0.3268153 2.0319824 -0.43249345
-0.35644186 -0.08709751 -0.24660866
-0.8359804 2.7873821 0.23130083
0.15056214 2.3057203 0.52617574
-0.10123428 1.842387 -0.6341144
-0.4051488 1.6878414 -0.18925697
-0.8340194 2.418632 -0.34222868
-0.5672941 2.131579 -0.39060545
-0.41544306 3.0071378 0.6142521
-0.19156489 1.9615742 -0.06601656
-0.1180134 3.2785187 0.43989354
-0.9252429 -0.25472146 -0.20327319
0.5713589 -0.40801305 -0.083318755
-0.86935866 2.6072884 -0.24708301
0.8560801 -0.25111574 -0.929997
0.47170764 2.6928768 -0.5178706
-0.20285267 1.8723536 -0.41098976
-0.39113373 2.1081905 -0.11789137
-0.32941455 2.2378745 0.21541801
-0.12244648 2.5355673 -0.14463088
0.061532527 1.7501581 -0.22940946
0.5669341 2.5941916 0.4478882
0.7557627 -0.24994512 0.53846973
0.8945303 -0.40846163 -0.6866888
-0.054320913 2.4986806 -0.37730688
-0.38561368 1.889108 -0.110316135
0.3668089 3.0525968 -0.60827744
0.41069984 -0.2561487 -0.113875195
0.40738615 3.2346127 -0.304627
-0.2329157 1.6761601 0.35475016
-0.22806242 -0.08603853 0.51417816
0.22779769 -0.41299558 -0.096926585
0.11479261 1.5725186 -0.04323569
0.64831716 2.2012546 0.19893628
0.34939855 3.3143127 -0.09747462
-0.8978852 2.41952 -0.15607613
-0.0159887 -0.097768076 0.91428995
0.8978497 2.3391166 0.009303563
-0.013944388 2.0665293 0.023602072
-0.23827541 -0.0876358 0.7141893
0.38250786 1.8837857 -0.10995923
-0.3181002 3.140151 0.042760395
0.3509814 2.0779276 -0.055611577
0.18310043 -0.24577186 -0.9277604
0.085525006 2.4999928 -0.22232579
-0.22848505 3.3330736 -0.23492828
0.56927806 -0.086429045 -0.5460938
-0.34083825 2.85814 0.20943508
0.44178617 3.1160843 -0.45891994
0.58714366 2.6181338 -0.37596986
0.90230715 -0.08797924 0.107741326
0.574232 2.3029766 0.35158888
0.58636034 2.0134544 0.18906659
-0.37288553 1.8828747 0.5812514
0.2205945 3.10294 -0.3305135
-0.4176959 -0.41032755 0.8945219
0.104349434 2.8496695 0.4624219
-0.73103666 -0.2533595 0.91406524
0.36854136 2.3636174 -0.8257201
0.5628843 -0.24717444 -0.42970374
0.6919557 2.5252821 -0.22374818
0.57328796 2.976446 -0.5028751
0.34473348 2.9328678 0.19031772
-0.8402542 2.2466345 -0.25519544
-0.8084839 2.075685 -0.15170532
0.38510144 -0.4118561 -0.7712481
-0.66153264 2.1942413 -0.23955369
0.6954745 2.899861 0.39411873
0.7291268 -0.4179548 -0.19645977
0.7186846 2.9855628 0.20870572
0.73981285 -0.08553444 0.64665806
-0.6176499 -0.25133228 -0.6042744
0.023280403 2.4821162 -0.014356853
-0.25264895 -0.4153294 -0.24731553
-0.40984625 1.6928476 0.21474975
0.19842175 -0.088230275 -0.49917197
0.11898468 2.0095167 0.77772105
0.0958215 3.2571468 -0.44786233
0.44604087 2.4853847 -0.26992983
-0.6676655 -0.083770856 -0.74203235
0.15288554 3.133118 0.3460756
-0.5699638 1.788685 -0.11719057
0.32633585 -0.25099498 0.6093748
0.0055216216 3.3432286 -0.2809955
-0.3396833 2.192297 0.40357706
-0.33540514 3.0921311 0.23656529
0.9028088 -0.40800986 0.3192383
0.20902893 2.5901997 0.26363936
0.043458145 -0.24182078 0.77232677
-0.7882649 2.7807379 -0.32768387
-0.5331714 2.5754695 -0.15410538
-0.5251056 2.6655583 0.52985245
0.20980138 2.248114 0.21807471
0.6433254 2.2203603 -0.3537629
0.571448 -0.20635405 -0.053931378
-0.7117196 1.9217331 0.16120745
-0.6135957 2.3488436 -0.39221585
-0.31345415 2.2564096 0.017017383
-0.28517905 3.2388678 -0.3953827
-0.8438858 2.8081546 -0.15030962
0.16656965 2.3631442 -0.08237356
0.67016256 3.0721335 -0.18140492
-0.93288016 -0.2573343 0.63780856
0.49650654 -0.41613135 0.90342844
0.70098937 2.6461182 -0.041440193
0.158264 2.9583511 0.27045906
-0.34224814 -0.08621059 -0.06126159
0.017701808 2.7703521 0.85483885
-0.7720746 2.9704614 -0.035994813
0.044685133 2.553788 0.38962698
-0.21752179 2.3713176 -0.5197251
0.07162456 -0.08802957 0.25001606
0.10281032 1.9708604 0.46257323
-0.13377073 -0.416403 -0.6067608
0.25548345 2.9673557 0.49224755
0.90020275 -0.40658122 -0.49153018
0.17955384 2.8494978 0.6279081
-0.4467095 2.5505133 0.0066498136
0.37503058 2.8008294 0.5380621
-0.20458439 1.9094486 0.36971128
0.09182915 1.924549 0.13966417
0.4384761 2.8221927 -0.16245377
0.7376646 -0.4202273 0.015325212
-0.009436157 2.0148888 0.61826444
0.0675053 3.0317707 0.50078416
-0.2750733 2.821805 0.3821224
-0.02914776 2.7129152 -0.8748835
-0.32113916 2.270465 -0.8217268
0.12965807 3.1113546 0.64593965
0.55574703 1.857499 -0.38391653
0.89799523 -0.40886885 -0.29426038
-0.57197356 -0.41604415 -0.30232728
-0.04840707 1.8079286 0.28515947
0.015233365 -0.092232086 -0.9183238
0.56702167 2.5145755 0.050740693
0.095852084 3.2632635 0.4606832
-0.73733187 2.063826 -0.35695255
-0.18018961 -0.41423172 0.6270876
0.55861735 2.859518 0.24359088
0.20987543 2.6662805 0.4935388
-0.41976425 1.6756423 0.0035585263
0.53587544 2.2985344 -0.5185404
0.013429608 2.4585314 0.19818397
0.7618816 -0.24203682 -0.7444128
-0.13677138 3.0643976 -0.03789608
-0.32194042 -0.4155265 0.73753214
-0.0679019 -0.41376573 0.75773036
-0.6110846 -0.25437194 0.7266818
-0.14375615 2.3742967 -0.7081182
-0.2721302 -0.25761586 -0.9234019
0.7286049 -0.41471827 -0.5890137
-0.6056068 -0.25169948 -0.4065045
0.77575064 2.076129 0.26281086
-0.1410757 -0.086677745 -0.5925264
-0.017177172 2.869103 -0.59973985
0.6765101 2.0463834 -0.44689456
-0.37077332 2.683454 0.10398136
-0.18375249 2.38347 -0.33401656
-0.56450236 -0.09134114 -0.9112568
0.249459 2.4817152 0.46475315
-0.8685763 2.2693853 0.16475743
-0.2798981 -0.24992613 -0.36606833
0.5231725 -0.41054374 -0.9018973
0.3567069 -0.25522718 -0.47384605
-0.7099353 -0.41848582 -0.78599906
-0.31157237 -0.2562256 0.92146635
0.3894521 -0.41792172 0.22296041
-0.0057467134 2.2377574 -0.07653521
0.032991134 1.955532 -0.51083463
0.802469 2.9077783 0.057724062
0.70861053 -0.41809183 0.8772428
0.4947037 1.7212288 -0.011593793
-0.553874 -0.08758493 -0.32107073
0.63972414 2.1599748 -0.15842214
0.52704334 3.20318 -0.15018442
-0.10202506 2.708756 -0.6859163
0.640936 1.9065862 0.3175025
0.06774792 3.019322 -0.49032483
0.8946246 -0.40759832 -0.8811288
0.55814886 2.1196554 -0.62363183
-0.78758585 2.1060486 0.25714624
0.42700547 2.4289455 0.41047645
0.5379382 -0.25390428 -0.78018713
-0.37718678 -0.089024015 -0.91039133
-0.12618136 2.0026922 -0.7649921
-0.052425362 1.8925455 0.4717751
-0.20340468 -0.24771309 0.18039355
-0.2559253 2.812259 -0.07150059
-0.06567536 2.0335102 0.797458
0.14763461 2.392283 0.32403713
0.29175246 1.9112523 0.42588258
-0.9234844 -0.25308973 0.01811647
-0.020550607 1.8184757 -0.3930623
0.10181829 2.9305358 0.78485954
-0.83153903 2.7948403 0.038202554
0.38165283 2.5578089 -0.64356697
-0.111295834 2.3527346 0.028055757
-0.64087 2.3778467 -0.19603786
0.5779286 2.9186797 0.54816175
-0.058531772 1.6955152 0.46128607
-0.51776505 -0.4197361 0.7059519
0.70619154 2.3831553 0.17388524
-0.28761807 3.157918 -0.17376873
-0.6375621 2.0925655 -0.08354364
-0.1883977 2.7411447 0.08752127
0.49449018 2.291204 -0.26588744
0.90357304 -0.08929929 0.31774056
0.25546095 -0.25044066 0.4391122
0.24987477 2.4220426 -0.30096048
-0.5586387 2.0170374 0.5473859
0.12972277 3.368486 -0.11724341
-0.017114129 1.8357381 0.6573198
0.0563672 1.7561374 -0.5559002
0.49639243 2.7291052 0.03460642
0.30888987 2.2004728 0.6200694
0.62278104 -0.253209 -0.61980903
