0.5870323 1.3084662 0.58255756
0.50114757 0.44671226 0.06469196
0.43953142 1.4695556 0.33895957
0.74464554 -0.25313923 0.7541641
0.40499485 0.93615776 0.5803573
-0.5817861 0.85626006 0.4404103
0.06552185 0.14179769 -0.40145203
0.6592927 1.1292318 0.6024234
0.23725146 1.7222786 -0.508008
0.7706838 -0.24831967 0.93185854
0.46390155 -0.08878199 -0.7240882
0.003852736 -0.4116258 -0.4674095
0.01103805 1.3394318 0.1099482
-0.7445091 0.9547998 -0.09792527
0.283822 1.3324621 0.32011706
0.096625745 -0.22780097 -0.5296006
0.34813753 0.38298658 0.22463232
-0.33391958 -0.07288037 -0.5794872
0.12592778 0.5943127 -0.38331228
-0.90307176 -0.094683185 0.7306353
0.4476982 1.6739296 0.39116466
-0.62862533 1.3831719 0.0043293545
-0.46201843 -0.25426275 -0.92375416
0.427024 -0.08358018 0.64405584
0.23906249 0.34931454 -0.63072747
0.84966564 1.3025616 -0.12613925
0.87069833 1.1445231 -0.2273308
-0.28459013 0.9597988 0.011658225
-0.24857073 1.5430744 -0.37674868
0.24788135 0.13320364 -0.25036338
-0.45209894 1.2414944 -0.16051447
-0.74708694 0.69526577 -0.434023
-0.004706418 -0.07249596 -0.12523565
-0.76149166 1.416102 0.15451048
-0.7257532 -0.0873813 -0.42322457
0.30951065 1.0664749 -0.47861063
-0.5866367 -0.41115898 -0.10890043
-0.36319178 1.2305202 0.62328154
0.07726987 1.3310218 -0.43098438
-0.28042352 0.74151444 -0.22595015
-0.07504429 1.1900866 -0.50502217
-0.2411927 1.0809226 0.65361476
-0.75051177 -0.077680975 0.2199252
0.22879225 0.53260875 -0.776671
-0.056121252 -0.08847815 -0.76167464
0.7576866 -0.25180745 -0.4830184
-0.5527297 1.1226029 0.6967402
0.5752491 1.3359809 -0.6304281
-0.1022637 -0.2305111 -0.45925558
-0.16992411 1.0197169 -0.74962974
-0.1065099 -0.047717087 0.18233818
-0.7934413 1.0629859 -0.44679987
0.38504213 0.95090616 -0.03827013
0.12153748 1.3362589 -0.04875318
0.19984995 0.8951503 -0.5515005
0.9222361 -0.2535619 0.011036188
0.049294494 0.6007774 -0.8435826
0.8294742 0.7704623 -0.36248544
0.66593504 1.6059458 -0.06350966
-0.20938508 0.13045661 -0.10202443
-0.44588375 1.3295724 0.46337074
-0.12381808 -0.22684306 -0.2649297
0.85872453 1.1705275 0.26551116
-0.71670306 -0.4209626 0.77174103
0.34310454 1.1270205 0.8177495
-0.49386424 -0.41950774 -0.728733
-0.74233043 0.88387656 -0.50536275
0.1810235 0.28801298 0.1734797
0.31090242 0.75127363 0.80780745
-0.5598005 -0.08716531 0.5352379
0.7445886 -0.09028562 -0.57992
0.8228489 1.1169498 -0.396589
-0.15550521 1.4960887 -0.5414376
0.33997118 0.16115043 -0.03809271
-0.019843483 -0.41416225 -0.76058245
0.72699857 -0.4191074 0.6464648
-0.13626847 0.667887 -0.84983206
-0.48103207 0.6891293 -0.5092408
0.0061369548 0.8734186 0.42102984
0.5685058 -0.066581644 0.11509215
0.20111714 -0.41076207 0.2847283
-0.34945762 -0.4144569 -0.5877569
-0.3747028 1.1818628 0.79164076
0.0863829 1.3407211 -0.8564843
-0.8903967 -0.098125875 -0.9122968
-0.765501 0.9398763 0.44868332
0.085046455 -0.41740823 -0.24899879
0.39255077 1.0877516 0.10898784
0.52020705 0.31435427 0.332505
-0.06419353 -0.06640424 0.5694773
0.07582732 1.6890919 -0.23709759
0.11175 1.1359663 -0.12115149
-0.7617922 -0.24347353 0.32267958
-0.5404247 1.6772933 0.22240275
0.41026115 1.1329808 -0.108187735
-0.46384043 0.3760879 0.4647787
-0.8697182 -0.086393714 0.020926036
-0.5107219 0.7180731 -0.043149963
0.7325009 1.0800493 -0.5463337
-0.2307344 1.3349473 -0.62211716
-0.23152626 1.5533726 0.6516354
-0.38805115 1.7898847 0.12830943
0.54778063 0.8013573 -0.7330189
0.31073236 1.5904449 0.29325703
0.672207 0.92983675 -0.6368237
-0.40159023 -0.07214608 0.42500582
-0.6156032 -0.09114581 0.91527426
0.41795465 -0.06922051 0.42699137
0.5928134 -0.26603577 0.89886546
0.9208411 -0.24922368 -0.38657874
-0.89469314 -0.40922835 0.106369585
0.7484342 0.9897475 -0.07182889
0.91799664 -0.2509631 -0.1872338
0.52963704 0.47917986 -0.5347512
-0.528446 -0.4206341 0.47467893
-0.11861524 0.16734304 -0.3106737
-0.70367014 -0.4154681 0.39698586
-0.088754416 0.47654963 0.15107271
-0.34913123 1.0058196 -0.45976835
-0.9021479 1.0778499 -0.048127905
0.0057750465 -0.4115103 0.5732955
0.16400293 0.2889468 -0.037629716
-0.69569546 -0.07082006 -0.022697285
-0.712342 -0.41856337 -0.6236839
0.034167677 0.7844805 -0.7072682
-0.89572597 -0.40697947 0.7190188
-0.9029659 -0.092957824 -0.52806294
-0.60691255 -0.2417756 -0.21397182
-0.36035907 0.9325707 -0.8501296
0.42928052 -0.25645107 -0.9235799
-0.59727573 1.4470174 0.48167425
-0.0042245667 -0.41110286 0.36793166
-0.21057823 0.6483248 0.79674417
0.32463512 1.063231 -0.8641825
0.3807309 1.4038358 -0.53257704
-0.5418629 1.4207611 -0.18981647
-0.52158296 -0.24634777 0.9102305
-0.4766131 -0.23593837 0.10374293
0.619215 0.93695647 -0.4051371
-0.010958975 1.4583383 0.2954187
-0.006787474 0.29094076 0.10350466
0.14733496 0.1620284 0.3470028
-0.25415885 -0.42077458 -0.7488207
0.39543805 -0.26939803 0.9216231
-0.25320956 1.388216 0.5460462
0.38153887 -0.06930089 -0.53928304
-0.17905286 1.0271888 -0.5486903
0.85518444 0.6730268 0.040594406
-0.49536803 1.4189196 0.3072376
0.3733547 -0.077954605 0.87202036
-0.05502866 0.7648492 0.8603437
0.25304604 1.3776333 -0.32049283
0.28549206 1.7933269 0.3091697
-0.35061565 -0.25960737 -0.76793563
0.7399467 -0.08114398 0.2178688
0.27796823 1.0394543 -0.17827651
0.41225332 0.9252378 0.7886326
-0.49746013 1.603142 0.41304886
0.5474776 -0.42002952 0.1271173
-0.7048621 1.1050619 0.51757634
-0.13432518 1.1453652 0.43668252
-0.035586074 -0.24077193 -0.6332005
-0.5418608 -0.08752477 0.73744977
0.7575085 1.458664 -0.21204704
0.19589628 0.67467225 -0.036701716
0.9123961 1.08669 -0.059965417
0.5641059 0.507944 -0.12576377
0.5621307 1.4485517 -0.2908172
-0.12664318 1.6723485 -0.24033642
0.39660162 0.34378546 -0.5255909
-0.09177024 -0.411184 -0.14094707
-0.74043083 -0.41550365 -0.21469375
-0.26915938 -0.40896595 -0.067487076
-0.25455073 0.53323877 0.25559804
0.90292 -0.08832359 -0.89531815
-0.36652464 -0.41247147 -0.9012255
0.12134747 -0.2392933 0.31863543
-0.8953264 -0.0938773 -0.33167374
-0.019076075 0.87246835 -0.21747768
-0.1417297 0.46883416 0.712289
-0.64551735 0.72990614 0.12066932
-0.012323998 1.8940344 0.040313747
-0.119624704 1.3635545 -0.40859628
0.9245666 -0.25210258 0.22268832
0.15560316 -0.40923625 0.4558534
-0.02902101 -0.259098 -0.9137242
-0.9148792 -0.2596689 -0.87263656
-0.1697641 -0.4063542 0.25091016
-0.6610236 0.61796397 0.47431672
0.020315707 0.98967713 -0.78121996
-0.27341574 1.3031555 -0.8210547
0.70782 0.85868543 -0.22847855
-0.30525878 0.19066344 -0.34485567
0.6201172 1.3750467 -0.11685624
0.4414153 -0.24171889 0.7538357
-0.015702616 1.3853106 0.600891
-0.45412683 1.5790389 -0.52883357
-0.11906038 -0.23829177 -0.07037607
0.7601912 0.9364259 0.49851626
-0.2088066 0.13618156 0.13784552
-0.17978838 -0.41534925 0.43602943
0.26315373 -0.06615448 0.5299184
-0.2920885 1.117137 -0.11827083
-0.32081184 1.3343846 -0.30285588
-0.5194367 1.341438 -0.36164802
-0.38843018 0.9831918 0.79779226
0.37665555 0.5980259 0.71594554
-0.5492945 -0.08529662 -0.5511941
0.09403926 -0.07468951 -0.6766497
0.20824704 0.987754 0.06663771
-0.8118528 1.1412221 0.36847106
0.37475663 0.85866153 -0.65223145
-0.6647357 0.7855352 0.5706893
-0.4680644 1.0805194 -0.60373783
-0.10560419 0.9913326 0.5322856
0.04564262 -0.24762174 -0.1881645
-0.76543987 -0.24090111 -0.104804695
-0.05175048 1.6046963 -0.39482528
-0.3189601 0.96339744 -0.23985094
0.27447566 1.0619576 0.64823544
-0.26086855 -0.22894394 0.37431216
-0.46960908 0.44046742 0.20523691
-0.53401095 1.0588877 0.17181188
0.30412188 0.1440652 0.16093215
-0.13824405 1.3339641 0.21519187
-0.89904416 -0.40684676 -0.107363015
-0.57643443 -0.40568775 -0.916106
0.5593945 0.6160692 0.59463215
0.07045555 1.2117553 -0.728124
0.21857014 1.4565455 -0.77265245
0.40822634 1.3888116 -0.7246133
0.047547072 1.3219428 -0.2220051
0.36878273 -0.048252936 -0.18309042
-0.51786894 -0.41659725 0.2705666
0.10165993 -0.054332323 0.45708025
0.10984472 0.11822033 0.14548993
0.88914675 0.94329363 -0.24191776
0.70755863 0.43969473 -0.25391823
0.73611915 -0.08627526 -0.9033016
-0.42075068 -0.2478393 -0.47714362
0.17133561 1.8717953 0.014188038
0.10019615 -0.22890359 -0.033509172
-0.21439365 -0.4078504 -0.45085737
0.4407425 0.63232994 -0.24484625
0.3880815 1.1452644 0.32573283
0.33676755 -0.41810048 -0.5794263
-0.27467954 0.3690381 -0.62726146
-0.5383132 1.7108948 0.024020296
0.41957635 -0.4123984 0.611485
0.48939604 1.7427061 -0.025491495
-0.07769592 -0.04708862 0.3835234
0.38523936 0.87334853 -0.45354122
-0.35736126 1.8236959 -0.0717933
0.23449132 -0.4015107 0.91147906
-0.2040976 -0.04291887 -0.41476834
-0.043196112 0.14056696 0.2661584
0.15347628 0.7143551 -0.52899384
0.38686365 1.1855782 -0.32620633
-0.6592787 1.2921902 -0.16750954
-0.28285533 -0.22437793 -0.1715586
0.8088721 1.3090565 -0.3373783
0.5438472 -0.41187453 -0.49171096
-0.42181614 0.8398474 0.32295507
0.11474085 1.0257401 -0.44849896
-0.38101673 -0.23505732 0.2408064
-0.45054027 -0.06067151 0.23327121
-0.20797795 1.0904975 -0.33863378
0.89301884 -0.09394103 0.90677285
-0.059173662 0.52490306 -0.37131506
0.928327 -0.24881989 0.8571708
0.06378705 1.4851388 -0.3086692
0.2066127 -0.4080392 0.09619838
-0.0954798 0.94171154 0.7341284
0.3360589 1.8302559 0.073260345
0.2445162 0.21392381 -0.45162082
0.6626768 1.2663472 -0.28472614
-0.47263628 0.7317425 -0.24275494
0.42672792 1.4172451 0.66293395
0.72790575 -0.41741824 0.42663938
-0.58266807 1.1921672 -0.69196874
0.5238836 -0.06955279 -0.32528716
-0.5409769 0.9799973 -0.7463981
0.72088575 -0.41741973 -0.38525987
-0.89710724 -0.09619045 -0.14547928
0.7964809 0.5469692 -0.10465962
-0.8668097 -0.09380691 0.91167545
-0.8787353 1.0815289 0.15588692
-0.18591616 0.8641145 -0.12769663
0.31113988 0.56559277 0.11592525
-0.18938276 0.30514422 0.018667787
0.30023548 1.6591029 -0.2080427
0.28730658 -0.22953805 0.21398947
0.10342787 0.8170713 0.08845319
-0.15342672 0.79592603 0.5191714
-0.11000073 -0.26336503 0.9163347
0.5154824 0.99463916 -0.7709744
0.705985 1.2720835 -0.5083231
-0.13534147 1.5141959 0.46234596
0.20220643 1.307579 0.13269581
-0.18514168 1.2473671 0.82784414
0.26436943 1.1766127 0.009174723
-0.15767863 0.6693909 -0.653852
-0.5070227 0.26968402 -0.2890734
-0.74284875 -0.41319448 -0.0025167551
0.1260831 1.2162945 0.6771712
0.71558607 -0.08131288 -0.19198683
0.7234138 -0.07674422 0.009635167
0.4640811 1.5382977 -0.14856161
0.7035786 -0.41608635 -0.7609459
0.33058625 0.79001844 0.04002007
0.23010525 1.4884458 -0.16602048
0.5813729 0.3043107 -0.21343145
-0.45394054 -0.08647859 -0.7387098
0.6314959 0.33639663 0.15062305
0.2909804 0.7256677 -0.37672102
0.6780296 1.4532808 -0.42525238
-0.50337005 1.5016682 0.11826872
-0.759989 -0.24859639 -0.3174832
-0.41996625 -0.40900493 -0.1924289
0.79847074 0.7738099 0.36841238
0.338825 1.3853683 -0.027335338
0.16605249 0.93595773 -0.9186822
-0.76976764 -0.25618702 -0.5245521
-0.3592558 1.408047 -0.4940329
0.25477114 -0.40449604 -0.2797566
-0.6055347 0.5519147 0.155565
-0.68563294 0.995278 -0.29983178
0.43833563 1.1375916 0.5314544
0.10501458 -0.23967019 -0.75824237
0.24928144 -0.050176702 0.32110864
-0.12650785 0.99488175 0.30578303
-0.5835177 0.913602 0.002493969
-0.8891467 -0.41309896 0.32288414
-0.8575331 -0.40457323 0.9053674
-0.73438287 1.3533683 0.35578245
0.3420738 -0.4180706 0.77293384
0.68263435 0.76761526 0.5482445
-0.5713409 -0.2529451 -0.7883462
0.2342779 -0.22377121 -0.19939193
-0.8936279 -0.4051156 -0.73232794
-0.44014043 1.3094857 -0.7202261
-0.21200271 0.8436953 0.35714054
0.6093687 1.6725494 0.10510452
0.5466665 1.1640909 -0.19975
-0.6087053 -0.2315619 -0.015405895
0.7303101 1.1204295 0.10659252
-0.8951373 -0.40938962 -0.32423833
0.8044567 0.92766416 -0.44900778
0.33791804 0.21661767 0.3492847
-0.6769714 1.5746408 0.09017603
-0.7279792 -0.4150804 0.20994398
-0.37866974 0.7657262 0.77554
-0.74181086 -0.08804178 -0.60608613
-0.21377108 -0.41267988 0.89942515
-0.66738605 1.2740364 0.53324986
0.8785768 1.2424515 0.061254382
-0.7445816 -0.24186766 0.1116252
0.019888584 0.54163265 0.3162414
-0.48833698 1.5474854 -0.081539005
-0.5111126 0.49109676 -0.192018
0.21873765 0.7075116 -0.6960027
0.19536054 0.8957099 -0.7419981
0.2707916 1.262075 -0.8412138
-0.5412509 -0.41683316 -0.52519417
-0.4225159 1.018904 0.5943906
-0.25449872 -0.031477053 0.30377454
-0.9021137 -0.09685752 0.347381
0.095232695 -0.07367069 0.66526294
-0.44760513 -0.2282053 -0.09522054
-0.7013961 1.359829 -0.4370531
0.48201627 0.65931326 0.09566291
0.40244728 -0.03371911 0.017480887
0.19150814 0.277784 0.52214205
0.77900016 -0.23996568 0.11626468
0.51075643 0.7585062 -0.083578855
0.19264892 -0.08146748 -0.88322103
-0.42640078 1.3609545 -0.0002320585
0.5956523 -0.24285139 0.4221607
0.3227202 0.79509753 0.39536467
0.4581301 1.5840302 0.15654328
0.11782156 -0.23501661 0.14680609
0.6757655 1.3103985 0.06627431
0.54954547 1.1835275 0.18321419
0.009357864 1.0248938 -0.6130306
-0.019241173 0.78818274 0.25459588
-0.3948065 -0.41398472 -0.38949174
-0.71983624 -0.0914226 0.62342644
0.543321 -0.41341412 0.32774362
-0.89866865 -0.09319465 0.53952396
-0.6530813 1.5216899 0.28731802
0.022303406 -0.40951836 0.18158264
-0.6747385 1.0103419 -0.62189245
0.74914145 -0.25060195 -0.28802037
0.41978112 0.6215967 0.44041377
0.0063502267 0.9433673 0.90371853
-0.9185608 -0.2720667 0.21988317
-0.21898867 -0.09429923 0.89988035
0.12102491 1.1851041 -0.5411829
-0.8494431 -0.40584195 -0.91404307
0.3396044 0.80513424 -0.17948228
0.26788574 0.57667613 0.3039589
-0.5822505 -0.4083344 0.098098785
0.4872825 0.6592541 -0.43938664
0.17605919 1.6912946 -0.061523914
-0.40678638 1.1418362 -0.3192812
-0.924862 -0.24718447 -0.64520234
0.89353156 -0.08923413 -0.2863992
0.64868104 0.6168763 0.0038755494
-0.7149013 1.1321256 -0.14072418
-0.3006184 0.990615 0.43367258
0.25126028 0.6144849 0.5420574
-0.51437974 1.3257142 0.65802526
-0.038248677 -0.059060227 -0.32457316
0.5238507 0.8647259 0.085164756
-0.54422724 1.3072381 0.17220864
0.14259037 0.70433855 0.36870348
-0.7250113 -0.41742218 -0.424918
0.39074826 -0.4129024 -0.39203095
-0.074836865 -0.08229366 0.7541276
0.16283746 1.1587667 0.8669448
-0.48951167 -0.046951815 0.023230113
0.5427369 -0.42178082 -0.67191255
-0.39895388 -0.08180021 0.62670267
-0.038928397 1.5257429 0.09710464
-0.67978895 0.3886719 -0.0014555756
-0.43567723 -0.40927106 0.0016733923
0.21495318 0.53068465 -0.5767747
-0.65546596 0.3910433 -0.20549348
-0.15479933 1.7579861 -0.45701393
0.46880662 0.5141516 0.2701284
0.5500971 0.9478617 -0.14588211
-0.054957103 -0.23648581 0.09670925
0.5808127 -0.08372344 0.5316514
0.12459667 0.77416396 0.85220647
-0.68828976 -0.41379982 0.5952145
-0.21933347 0.8577106 0.8547263
0.5015007 1.3305156 -0.40912747
-0.88811076 -0.088267535 -0.7350053
0.9031837 1.0211747 0.1252802
-0.606238 1.2201053 0.34703708
0.16379745 1.380368 -0.6283604
-0.08042963 -0.40644372 -0.32238805
-0.30357748 1.1594708 -0.6506064
-0.2705964 1.631177 -0.5929184
0.5860313 0.98173726 0.4914804
-0.40312082 -0.0692825 -0.42497745
0.25353357 -0.17785549 0.92780304
-0.7658999 -0.24326327 -0.7428765
0.68790126 1.2486098 0.27280858
-0.46766728 1.2314677 -0.50698566
-0.34520397 0.9982468 0.21910155
-0.33770835 1.4996802 0.39784035
-0.30467832 0.5378899 -0.74874526
0.075703114 0.82047856 -0.38290453
0.09424794 1.0137115 0.7502804
-0.609367 1.1799634 -0.3254642
-0.042475577 1.567908 0.6718602
-0.22166073 1.6463959 0.3307439
0.027080894 0.42194313 -0.04598997
-0.12574625 1.8796806 -0.1414674
-0.08567314 1.3812847 -0.05739224
0.023976684 0.58356345 -0.17236313
0.04445611 -0.06475608 0.05492261
-0.52515894 0.8803127 0.70988566
0.23053886 0.88619304 0.6906699
0.7254186 -0.41662058 0.22347899
0.42952293 -0.23466302 0.07957651
-0.8696664 0.70389736 -0.021164417
-0.48705864 0.45066217 0.014376188
0.20953222 0.48540473 -0.060196266
0.068464756 1.1514399 0.08236021
-0.40838385 -0.08469834 0.88436186
0.25874406 1.2622418 -0.1701085
-0.37926 1.736592 0.3356936
-0.4935897 0.8074461 -0.75601816
-0.21694511 0.53300107 -0.24136227
-0.9236715 -0.25410557 0.8706445
-0.29784167 0.6919334 0.6058179
0.35995892 -0.41570294 0.4252633
-0.2431751 1.1538937 0.25513452
0.039863966 -0.408692 -0.017828383
0.39123544 0.312626 0.5033277
-0.45014292 0.84997845 0.12472185
0.19084832 -0.41040477 -0.4485082
-0.44390225 0.5675715 0.3326439
0.15889858 1.511305 0.038575605
0.017953783 0.6773913 0.49555635
0.867962 0.7390324 -0.15956765
0.20653611 -0.05657353 -0.09699972
0.68426776 0.37690806 -0.04925671
0.18855667 1.0713336 -0.69568086
0.39420855 0.49647015 -0.6695033
0.099716775 1.0255997 0.5553351
-0.14630567 -0.40779507 0.064413324
-0.18566617 -0.034944277 -0.21064004
-0.5178548 0.6844166 0.6619493
-0.5642181 1.3956287 -0.5895559
0.8977084 -0.4093811 0.12069522
0.81106937 1.3622675 0.20557499
0.56194794 -0.41293752 0.73861766
0.01916374 1.5148826 -0.75251955
-0.24669324 -0.2396729 -0.584302
0.5178311 1.3063025 0.36834788
0.89566666 -0.4089145 0.5338836
0.24601275 1.6729145 0.13596891
0.36018372 -0.088340685 -0.9065561
-0.09947489 1.3723799 -0.83125615
0.139959 -0.07836461 0.8711041
-0.02017057 1.7173289 -0.05269128
-0.23652638 1.8222451 0.23754907
0.2617097 1.700912 0.4889715
0.59609365 1.6048939 0.29961497
-0.5748373 1.0448561 -0.45226315
-0.25480127 -0.088935554 -0.74669707
0.71761817 -0.0836471 0.8764914
-0.72050595 -0.08053526 -0.21904102
-0.4431082 -0.24025106 -0.63528705
-0.49775416 1.7309003 -0.16543895
0.61585057 1.143002 -0.6708382
-0.6209347 0.8772905 0.25364184
-0.33621758 0.9531151 -0.6671585
0.3628904 0.68515766 -0.57367754
-0.092571944 0.7150989 0.67681205
-0.3195696 0.60303307 -0.5668637
0.43355107 0.2000578 -0.18928997
0.87885475 0.81043005 0.17611852
-0.3486584 -0.41322845 0.34895718
-0.37276512 1.4760184 -0.68726814
0.22588184 0.9559321 0.873082
0.7369448 -0.08692239 0.42727852
0.3491416 1.6076746 -0.014298843
-0.9237963 -0.25510216 -0.4265582
0.41396672 1.5698161 0.54201424
-0.13694912 0.30681616 0.57965267
-0.8804604 -0.41427535 0.523462
0.5056405 1.0090003 -0.5471525
0.5112505 0.7924992 0.48245305
-0.31476933 0.2651163 0.4607638
0.5079377 0.767125 0.7073726
-0.15115514 -0.25559062 -0.76190996
-0.7080976 -0.2623424 -0.92711616
0.39012355 1.2805538 0.16740265
-0.08635621 -0.23306414 0.6319933
-0.15953654 -0.092856616 -0.91535676
-0.85630137 0.9234916 0.2740066
0.1159139 0.45001444 -0.25230205
0.5764673 -0.09059946 0.746207
-0.026187759 0.85838175 -0.541803
0.14427583 1.8573139 0.20967317
0.23334336 -0.41559148 0.60495174
-0.4628676 0.46082243 -0.5931232
-0.27975082 0.5448957 0.064300805
-0.61792517 1.5977584 -0.2618873
0.033990026 -0.22928889 0.46557558
-0.637161 0.97262716 0.60400033
-0.77123094 0.75892055 0.3736282
0.7458848 -0.24850297 -0.086021416
-0.26985493 1.2189536 -0.461778
-0.05505076 1.1647232 0.23371041
0.7118994 -0.08568239 -0.38597462
-0.6914686 1.208534 -0.5395426
-0.78729236 0.5534979 0.083809584
0.5724852 -0.072896644 0.3188544
0.22531536 1.494626 -0.48412472
-0.13425466 1.4572855 -0.23748964
-0.299608 1.6630961 0.5098818
0.3833246 1.5175864 -0.34006974
-0.5128467 1.017936 0.3859715
0.33032873 0.35254073 0.042174406
-0.17930943 0.3172326 0.22693884
-0.40591618 0.84461725 0.534006
-0.07354054 0.7040317 -0.28358185
0.3182209 -0.23746243 -0.77610636
-0.12604702 0.65142107 0.35235432
0.6197805 -0.26800567 0.07477458
0.6476795 -0.24153164 0.24792592
-0.4291555 1.514493 -0.31771794
-0.18437466 1.5096463 -0.7385541
0.10453777 -0.41121188 -0.61680746
-0.18578291 0.872614 -0.9014953
0.6456531 -0.24527471 -0.91810477
-0.6125331 0.46384126 0.37421918
-0.5924912 -0.25384328 0.25726193
0.5672064 -0.41485298 0.5200343
-0.14967814 1.059871 0.07535873
0.288526 1.2351328 -0.6571212
0.028416738 0.8536309 0.6417281
-0.69340605 1.047039 0.27855507
-0.14943571 0.56392324 0.54579556
0.89625067 -0.09013632 0.7312466
-0.60226095 1.5190375 -0.42673704
-0.58821833 -0.08605771 0.3442827
0.41581866 0.24053228 -0.36593646
0.31451088 1.2399212 0.6386314
0.26087838 1.3361466 0.7905849
0.6939188 1.0386288 0.29508948
-0.15584117 0.6644399 -0.08191759
-0.12538314 0.6736133 0.13747543
-0.621552 -0.25042614 0.4681735
0.1521105 0.7348579 -0.22976547
0.9179572 -0.2502042 0.6442493
0.12869021 1.1322453 -0.90843946
0.41137224 -0.23789021 -0.28796855
-0.5372541 0.2597252 0.1117221
-0.48591176 -0.25987852 0.5892815
-0.3231916 0.51993895 0.47789484
0.92492294 -0.25129718 0.43773043
0.5925926 -0.25217742 0.6425097
-0.5664419 1.1958622 -0.00430524
0.5334684 0.9981654 0.21583253
0.8569511 0.9565313 0.31398487
0.17695612 0.3788492 0.34032148
-0.37342453 0.60323864 -0.33066022
-0.77122855 -0.25783443 0.53978
0.18291292 1.8282224 -0.32528743
-0.043756712 1.6502898 0.29562795
0.5446434 -0.087308735 -0.9085454
0.24855755 0.41995063 0.64542294
0.09446049 -0.26135486 0.9230536
0.6546385 -0.08393363 -0.7345384
-0.008391015 1.1669185 -0.31707543
-0.050497394 0.10977486 0.02144457
0.45967895 1.199544 -0.7765923
0.14725229 -0.057633206 -0.29786652
-0.7870208 -0.25379786 0.7327626
-0.74113667 -0.08636777 0.434516
0.51249933 1.0679133 0.7216217
0.18773426 1.1642956 -0.32619148
0.08710784 1.2582316 0.2912923
-0.35425836 0.5556251 0.6972399
0.58084166 -0.23165673 -0.21247256
-0.20736632 1.0525346 0.86077857
0.78291166 1.116509 0.4431823
-0.57089424 0.69667673 0.29573172
-0.20871451 1.7348852 -0.06384962
-0.61984164 -0.40423593 0.90393484
0.23720974 -0.22970492 -0.39008835
-0.5642962 0.40358186 -0.41602385
-0.47384042 1.6946127 -0.34588176
0.77976775 -0.2522313 0.33916795
0.9136435 -0.24338534 -0.5914875
-0.1662702 -0.065150216 -0.0006852825
0.029606145 1.2048917 0.5103269
0.33105838 -0.052695416 -0.3602904
0.6129426 0.92170715 0.66082096
0.5308689 1.477454 0.018880013
-0.7062731 1.0767074 0.04539249
-0.41778737 1.129611 -0.80844176
0.8960537 -0.40973043 -0.085047975
0.7044953 0.60058224 0.44171992
-0.1439426 0.49241245 -0.55442685
-0.3377006 0.38134336 0.32714427
-0.34170848 0.4735867 -0.45126832
0.06160442 -0.24438429 -0.35865724
0.717114 0.7553515 -0.5520129
-0.5004835 0.8876508 -0.5496607
-0.049969565 1.135884 0.6881738
-0.68730676 1.2158297 0.16033235
0.274445 -0.08004429 -0.69851124
-0.8938354 -0.40758044 -0.5326903
0.029914722 0.59462583 -0.6602135
-0.2616642 0.8848841 0.6545397
-0.037369885 0.678107 -0.49212068
0.89113486 -0.40776932 0.73381525
0.23189616 -0.053466626 0.10933378
-0.21325353 0.65528667 -0.42078793
0.03304036 1.5301259 -0.11654085
-0.44327492 -0.23415133 -0.2897507
0.8994265 -0.089493245 0.53045464
0.8865462 -0.4002965 0.90669084
-0.06349635 1.1916207 -0.07082665
-0.4791671 0.6831285 0.4780059
0.54202604 1.6237078 -0.38979793
0.30679002 -0.4049006 -0.91528124
-0.3239469 1.4603739 -0.14863667
-0.5125747 0.29063576 0.30405498
-0.36728463 0.8039863 -0.407102
-0.14004564 -0.41079807 -0.90862715
-0.19231778 1.4962652 0.24794087
0.4478289 0.74978787 0.2547365
0.26764393 1.5350575 0.6623186
-0.36253983 -0.4133821 0.54414356
0.5750052 0.5381088 -0.32153732
0.20700642 -0.41305268 -0.7541728
-0.16977519 1.6774683 0.123348296
-0.53435385 -0.064467564 -0.15570867
0.5365478 -0.10114604 0.91536725
0.7656376 0.48735523 0.095755965
0.54099405 -0.042698972 -0.120195374
-0.20888121 -0.25483507 0.759693
-0.045279972 1.0059818 -0.93573517
0.11691451 -0.41801047 0.7460959
0.27001706 -0.22664812 0.009686407
-0.33854896 -0.4108669 0.14974076
0.2744382 0.33345473 -0.21206987
0.009450851 0.80226076 -0.9039928
0.24830142 -0.2484281 -0.60360545
-0.12497135 1.4211736 0.7674751
-0.082454704 1.693772 0.5404712
-0.23931827 1.1031958 -0.8859668
-0.44922388 -0.2457454 0.40594643
-0.19892305 1.8718228 0.06197022
-0.12996571 -0.24343626 0.47201174
-0.3461402 0.7697123 -0.63774985
0.10295589 0.64488983 0.17626104
0.22642505 -0.25978935 0.7724444
0.93238604 -0.24669081 -0.7805445
0.44258866 -0.251127 -0.6213131
-0.29858947 -0.23553483 0.025431368
0.277688 1.2724948 -0.4679156
0.7233865 -0.3998125 -0.9186965
-0.74448687 1.4359964 -0.25978744
0.051614366 1.6968 0.12123295
-0.33448008 0.3629751 0.12069167
0.14277461 1.6253122 -0.6466152
-0.9231489 -0.26155436 0.42848858
0.44783014 -0.24194431 0.524601
0.402031 -0.24114868 0.35452312
-0.9110012 -0.10839712 0.16995212
-0.48472553 0.62701523 -0.698763
0.47204465 0.22590345 0.16298783
0.41868043 0.42542025 -0.30990893
-0.32097453 -0.045084797 0.11744191
0.0045929933 -0.05245202 -0.49200642
0.7043094 0.80765796 -0.027213268
-0.40426382 -0.24005115 0.75188386
-0.22427395 0.31065813 -0.19726601
-0.066421926 -0.22978622 0.28941318
-0.24758865 1.4547071 0.061303847
-0.4186288 0.86887205 -0.113440275
0.7831476 0.60534716 -0.29844442
0.9012258 -0.08717799 -0.48588866
-0.311952 1.1696801 0.46509898
0.14042181 0.7095901 0.6703073
-0.32314414 1.38252 0.734501
0.55609524 0.45733184 0.46210617
0.2692867 0.5637402 -0.23331606
-0.6404135 0.7747513 -0.62553513
-0.15685183 0.21914953 -0.503698
0.38134903 -0.4127651 0.015112758
0.089318156 -0.4065709 -0.9093524
-0.16094795 1.2489065 -0.2413199
-0.71829164 0.75782555 -0.051064327
0.42556345 0.4752562 0.5996014
0.010350056 -0.41302434 0.9047848
-0.028522111 1.1282718 0.8830155
0.45291883 1.7532823 0.19866627
0.40560746 -0.05032139 0.2192769
-0.42607296 1.1843117 0.29713956
0.07385474 0.41464698 -0.72649246
-0.44563174 0.6343756 0.12438017
-0.20475611 0.87117964 0.17455004
-0.04236691 0.2535228 -0.10702106
0.26409286 -0.087292895 0.7232543
-0.9018641 0.89663506 0.055586163
0.4759965 1.2439597 0.72524726
-0.7361877 0.906381 0.11536561
-0.044222526 1.8520241 0.2360056
-0.7299603 -0.08571981 -0.90077865
0.40043202 -0.41343465 -0.17848119
-0.06574029 0.39612484 -0.23213448
0.12735021 -0.23890314 0.6056571
0.8944798 -0.091053694 -0.08778972
0.88676214 -0.082033515 -0.70301175
0.5565703 -0.4119755 -0.28563806
-0.1593753 1.259064 0.6216807
-0.48626933 0.9360646 -0.31748646
0.3444091 0.9314203 0.21030144
-0.29617652 -0.23903325 0.5719738
-0.37937936 0.3985052 -0.2863925
-0.39040273 0.29358917 -0.47959685
0.3964327 0.66890067 -0.7790197
-0.62752235 0.5749613 -0.53923905
0.59077585 0.6626072 0.34319997
-0.6728911 1.586482 -0.097323686
-0.08888175 1.3240466 0.41211808
-0.6086695 -0.090209976 0.1430082
-0.7289604 -0.08371417 0.79828864
0.49399334 -0.23377678 0.22663748
0.023568206 0.09614352 -0.19758312
0.21200222 0.38820606 -0.4094903
0.20403442 0.7308941 -0.8746224
-0.06553366 1.6588624 -0.62608564
0.72977495 1.2991924 0.44755495
0.34139022 0.5338736 -0.43918508
-0.363327 -0.044820763 -0.2577176
-0.83995664 1.2577641 0.22269478
0.18328491 0.8401363 0.51007545
-0.08274944 0.32578075 -0.64327645
-0.38781786 0.18448311 -0.16612962
-0.8315524 0.8693808 -0.33732316
-0.54022664 0.5805852 -0.3747878
-0.4263218 1.5031943 0.59132874
-0.15634808 0.4753074 -0.061804887
-0.14644448 1.7867223 0.40073282
-0.9223062 -0.25977796 -0.21695995
0.55918545 -0.40153873 -0.07512659
-0.8728837 1.0576074 -0.2502164
0.8571991 -0.24927111 -0.92888427
0.45416528 1.2008232 -0.5527468
-0.19831361 0.374946 -0.39528975
-0.3675338 0.5935348 -0.10796952
-0.31112295 0.71758777 0.219681
-0.11675952 1.0382512 -0.16965047
0.09959597 0.26633102 -0.24675563
0.57855296 1.1419909 0.40362135
0.7520485 -0.25297517 0.5405431
0.893533 -0.40789118 -0.68540347
-0.05445975 0.9932753 -0.39507216
-0.3545558 0.3824141 -0.08733806
0.3314439 1.5559493 -0.64905214
0.40777418 -0.23522669 -0.105145976
0.36916018 1.7579992 -0.35028744
-0.17088437 0.1970717 0.3897527
-0.23295212 -0.06899784 0.50907695
0.21495017 -0.40441185 -0.09621653
0.14700866 0.11255692 -0.0471472
0.669772 0.745656 0.16720459
0.3130189 1.8341302 -0.14189053
-0.890307 0.8725138 -0.14776519
-0.027891004 -0.09956286 0.91301334
0.90795964 0.87648875 -0.024856484
0.013384723 0.59925544 0.025524125
-0.2536615 -0.08468942 0.7118983
0.4147498 0.40289056 -0.11607921
-0.3496168 1.6214339 0.014714444
0.38461062 0.6000687 -0.063943505
0.19777127 -0.24952978 -0.9251578
0.09031361 0.999926 -0.24790385
-0.27745727 1.8208907 -0.27047363
0.5586647 -0.08548854 -0.52925014
-0.34782863 1.3551763 0.18886557
0.3997283 1.6363716 -0.5017977
0.580238 1.1357485 -0.41293752
0.9017726 -0.0900833 0.11267488
0.6281729 0.8579068 0.3250947
0.61581147 0.55478656 0.17564401
-0.30506745 0.39884633 0.60585
0.18944383 1.6175151 -0.36213923
-0.42483604 -0.4088657 0.89434594
0.11210838 1.3715794 0.4268813
-0.73090965 -0.24945891 0.9181643
0.36576432 0.86358535 -0.84666073
0.57593626 -0.24338092 -0.40874404
0.69426435 1.0502126 -0.26353005
0.5338502 1.505003 -0.5549607
0.3338518 1.4600213 0.14600281
-0.8237033 0.7011248 -0.23972538
-0.78197515 0.5407696 -0.12674373
0.39508694 -0.4115858 -0.7598736
-0.63912284 0.65284264 -0.22120304
0.6958625 1.4503629 0.33760577
0.7224802 -0.4162751 -0.18180743
0.7134012 1.5283374 0.14472896
0.73600507 -0.08582069 0.6467645
-0.6144036 -0.25743002 -0.61403996
0.018681116 0.9853687 -0.034497954
-0.25081792 -0.40606552 -0.26043338
-0.35730502 0.19256127 0.2522964
0.19368947 -0.062276974 -0.49967712
0.18835506 0.5595498 0.7702396
0.053707752 1.7574546 -0.4839788
0.44219953 1.0038826 -0.30414602
-0.64412236 -0.08378318 -0.7411107
0.1376409 1.6513457 0.30933213
-0.5451329 0.267932 -0.08773102
0.30981913 -0.24370585 0.61546135
-0.040345028 1.8433247 -0.31959856
-0.30163676 0.69185936 0.412458
-0.3627888 1.5823406 0.20743734
0.89876866 -0.41005698 0.3264354
0.21647978 1.1138067 0.23439664
0.0256898 -0.24069905 0.76430166
-0.798874 1.2300769 -0.34091553
-0.53272295 1.0489295 -0.16590956
-0.5136442 1.1561487 0.50788367
0.2567411 0.7517611 0.20049357
0.6457881 0.7369565 -0.37645268
0.5664103 -0.18132125 -0.044580262
-0.6673324 0.39754325 0.19237052
-0.6044234 0.8013445 -0.3904419
-0.30160362 0.7531924 0.0150356125
-0.32786432 1.7171845 -0.43026286
-0.85421205 1.2631419 -0.16051579
0.18067156 0.8864198 -0.099762455
0.6431657 1.6003214 -0.24258065
-0.93134284 -0.2560357 0.634601
0.48115343 -0.41511974 0.90456617
0.7043847 1.1815692 -0.08794002
0.14994468 1.4777229 0.23224857
-0.3427338 -0.03913276 -0.07493387
0.02503496 1.3068645 0.82510173
-0.7903948 1.433306 -0.055808704
0.06387204 1.0657871 0.36785424
-0.21636382 0.8322767 -0.52845705
0.07311768 -0.05791027 0.25653598
0.15268858 0.49811083 0.47277385
-0.12560174 -0.41276535 -0.60798764
0.2509387 1.5037582 0.44701198
0.89922994 -0.40718797 -0.4855563
0.18807349 1.383806 0.59001946
-0.44567317 1.0392747 -0.003802093
0.38111377 1.3436112 0.49331164
-0.16029865 0.4252687 0.3999172
0.13481139 0.4624129 0.14069365
0.43112344 1.3437238 -0.20186253
0.73006564 -0.41921753 0.02114689
0.04574401 0.546085 0.6281252
0.055783965 1.5516965 0.46630365
-0.27148902 1.3256543 0.3597504
-0.06497972 1.1960182 -0.89535475
-0.32101297 0.7269043 -0.8241778
0.11803833 1.6449702 0.60350096
0.5779401 0.36600178 -0.39986873
0.8948004 -0.40937516 -0.2858197
-0.5703515 -0.41340023 -0.315418
0.002273811 0.33665225 0.30075908
0.033994798 -0.09270893 -0.9141218
0.57110167 1.0566646 0.01120078
0.073354185 1.7859768 0.41836074
-0.7195693 0.5254036 -0.33469915
-0.1846081 -0.4095987 0.6083461
0.5545585 1.4006736 0.1924001
0.22528112 1.1936786 0.46157697
-0.3797148 0.18135276 0.031746257
0.5383656 0.81165904 -0.53970027
0.020047348 0.9795991 0.17743939
0.76078653 -0.24287082 -0.73891973
-0.16190827 1.5616761 -0.06874901
-0.31795922 -0.41563487 0.7353081
-0.086494476 -0.414422 0.7528119
-0.61461747 -0.25519305 0.72162664
-0.14984359 0.8475754 -0.71819115
-0.24908945 -0.260059 -0.9231826
0.7294216 -0.41386878 -0.5793501
-0.5976903 -0.24686795 -0.42198014
0.7977165 0.6205436 0.24384628
-0.13586856 -0.07217938 -0.5979595
-0.031254444 1.3570173 -0.6264084
0.6895758 0.565851 -0.46767366
-0.36713547 1.1764975 0.08354563
-0.17543434 0.86783564 -0.35178638
-0.54947937 -0.09171134 -0.9146341
0.26844144 1.0065253 0.43098634
-0.8408302 0.7367042 0.18216386
-0.27397197 -0.22319813 -0.372949
0.5288011 -0.41187492 -0.89815223
0.3951155 -0.23177364 -0.4656039
-0.69921803 -0.41875315 -0.7988235
-0.3191685 -0.25461984 0.92194986
0.37631416 -0.41077465 0.21658652
0.015434889 0.76223284 -0.07987285
0.05170268 0.45793927 -0.52967584
0.7903129 1.4455135 -0.007182004
0.6991476 -0.41717327 0.8783264
0.53599715 0.24424373 -0.017550677
-0.56139064 -0.07663624 -0.34172654
0.650853 0.6792063 -0.1848402
0.49626422 1.7224826 -0.20860772
-0.116670296 1.1895317 -0.70510626
0.6771961 0.45295978 0.30163535
0.042142577 1.5162876 -0.5214495
0.8957815 -0.40581715 -0.88038874
0.5656829 0.6311698 -0.6419624
-0.7482449 0.58201736 0.2826011
0.44669724 0.95556045 0.37542892
0.54590786 -0.25716534 -0.7749752
-0.35470474 -0.089901745 -0.9111856
-0.117758304 0.4806978 -0.76231
-0.004018005 0.42092878 0.4890589
-0.2159755 -0.22134665 0.17994978
-0.2652434 1.2988917 -0.091273665
0.00011047639 0.58465457 0.80444556
0.16338143 0.90396917 0.28844678
0.33967578 0.43999773 0.4231886
-0.92246896 -0.25347853 0.004535986
-0.0045906617 0.32985288 -0.4113627
0.10176943 1.466816 0.7489385
-0.8403652 1.2577808 0.027670681
0.36227104 1.0451233 -0.66849685
-0.095356345 0.8499203 0.040829167
-0.6349721 0.8435399 -0.19808853
0.57531846 1.4808996 0.48937917
0.009946613 0.2199659 0.4838211
-0.51437104 -0.41951346 0.7057812
0.72079706 0.9273225 0.13094696
-0.32272255 1.6410402 -0.20505038
-0.61997795 0.5719328 -0.04123559
-0.18671285 1.2452779 0.068803936
0.49613965 0.8145361 -0.29297036
0.9029734 -0.0903529 0.32273692
0.24866222 -0.2350357 0.4412579
0.24919915 0.92191994 -0.32814908
-0.5095797 0.51557803 0.5663903
0.08855441 1.8790944 -0.15640911
0.049891144 0.3728767 0.6707653
0.075547665 0.25480843 -0.56900537
0.49640933 1.262409 -0.003047304
0.35215607 0.75268215 0.59936035
0.6237173 -0.24987628 -0.60480106
