0.5769633 2.7560155 0.63321114
0.4558198 1.9313049 0.0717469
0.4451311 2.944667 0.39283228
0.75253725 -0.25140905 0.75410324
0.36980543 2.3961697 0.6111295
-0.6135187 2.3775601 0.43550533
0.021306537 1.6569705 -0.3831557
0.6383337 2.5711145 0.6499959
0.28061223 3.2241814 -0.4712283
0.78674173 -0.2493034 0.9321856
0.453761 -0.085524306 -0.7278476
0.0043525314 -0.41693687 -0.46271724
0.021075103 2.8408313 0.13770224
-0.74986994 2.501647 -0.09589078
0.2822119 2.8199348 0.36020416
0.09357111 -0.24707413 -0.52606785
0.2985595 1.8627393 0.21830663
-0.34465057 -0.085340634 -0.5782442
0.11276877 2.1067557 -0.370372
-0.9049125 -0.09682682 0.7372108
0.44940713 3.1599293 0.43725237
-0.61325526 2.9253023 0.030197075
-0.49127576 -0.25486535 -0.92477405
0.43295172 -0.08235598 0.64366937
0.22220296 1.8653002 -0.62014484
0.85635835 2.7801301 -0.06653434
0.87382245 2.629974 -0.18153378
-0.2893461 2.47314 0.022546403
-0.21816385 3.078464 -0.3442462
0.19937037 1.6319509 -0.23382854
-0.44429648 2.7774618 -0.142586
-0.75594497 2.259987 -0.45116678
0.002687735 -0.08584139 -0.121061146
-0.752678 2.9623704 0.17107926
-0.72178715 -0.084603496 -0.40639886
0.3199678 2.573627 -0.4537126
-0.58697075 -0.41582513 -0.09017634
-0.40589023 2.747507 0.6910917
0.09280792 2.8450508 -0.4039393
-0.29432255 2.2578053 -0.23446149
-0.05594876 2.7153091 -0.4852912
-0.26592386 2.576825 0.6707818
-0.7637186 -0.07665591 0.22280648
0.21979973 2.0515366 -0.7687702
-0.070182964 -0.0886711 -0.7630928
0.75387955 -0.2500587 -0.49541193
-0.56954783 2.634338 0.7131393
0.5929837 2.8320687 -0.60155594
-0.10962874 -0.24844846 -0.4573192
-0.16323987 2.562673 -0.74042386
-0.10969277 -0.08149157 0.1944989
-0.787924 2.6313858 -0.43888113
0.3774333 2.4315164 0.0017692428
0.13340849 2.8399835 -0.017727904
0.20133232 2.4088063 -0.52748144
0.9208475 -0.24833378 0.005921205
0.041279875 2.1333497 -0.8352332
0.82555 2.2658396 -0.33201748
0.68286526 3.0869572 0.00030128122
-0.24297605 1.6193192 -0.112938955
-0.44794744 2.8511832 0.48354852
-0.13180825 -0.24431968 -0.2533777
0.847921 2.634085 0.31768465
-0.7153944 -0.42060804 0.7790959
0.31985706 2.574051 0.8506041
-0.5061654 -0.41981757 -0.7195071
-0.7443985 2.4528625 -0.507926
0.12860465 1.7653966 0.16977718
0.25745904 2.2073598 0.82695425
-0.5545546 -0.08554782 0.56504226
0.7489954 -0.08845928 -0.5909623
0.8245399 2.6123462 -0.35623756
-0.13322759 3.0282965 -0.5110343
0.30358183 1.6394186 -0.027435934
-0.042575117 -0.41450876 -0.765813
0.73693657 -0.41771466 0.64164823
-0.14252022 2.2092257 -0.84929097
-0.49448013 2.2504508 -0.5193421
-0.025833815 2.369735 0.42473418
0.5653695 -0.08470137 0.10820795
0.21810654 -0.41659105 0.29755953
-0.35742402 -0.41828775 -0.57180583
-0.37713027 2.6576316 0.82110703
0.11192073 2.868826 -0.82081556
-0.8957962 -0.09957731 -0.90714693
-0.7889223 2.4736695 0.44706628
0.09447445 -0.41991627 -0.24954653
0.38412595 2.5727582 0.14387968
0.46426004 1.7895689 0.33306825
-0.05618795 -0.08255619 0.5738772
0.11372402 3.1925986 -0.20033717
0.1116146 2.6506343 -0.096193045
-0.76014066 -0.2392489 0.33069456
-0.5087602 3.204319 0.25322908
0.41682416 2.6102316 -0.07161996
-0.5256175 1.8961062 0.43350044
-0.8754432 -0.084915996 0.03619369
-0.5308191 2.2497559 -0.042560853
0.7382642 2.5852633 -0.5115893
-0.21652898 2.871548 -0.5932471
-0.2205791 3.0526757 0.6810259
-0.34970498 3.313972 0.16095921
0.5448781 2.3103068 -0.7098223
0.3189164 3.0698793 0.34403026
0.6764978 2.4320745 -0.6072266
-0.3930009 -0.089600116 0.45932186
-0.61665845 -0.09280093 0.9172367
0.41590095 -0.08381643 0.43455273
0.6087179 -0.2627804 0.8988756
0.92206055 -0.2463367 -0.39094043
-0.8955959 -0.40948856 0.12200911
0.7464893 2.472733 -0.031558923
0.9163239 -0.24808562 -0.19387597
0.51506317 1.9809061 -0.52774096
-0.5275624 -0.42013162 0.48082292
-0.16268954 1.6628644 -0.303434
-0.7005446 -0.41510895 0.40787402
-0.13321951 1.9649951 0.13705423
-0.34472835 2.5502481 -0.4455777
-0.8997751 2.636437 -0.0458256
0.017978929 -0.41657746 0.58217514
0.121060476 1.7631207 -0.033483386
-0.69457483 -0.07873642 0.002992081
-0.71567494 -0.4168116 -0.6090267
0.033154435 2.3119764 -0.69089925
-0.89563835 -0.40777713 0.7253354
-0.9011837 -0.09207995 -0.5142262
-0.61107206 -0.25175244 -0.19681856
-0.34699267 2.5003843 -0.8428345
0.4187442 -0.25469166 -0.924997
-0.5918963 2.9796095 0.49566543
0.01204038 -0.4172932 0.3799601
-0.2667372 2.1285021 0.793257
0.33953995 2.5797508 -0.83708394
0.40599543 2.9091554 -0.50349057
-0.52190936 2.9627612 -0.16273665
-0.5133704 -0.24515843 0.91213155
-0.5001466 -0.2503533 0.1320554
0.6188067 2.4345431 -0.37624997
-0.004330612 2.9574442 0.32560328
-0.055911936 1.7693546 0.0932045
0.0857739 1.6502784 0.3328787
-0.27714205 -0.41767222 -0.7428298
0.41435623 -0.2702632 0.92100567
-0.25967112 2.8901405 0.57342815
0.39045697 -0.0849264 -0.5339415
-0.17096731 2.570819 -0.53566
0.83495295 2.152215 0.06619023
-0.47650334 2.953886 0.32918942
0.38383466 -0.076626584 0.873939
-0.10396767 2.2313762 0.8570765
0.25961143 2.8805842 -0.2826864
0.30298 3.279552 0.35631728
-0.37498897 -0.25244257 -0.77068645
0.7368872 -0.08160588 0.21210884
0.27044117 2.5380054 -0.13621302
0.37627333 2.3642182 0.8143456
-0.47710776 3.1313276 0.44351995
0.5595951 -0.42290634 0.12930433
-0.71618164 2.6320004 0.53024316
-0.15922555 2.6527581 0.4603555
-0.04296068 -0.24937019 -0.6337174
-0.54132676 -0.0852932 0.75308144
0.7809357 2.942797 -0.14693344
0.17043641 2.163021 -0.037490733
0.90909314 2.5664225 -0.013960376
0.53273565 2.0124712 -0.10727525
0.58175683 2.9336271 -0.23750842
-0.08703819 3.192439 -0.20597126
0.375563 1.8467829 -0.5096426
-0.084338784 -0.41663617 -0.1295871
-0.7411431 -0.4155923 -0.2003405
-0.26432735 -0.4169226 -0.04509497
-0.28714132 2.056599 0.23867026
0.9005865 -0.088916704 -0.89781886
-0.38945508 -0.41171578 -0.8992985
0.12605217 -0.25500423 0.31894016
-0.8956541 -0.09136754 -0.3160491
-0.025580892 2.3870263 -0.19714177
-0.21270172 1.9522338 0.69039345
-0.6719971 2.2730303 0.116320714
0.027758967 3.3986192 0.08303506
-0.10102102 2.8906069 -0.38266772
0.9238627 -0.24675857 0.22055835
0.17239918 -0.41426024 0.4695654
-0.055535745 -0.25655752 -0.9156327
-0.9182078 -0.25993556 -0.8627428
-0.15033904 -0.41499805 0.26692438
-0.70514405 2.1432703 0.4537755
0.030326646 2.5238552 -0.76325744
-0.26200196 2.858642 -0.79195917
0.7052753 2.3525436 -0.1981219
-0.33070195 1.7266643 -0.36736625
0.63162833 2.8597102 -0.06467722
0.45534247 -0.23948985 0.75596714
-0.026904305 2.8712626 0.63176465
-0.42001635 3.129952 -0.49369738
-0.11479606 -0.25160086 -0.05042121
0.7315239 2.3908522 0.53695333
-0.2568165 1.6270409 0.11603294
-0.16871494 -0.42114845 0.45401114
0.2592618 -0.08399527 0.5404104
-0.29038173 2.6459444 -0.09632765
-0.30696625 2.8723118 -0.28046626
-0.5054264 2.8916674 -0.3394165
-0.41662204 2.4699264 0.8063991
0.30062014 2.0511904 0.73576736
-0.54983497 -0.08493066 -0.5316168
0.08102616 -0.08325113 -0.66576976
0.19924732 2.4740825 0.094696045
-0.8163353 2.6820052 0.37544647
0.37234616 2.386739 -0.6293669
-0.70344174 2.3049684 0.5597672
-0.4534204 2.6349206 -0.59006655
-0.13261893 2.4885492 0.5430213
0.041463394 -0.25980878 -0.18198676
-0.7715996 -0.24214897 -0.09100145
-0.021053068 3.1291726 -0.36497498
-0.32625335 2.4959288 -0.2223486
0.24683079 2.5291228 0.6802418
-0.25108957 -0.25398248 0.38273394
-0.5112269 1.9808195 0.17492566
-0.5352815 2.5832887 0.18640399
0.23884675 1.6262474 0.1540148
-0.135452 2.8460438 0.2300336
-0.9018526 -0.4048665 -0.09305032
-0.598096 -0.40799224 -0.9119568
0.5353168 2.070754 0.594533
0.08636378 2.7276688 -0.6935793
0.24969602 2.9789963 -0.7335516
0.43465745 2.9034185 -0.69078517
0.057464305 2.834704 -0.1926177
0.3540973 -0.084741786 -0.1875357
-0.50893676 -0.42244858 0.27073652
0.102390654 -0.08321132 0.45265
0.05404142 1.5953035 0.13822687
0.88710105 2.4325812 -0.20285265
0.68396837 1.9347038 -0.23426598
0.7301043 -0.08656858 -0.90555525
-0.43291074 -0.25604254 -0.46089578
0.20687667 3.3735056 0.052632295
0.09769579 -0.24185759 -0.029297052
-0.21501973 -0.4149592 -0.44123054
0.40683746 2.1391652 -0.22848794
0.37612432 2.6298745 0.36267698
0.3295241 -0.42171693 -0.59534925
-0.2844628 1.9131866 -0.641708
-0.5049419 3.2488427 0.056213375
0.44088787 -0.41249907 0.6213465
0.52054524 3.2348237 0.031270098
-0.07666437 -0.086435646 0.3837818
0.3889421 2.3798194 -0.42522877
-0.31146997 3.3573751 -0.039184242
0.251257 -0.4029706 0.91053414
-0.2045182 -0.08307174 -0.40344635
-0.099160716 1.6237814 0.24456356
0.15182894 2.2335072 -0.5122615
0.38884753 2.6786864 -0.29044172
-0.6485357 2.840814 -0.14438304
-0.28353977 -0.25150746 -0.15048628
0.8254379 2.799559 -0.28305882
0.54291993 -0.41326857 -0.5088895
-0.44972998 2.3700202 0.32235086
0.11885958 2.538464 -0.4230297
-0.37467515 -0.26168653 0.2419016
-0.440035 -0.08842804 0.26254678
-0.20288262 2.614948 -0.3185984
0.89559007 -0.09494393 0.9044942
-0.086577505 2.0418253 -0.3668955
0.92867017 -0.2498272 0.8453237
0.081263825 2.9986398 -0.2781443
0.22547156 -0.4156979 0.10446953
-0.13237926 2.4252353 0.7396451
0.36285496 3.3196323 0.11885981
0.20890243 1.720561 -0.428185
0.6785753 2.7546802 -0.23816876
-0.48395488 2.268777 -0.2473816
0.42192414 2.8798883 0.71066767
0.7393253 -0.4162798 0.42536515
-0.56995845 2.7539976 -0.6686963
0.5193676 -0.08264281 -0.33780244
-0.53525233 2.5445538 -0.7385982
0.72151744 -0.41629928 -0.39872384
-0.89592075 -0.09260182 -0.1279941
0.7775477 2.0295594 -0.08284459
-0.8666931 -0.095969066 0.9126785
-0.88224316 2.6310406 0.16096713
-0.20613445 2.369988 -0.13044909
0.27555713 2.0475798 0.11517182
-0.23315884 1.7958031 -0.0025343131
0.33087078 3.1515384 -0.16909844
0.2964205 -0.24971071 0.21879373
0.06852533 2.3083696 0.087744184
-0.18836692 2.292832 0.51992106
-0.09550585 -0.26037067 0.91548836
0.5233912 2.5032012 -0.74687415
0.7169609 2.7796326 -0.46631142
-0.122694485 3.0120718 0.49609718
0.20765708 2.802583 0.16661718
-0.19628006 2.7336335 0.85126853
0.26543045 2.6694872 0.042792276
-0.15886834 2.213088 -0.65004313
-0.5227297 1.8145878 -0.31375158
-0.7509515 -0.4133696 0.008433655
0.10567784 2.6928036 0.70341027
0.7136483 -0.08539846 -0.20257619
0.7216311 -0.08311953 -5.936958E-05
0.48379755 3.0284734 -0.104014575
0.7017052 -0.4148159 -0.7652149
0.30110055 2.2676642 0.061493814
0.24998651 2.9881406 -0.12785316
0.5448615 1.8021591 -0.20194267
-0.4814583 -0.08471651 -0.7254799
0.5828084 1.8156455 0.16022891
0.28357834 2.237781 -0.3602321
0.70783436 2.9509225 -0.35902518
-0.47616628 3.035361 0.1389758
-0.7653914 -0.24812728 -0.3031803
-0.42026597 -0.41684917 -0.16630094
0.76921034 2.2472641 0.39188787
0.35047895 2.880586 0.013645728
0.17433944 2.4627433 -0.8988482
-0.77127427 -0.2532634 -0.50998044
-0.33682078 2.9540863 -0.46430373
0.26754296 -0.41231012 -0.28268373
-0.63842154 2.0983863 0.11230441
-0.6856047 2.5520709 -0.2939039
0.4182256 2.6050262 0.57237875
0.08588025 -0.24150899 -0.7683604
0.25240803 -0.086346984 0.32903194
-0.14113489 2.5080407 0.32024002
-0.5946071 2.4502232 0.00653282
-0.88753974 -0.412888 0.33734304
-0.85407054 -0.40687847 0.9068631
-0.7252883 2.8934617 0.3632562
0.36362934 -0.41864735 0.77938855
0.65439177 2.2206912 0.5664455
-0.58593214 -0.2533095 -0.7783034
0.2311878 -0.24170494 -0.18770942
-0.89612323 -0.40490854 -0.72047687
-0.4265435 2.8672695 -0.69303316
-0.243673 2.364839 0.36739376
0.61916816 3.1467836 0.16986236
0.5474931 2.662642 -0.16415384
-0.61627626 -0.24234465 -0.0022486835
0.7240355 2.5889044 0.15630963
-0.8966017 -0.40780163 -0.3046137
0.8044381 2.4262476 -0.41479588
0.27687564 1.7007954 0.34241945
-0.6524098 3.1180015 0.11968298
-0.7303562 -0.4152581 0.2263664
-0.42041948 2.25699 0.76982737
-0.7368603 -0.08565438 -0.5897997
-0.19782817 -0.41455203 0.8948638
-0.67572343 2.8035388 0.53794265
0.87646985 2.712748 0.12003222
-0.74506986 -0.24414837 0.12834686
-0.023270294 2.0390642 0.3005454
-0.4585339 3.085724 -0.053653993
-0.52372646 2.0298653 -0.2293976
0.21682608 2.2296681 -0.68256336
0.19504696 2.416625 -0.72287196
0.29236078 2.783884 -0.809142
-0.5480199 -0.4165929 -0.51117074
-0.444497 2.5297709 0.6092127
-0.2576272 -0.086272135 0.31607503
-0.9014293 -0.09503168 0.3641341
0.10349117 -0.08373286 0.6686169
-0.45094028 -0.2515015 -0.068347305
-0.683588 2.9259791 -0.41242522
0.45719793 2.1363654 0.10994787
0.39184606 -0.082602926 0.007518413
0.1264131 1.7580397 0.5097038
0.7827823 -0.2429691 0.110495605
0.49004075 2.244946 -0.055044018
0.17055118 -0.07835646 -0.87778604
-0.41553882 2.8864577 0.02081219
0.608261 -0.247641 0.42091238
0.30463398 2.289658 0.41789833
0.47361633 3.0613842 0.21819927
0.13223273 -0.25232297 0.14540058
0.6790809 2.7856174 0.11691377
0.54408205 2.6624832 0.22109944
0.01522648 2.5357327 -0.59143394
-0.016851922 2.272096 0.26602784
-0.3978759 -0.41847748 -0.37247425
-0.7221947 -0.08966753 0.6238164
0.55812454 -0.41623425 0.33266675
-0.89781404 -0.09274193 0.5498248
-0.63602823 3.0595193 0.30833417
0.041698173 -0.41700715 0.19055864
-0.6689367 2.5812333 -0.61246884
0.74935734 -0.25228727 -0.30499536
0.36654818 2.097371 0.45244408
-0.03337143 2.4058895 0.9102924
-0.91925526 -0.27333567 0.23265782
-0.20736685 -0.092837274 0.90099436
0.1405855 2.69571 -0.5100018
-0.85487336 -0.40641093 -0.91098213
0.33191997 2.3143156 -0.15746695
0.2228141 2.0520558 0.29562122
-0.6015482 -0.4104517 0.11003817
0.47969443 2.1617012 -0.42386502
0.20980352 3.1900768 -0.020130133
-0.39774877 2.6832209 -0.300955
-0.9259323 -0.24859923 -0.6267355
0.8937458 -0.08656381 -0.29062718
0.6323317 2.1038222 0.026583012
-0.7109356 2.6823134 -0.12964112
-0.32543272 2.5167356 0.44176316
0.1983081 2.083765 0.55639887
-0.52869976 2.8558822 0.6614256
-0.044474214 -0.08533193 -0.3024376
0.50250244 2.3364828 0.12901595
-0.5394502 2.8449202 0.19777438
0.13591507 2.1858487 0.38214666
-0.7278453 -0.41707954 -0.40919214
0.39763278 -0.41818726 -0.4051593
-0.06126578 -0.08496545 0.7618233
0.14350477 2.6214433 0.8905771
-0.4929702 -0.083267614 0.056919754
0.53567934 -0.42142862 -0.6877201
-0.38780224 -0.0825097 0.65452003
-0.02023441 3.0306706 0.12917009
-0.71482086 1.9301724 -0.03847493
-0.43838233 -0.41526955 0.042415455
0.2009519 2.0518675 -0.56824476
-0.67918956 1.9348805 -0.23880433
-0.11094634 3.2886062 -0.4233151
0.4262323 1.9881246 0.2772952
0.5459756 2.4340487 -0.11138514
-0.036420234 -0.25000983 0.11289241
0.586985 -0.0849483 0.53205335
0.07341819 2.229857 0.86414385
-0.6930515 -0.41346562 0.60237575
-0.25966257 2.334578 0.85824835
0.5166021 2.8257766 -0.36628795
-0.89180607 -0.09063244 -0.72264034
0.89453936 2.491946 0.16707402
-0.60473764 2.747891 0.36155418
0.17493263 2.891817 -0.5982207
-0.08002296 -0.41323203 -0.3119266
-0.289396 2.7046223 -0.6344192
-0.23277843 3.172398 -0.55999875
0.5571968 2.436575 0.5341555
-0.3943624 -0.085872054 -0.41352934
0.27087083 -0.18696618 0.9252094
-0.7734784 -0.2446098 -0.7286525
0.67995715 2.7077565 0.32133043
-0.44888783 2.783658 -0.48591086
-0.34372032 2.509394 0.22094704
-0.3212261 3.0181909 0.4287787
-0.31147057 2.0901384 -0.7540755
0.0784715 2.3388095 -0.35789144
0.059214868 2.4891825 0.7643893
-0.6008038 2.73484 -0.30836377
-0.032756593 3.0557568 0.70697415
-0.19428866 3.155157 0.36807626
-0.010324968 1.905987 -0.047523454
-0.07785694 3.4007454 -0.10140784
-0.074090265 2.8934054 -0.0261547
0.00096754986 2.0798187 -0.17314836
0.04236966 -0.08178087 0.061359152
-0.5570005 2.386788 0.70720303
0.18607533 2.351212 0.7112235
0.7344867 -0.41701877 0.2241188
0.43359214 -0.25386578 0.08100351
-0.89124644 2.2640843 -0.04331192
-0.5166019 1.988456 -0.015369069
0.17289272 1.9673505 -0.057474226
0.069173075 2.6506357 0.10917731
-0.39903536 -0.08465778 0.8877044
0.273257 2.7581985 -0.13255422
-0.34722513 3.257934 0.3694744
-0.48726577 2.3714304 -0.7556733
-0.23837753 2.054678 -0.2490814
-0.92159605 -0.25727916 0.86991847
-0.3408696 2.1838374 0.5959007
0.37794644 -0.41853005 0.43849117
-0.24994317 2.670553 0.2749015
0.058632962 -0.4158436 -0.01403489
0.33275896 1.7970306 0.5081606
-0.46683532 2.3735852 0.12370686
0.19454652 -0.41435215 -0.4561758
-0.48174527 2.0870712 0.3195213
0.18022934 3.0095294 0.07645644
-0.018978842 2.170426 0.48439157
0.8549387 2.2245426 -0.12842292
0.19651702 -0.08124392 -0.07931432
0.64908785 1.8665586 -0.033177555
0.20670244 2.5857024 -0.6646323
0.38190597 2.0047233 -0.6595046
0.07299572 2.507835 0.5720674
-0.123276964 -0.4147305 0.07471754
-0.18424745 -0.08324362 -0.17740127
-0.56254476 2.1954522 0.6477568
-0.54227805 2.9568286 -0.5614524
0.89951074 -0.40789485 0.11590968
0.8095999 2.8292584 0.2676684
0.5809915 -0.41300082 0.7408526
0.04616855 3.039043 -0.7215924
-0.25650066 -0.25114635 -0.57907796
0.51210827 2.7750568 0.41499937
0.899843 -0.40851545 0.5248492
0.27296847 3.161572 0.18089052
0.3414425 -0.0874953 -0.9079412
-0.08089258 2.8957372 -0.80718315
0.15875292 -0.07730843 0.876582
0.014896853 3.2263165 -0.01773123
-0.20028724 3.3358738 0.27435374
0.27092206 3.1777215 0.5344632
0.5990881 3.0732808 0.37326092
-0.56892896 2.6051545 -0.4417684
-0.27371615 -0.08694597 -0.7455824
0.7236427 -0.08499967 0.8778552
-0.71889806 -0.08245339 -0.20287494
-0.44676596 -0.25324935 -0.62557006
-0.45464426 3.2721434 -0.12887532
0.6263224 2.6426196 -0.639539
-0.64152443 2.4092026 0.25171557
-0.3308733 2.5004895 -0.6571181
0.36047274 2.202374 -0.56234896
-0.1443161 2.1937544 0.671595
-0.3357787 2.148467 -0.56980026
0.3870882 1.6919084 -0.17422548
0.8601849 2.2821393 0.20661025
-0.34037244 -0.42038667 0.358944
-0.34568232 3.0275528 -0.6534847
0.18324478 2.4132764 0.8938813
0.7392447 -0.08305966 0.42414013
0.38103387 3.102234 0.03275446
-0.9248662 -0.2533958 -0.4103614
0.42848107 3.0424242 0.5824218
-0.2097487 1.8033526 0.5462936
-0.88220924 -0.4139334 0.53211236
0.5126146 2.5134368 -0.5177071
0.47492015 2.2514691 0.5157739
-0.37874645 1.7777319 0.4149974
0.45951617 2.1888437 0.7269281
-0.17176455 -0.25545067 -0.7597388
-0.72322786 -0.26122326 -0.92273235
0.3902732 2.7651298 0.20691209
-0.06815326 -0.24472737 0.646433
-0.18505985 -0.090911925 -0.91507804
-0.8719432 2.468285 0.26994297
0.08601652 1.9446409 -0.25765395
0.58347774 -0.086573474 0.7457365
-0.031379826 2.3681707 -0.5122065
0.1768176 3.3523293 0.24712786
0.25524622 -0.41932344 0.61595607
-0.47074997 2.0116646 -0.6051918
-0.3095019 2.0607214 0.051702768
-0.5836026 3.1502316 -0.22719541
0.04813446 -0.24607536 0.47728404
-0.65919745 2.488874 0.6064106
-0.80196774 2.293509 0.35740867
0.7496659 -0.254231 -0.098825485
-0.25192398 2.7545297 -0.43764788
-0.060550846 2.6719642 0.253638
0.7116127 -0.08540064 -0.39527273
-0.67835736 2.7783723 -0.5194007
-0.81856775 2.1011152 0.051083885
0.57115936 -0.08364498 0.32140523
0.2509778 2.9972768 -0.45854646
-0.11430824 2.9780688 -0.20793036
-0.2757448 3.1760616 0.54308414
0.4049096 3.0056453 -0.30482215
-0.532107 2.5419497 0.4024758
0.28579456 1.8283963 0.033665784
-0.23018004 1.8098774 0.199867
-0.4354569 2.3585868 0.53098345
-0.08082634 2.2240767 -0.28088284
0.3073299 -0.23723668 -0.7833992
-0.16393042 2.1683314 0.33983588
0.6262419 -0.27547783 0.070776954
0.6551564 -0.24811396 0.24235591
-0.40340817 3.0563307 -0.28873292
-0.15562084 3.0440981 -0.708217
0.090743676 -0.4152634 -0.62481403
-0.1790111 2.4207807 -0.8931368
0.6405066 -0.24527207 -0.9185761
-0.6650882 1.9925364 0.34189606
-0.5920627 -0.26761347 0.29572865
0.5828246 -0.41483045 0.52217203
-0.15100017 2.5700998 0.094626844
0.30553228 2.7576103 -0.6248199
-0.013172351 2.3328636 0.64815694
-0.7012051 2.5806408 0.28691223
-0.1900358 2.0581965 0.5186949
0.89771616 -0.090061754 0.72479725
-0.5752231 3.077272 -0.39432207
-0.5705221 -0.09086602 0.37960094
0.3850582 1.7457252 -0.34606832
0.29400313 2.708024 0.6777203
0.2490801 2.8007169 0.8287058
0.6744008 2.4870892 0.34795445
-0.17748803 2.1687996 -0.08600828
-0.13794585 2.1777062 0.12807348
-0.61894596 -0.24918345 0.5033654
0.14792162 2.2341216 -0.2165089
0.9193494 -0.2509375 0.6371622
0.15487523 2.658831 -0.878517
0.40809995 -0.2513327 -0.29661953
-0.5753317 1.796957 0.072591215
-0.46751282 -0.26128685 0.59980166
-0.36217588 2.024837 0.45578712
0.9265785 -0.2490354 0.4329328
0.60495335 -0.25103843 0.64987504
-0.56051135 2.7314646 0.0143086985
0.5218626 2.4852104 0.25208783
0.84163785 2.426847 0.35164455
0.12624966 1.8603222 0.33399057
-0.39722666 2.1325629 -0.36032164
-0.7803061 -0.25389883 0.52658737
0.22551829 3.329608 -0.2866792
-0.0225044 3.150816 0.33028936
0.53182775 -0.08725652 -0.91028774
0.18801501 1.8887345 0.6423947
0.11123662 -0.26079917 0.9229175
0.64962107 -0.083417356 -0.742416
-0.005222946 2.6836495 -0.2931574
-0.091192596 1.5874751 0.0151876155
0.47534955 2.7136836 -0.74727714
0.1440975 -0.08333081 -0.28272814
-0.7804378 -0.25447458 0.72045565
-0.7315131 -0.08143407 0.43107244
0.48479483 2.5118876 0.75551987
0.19235626 2.673382 -0.2960686
0.085994035 2.7564964 0.31975275
-0.41089463 2.0497499 0.6847273
0.5841255 -0.24469692 -0.22770303
-0.22557607 2.528022 0.878865
0.76500523 2.5746865 0.49145755
-0.5979966 2.2206893 0.28191647
-0.16963263 3.2562947 -0.03400144
-0.6077152 -0.4054587 0.90207016
0.21151567 -0.24750508 -0.36864346
-0.57467455 1.9567895 -0.43994462
-0.4335087 3.2403703 -0.31016392
0.7831446 -0.24816757 0.3375411
0.9165504 -0.24241142 -0.5945507
-0.15642762 -0.088285446 0.014814507
0.009882706 2.6963072 0.53565145
0.32442766 -0.08544956 -0.36029822
0.5731713 2.3504658 0.6980895
0.54216284 2.9570823 0.07198735
-0.70598125 2.6181552 0.054775234
-0.40220386 2.6901116 -0.7922256
0.8963969 -0.40912932 -0.088836
0.68254495 2.0663629 0.4456257
-0.15188262 2.037786 -0.56295455
-0.3827676 1.904347 0.28523403
-0.32039118 2.0138931 -0.45957997
0.04183215 -0.2531457 -0.35427672
0.71482575 2.2542353 -0.5257421
-0.50051033 2.446806 -0.5450355
-0.07465575 2.6242452 0.7076451
-0.6815968 2.7522674 0.17397425
0.26611078 -0.082278244 -0.6963937
-0.8945191 -0.40811116 -0.5151402
0.027529754 2.1184652 -0.6512711
-0.29616135 2.3780158 0.65644157
-0.0327369 2.1890626 -0.48207784
0.89190656 -0.40977275 0.7276453
0.23174715 -0.083778396 0.122945145
-0.21681741 2.2060237 -0.42795536
0.05665628 3.0365858 -0.08078122
-0.44435075 -0.25067848 -0.2666763
0.9007951 -0.08904153 0.52358663
0.89017093 -0.40172547 0.90392864
-0.060542863 2.7039006 -0.047725447
-0.5178695 2.2029457 0.46554512
0.5717533 3.1174548 -0.32987565
0.2897875 -0.40205795 -0.919213
-0.30409878 2.9920597 -0.122128144
-0.56202567 1.8213656 0.26518482
-0.37399948 2.3472886 -0.40392795
-0.16678348 -0.4096602 -0.90853405
-0.18055065 3.0053937 0.27818558
0.3923689 2.2084618 0.26847604
0.2752126 3.0067077 0.7034209
-0.35577977 -0.41589397 0.54977256
0.5572851 2.0538151 -0.29721826
0.18952456 -0.41350454 -0.76522726
-0.13608548 3.1903286 0.15579984
-0.5312964 -0.08480173 -0.13060114
0.54476273 -0.10089463 0.9144174
0.73914933 1.9616683 0.1146089
0.53746545 -0.07275641 -0.13160765
-0.19936514 -0.2587709 0.7661598
-0.033623494 2.543806 -0.9185935
0.13582958 -0.4191507 0.7514943
0.27182722 -0.24509326 0.010754919
-0.31041217 -0.41951877 0.16457629
0.24058351 1.8241193 -0.20575288
0.010577609 2.3382354 -0.89061815
0.23073232 -0.25769415 -0.6212847
-0.12633315 2.9105263 0.79762626
-0.06203358 3.1898239 0.5780939
-0.21593003 2.6696372 -0.87176037
-0.4395594 -0.25902715 0.4158327
-0.15822169 3.3881812 0.097950466
-0.11729248 -0.25862554 0.4856159
-0.34289187 2.3176003 -0.6309877
0.08949679 2.1296372 0.16430679
0.24864139 -0.26416785 0.7718301
0.9315238 -0.24868107 -0.78186774
0.43405157 -0.25464654 -0.6236353
-0.30308887 -0.25351095 0.043239854
0.29826048 2.7830493 -0.431327
0.71937543 -0.3997981 -0.9197635
-0.721338 2.995915 -0.23526144
0.08303601 3.1956449 0.15663216
-0.37533438 1.8772871 0.08763625
0.17446037 3.1421103 -0.6122099
-0.9287663 -0.26050732 0.43380257
0.47049257 -0.24763837 0.52943397
0.41469222 -0.25442594 0.36050388
-0.9181129 -0.11048937 0.18686214
-0.49024802 2.1863499 -0.708386
0.41343784 1.7032646 0.16016793
0.39632463 1.937371 -0.29949117
-0.31118357 -0.08621335 0.13179716
0.009474458 -0.083058745 -0.47450042
0.6847654 2.2966738 0.007529544
-0.39731634 -0.24090493 0.76235044
-0.24737275 1.8162372 -0.20898062
-0.05659739 -0.25070643 0.300488
-0.23674813 2.9771373 0.086353116
-0.4294461 2.3936782 -0.10893808
0.7749367 2.0974555 -0.27614564
0.90194666 -0.08683011 -0.49109644
-0.3336606 2.6934009 0.51108855
0.08588294 2.1812978 0.67896324
-0.3270069 2.8863292 0.7622897
0.51402503 1.9209921 0.46997118
0.24102929 2.051371 -0.22628403
-0.6421051 2.3415236 -0.63157
-0.1701536 1.7401466 -0.5017706
0.39703262 -0.41922086 0.016147558
0.06624367 -0.40401208 -0.91231835
-0.15454188 2.770503 -0.21947974
-0.7315835 2.2944515 -0.05984986
0.384588 1.9583297 0.6164559
0.026407892 -0.4123683 0.9065044
-0.04619748 2.600708 0.9042466
0.4682194 3.2358515 0.25107536
0.40560284 -0.0836728 0.21733451
-0.42779562 2.700531 0.3186673
0.061153613 1.9365331 -0.71880305
-0.4630075 2.1636095 0.11929192
-0.18314007 2.3723912 0.18710431
-0.082932234 1.7426819 -0.10786411
0.2746874 -0.08952899 0.72869277
-0.9122952 2.4540117 0.04825129
0.45465705 2.6962066 0.7685848
-0.75170165 2.4490652 0.11340317
-0.008867538 3.3542943 0.27642116
-0.7422568 -0.086800665 -0.9051845
0.41510403 -0.41925937 -0.18481211
-0.0977072 1.9005513 -0.23011011
0.1444742 -0.25601897 0.6131371
0.8939601 -0.08803536 -0.09253151
0.88837165 -0.08244687 -0.70879173
0.56237584 -0.41439342 -0.30063546
-0.18356001 2.7553263 0.65069044
-0.48809224 2.4824834 -0.3110625
0.33480734 2.4138532 0.2420056
-0.28150278 -0.24713892 0.58497906
-0.38119352 1.9290601 -0.30691457
-0.40098125 1.8419496 -0.499292
0.3908704 2.1840396 -0.76336
-0.6354097 2.1308765 -0.55873406
0.54678226 2.1257238 0.36272222
-0.64402884 3.1319828 -0.06506406
-0.095405445 2.8231883 0.43205473
-0.61099327 -0.09480488 0.19347459
-0.7306886 -0.08503124 0.79848105
0.5028067 -0.24951032 0.22794756
-0.019926894 1.5928984 -0.18617076
0.19923061 1.9017253 -0.40409997
0.2019378 2.255758 -0.86073446
-0.030797001 3.1863616 -0.59161913
0.7221694 2.7564826 0.49786413
0.32746053 2.0485353 -0.43378657
-0.3546921 -0.085485816 -0.24410115
-0.83626556 2.801965 0.23127466
0.1489886 2.3189394 0.52594537
-0.09978609 1.8580211 -0.635005
-0.4034223 1.7028612 -0.19198449
-0.8338804 2.4340982 -0.34222633
-0.56692016 2.146911 -0.39198244
-0.41547105 3.0227413 0.6142125
-0.19094422 1.9767339 -0.0679068
-0.11627266 3.2942634 0.4397449
-0.925153 -0.25388426 -0.20040382
0.5708154 -0.40750134 -0.080884546
-0.8694823 2.6223595 -0.24684393
0.8561447 -0.25040448 -0.929272
0.47207922 2.7087007 -0.51743567
-0.20145091 1.8878819 -0.41264346
-0.39048907 2.123002 -0.11985679
-0.32976472 2.2527485 0.21355115
-0.12250589 2.5503964 -0.14498907
0.06213528 1.7657444 -0.23014098
0.56577414 2.6074967 0.44998148
0.75579524 -0.24885169 0.53898144
0.8933558 -0.40849316 -0.68533945
-0.0541989 2.5138717 -0.37769303
-0.3845592 1.9041731 -0.11294832
0.36717808 3.0682085 -0.6084014
0.41073143 -0.25533903 -0.1114759
0.40820214 3.249435 -0.3051681
-0.23480716 1.6908629 0.35179752
-0.22476229 -0.08461842 0.51480806
0.22939765 -0.41268182 -0.09424218
0.11507021 1.5880613 -0.04489413
0.6473992 2.2155385 0.1995754
0.35028312 3.3293865 -0.09853187
-0.89769197 2.434589 -0.15634055
-0.010631563 -0.096762985 0.9140755
0.8976671 2.3549256 0.010836315
-0.013587713 2.0816426 0.022136904
-0.23348284 -0.08623126 0.71434295
0.38301182 1.8992186 -0.111686945
-0.31701875 3.15594 0.042686228
0.3508346 2.0926628 -0.056394532
0.17970112 -0.24470097 -0.9275439
0.08572337 2.5152826 -0.22262785
-0.22810757 3.348197 -0.2352745
0.56751114 -0.08495897 -0.5449381
-0.3406838 2.8731532 0.20901033
0.44249648 3.1308973 -0.4590508
0.5876428 2.6338334 -0.375642
0.9004639 -0.08618972 0.109625936
0.5720585 2.3161128 0.35253543
0.585613 2.027421 0.18855086
-0.37579307 1.8965689 0.57779837
0.22131877 3.1174316 -0.33147284
-0.41283113 -0.40970796 0.89516914
0.10376243 2.8642576 0.46274036
-0.72752357 -0.2531407 0.9148287
0.36792395 2.3799582 -0.8255193
0.56087875 -0.24624962 -0.42864522
0.6921859 2.540963 -0.2230035
0.5741923 2.9915185 -0.50240374
0.34543264 2.947308 0.19101751
-0.839846 2.2617612 -0.25654438
-0.80803907 2.090613 -0.15418231
0.38225392 -0.4113689 -0.77116466
-0.66101944 2.2095604 -0.2414583
0.69516206 2.913498 0.39675573
0.7273333 -0.41777897 -0.1941016
0.7190001 2.9999642 0.21104077
0.7405926 -0.083900705 0.6463611
-0.61766946 -0.25018317 -0.6019616
0.023645852 2.4969082 -0.014996127
-0.25121957 -0.41492206 -0.24376568
-0.4107057 1.707686 0.21122935
0.19677949 -0.086882725 -0.49758255
0.11503686 2.021609 0.77608156
0.09590517 3.2720757 -0.44862348
0.446809 2.5009837 -0.26952824
-0.67056036 -0.08243531 -0.7415371
0.15388702 3.1481323 0.3459349
-0.5684686 1.8038313 -0.12055369
0.32918942 -0.24994636 0.6099755
0.0062223817 3.3582373 -0.28179872
-0.34067786 2.2064047 0.40139318
-0.334428 3.1077929 0.236514
0.90190256 -0.40799397 0.3185842
0.20874429 2.6043115 0.26407456
0.048206802 -0.24060416 0.7731332
-0.7885448 2.7960105 -0.3267457
-0.53308344 2.5902438 -0.15436913
-0.5259854 2.6800354 0.53030175
0.20810199 2.2640066 0.21763846
0.64403194 2.2370243 -0.35395294
0.57086784 -0.20515676 -0.05197125
-0.712018 1.9362674 0.15690947
-0.6130503 2.3643284 -0.39302748
-0.31319886 2.2707276 0.01559088
-0.2857747 3.2539265 -0.3955325
-0.8439926 2.823532 -0.14961582
0.16690367 2.3780465 -0.08320358
0.6710373 3.087337 -0.1805282
-0.9320805 -0.2569122 0.63950264
0.49976385 -0.41527784 0.904381
0.70055544 2.6608334 -0.040099204
0.15898839 2.9730353 0.27080882
-0.34195954 -0.08470273 -0.058050856
0.016021328 2.7838576 0.85533214
-0.7721908 2.985937 -0.03539093
0.043681942 2.568373 0.38943034
-0.21665837 2.3876367 -0.5206186
0.0744286 -0.086541906 0.2518762
0.1007738 1.9845247 0.46068278
-0.13548788 -0.41598123 -0.60570455
0.2555174 2.9815326 0.4933431
0.89899033 -0.40658066 -0.48958
0.17795852 2.863614 0.6289053
-0.44682324 2.5648365 0.006210508
0.3742132 2.8145666 0.5396849
-0.2058905 1.9240751 0.3666665
0.09127103 1.9392028 0.13807577
0.43884957 2.8374596 -0.16207191
0.73582476 -0.4199019 0.018424764
-0.012085435 2.028135 0.61613977
0.06794368 3.046724 0.5010251
-0.2754896 2.836598 0.3819437
-0.028917342 2.7284293 -0.87469685
-0.32054234 2.2864742 -0.822026
0.12988201 3.1258767 0.64679074
0.55709565 1.8751299 -0.3849734
0.8960742 -0.40912545 -0.29177263
-0.57070315 -0.41565308 -0.29926097
-0.0496139 1.8225636 0.28319612
0.011409249 -0.09137772 -0.9176682
0.566957 2.5285378 0.052085824
0.09753101 3.2785583 0.46075216
-0.7366989 2.0792449 -0.358571
-0.17595658 -0.41394836 0.62916356
0.5586839 2.8736236 0.2451818
0.20881414 2.6803045 0.49413776
-0.4194246 1.6908071 0.00036612447
0.53619546 2.3147736 -0.5191039
0.013600717 2.472527 0.19765902
0.76021135 -0.24126622 -0.7432153
-0.13606149 3.0793982 -0.038252465
-0.31791735 -0.41507173 0.7387771
-0.063002944 -0.41320407 0.7589499
-0.60735744 -0.25366926 0.7283976
-0.1432611 2.3900518 -0.70861053
-0.27670896 -0.25672427 -0.9229678
0.7268425 -0.41432557 -0.58765066
-0.60521054 -0.25079623 -0.403664
0.7749372 2.0904994 0.26282197
-0.14261153 -0.085078456 -0.59105086
-0.018044084 2.8841534 -0.60023
0.67729497 2.063466 -0.44746876
-0.37107322 2.6980996 0.10367781
-0.18346196 2.3987124 -0.3345952
-0.56843567 -0.09052749 -0.9100503
0.24841635 2.495572 0.46592352
-0.8685676 2.283436 0.16281988
-0.27908885 -0.24923676 -0.36257792
0.52119267 -0.4100719 -0.901615
0.35432616 -0.25442412 -0.47267276
-0.71083194 -0.41833502 -0.7847433
-0.3061707 -0.25546563 0.92220306
0.39163613 -0.41745335 0.22673625
-0.005362419 2.2526054 -0.078482784
0.033773616 1.9709517 -0.5114285
0.8026117 2.9224877 0.059960462
0.7104882 -0.4175142 0.8781626
0.49481797 1.7366731 -0.013622291
-0.5526123 -0.08613148 -0.31840485
0.64029884 2.1764174 -0.15795724
0.5278641 3.218377 -0.1499942
-0.102412716 2.7243254 -0.68617797
0.6398272 1.9200938 0.3166332
0.067374974 3.0341654 -0.4907313
0.89383334 -0.4073838 -0.8805951
0.55867577 2.1366944 -0.6245215
-0.78791934 2.1201174 0.25387585
0.42579424 2.4428458 0.41197708
0.536145 -0.2528857 -0.7796838
-0.38175976 -0.088144556 -0.9087837
-0.1250078 2.0185475 -0.7657523
-0.054690324 1.9065847 0.46941406
-0.20087141 -0.24658847 0.18282878
-0.25568974 2.827342 -0.071875386
-0.06910731 2.0456188 0.7953954
0.14694458 2.4070015 0.32503122
0.28976178 1.9247594 0.42450875
-0.9232961 -0.25257653 0.021318536
-0.019463856 1.8336678 -0.3938772
0.10061723 2.94422 0.78604126
-0.8314483 2.8100977 0.03861257
0.3821019 2.5747519 -0.6436473
-0.11136659 2.36745 0.026273146
-0.64034605 2.3927321 -0.19693749
0.5775435 2.9319425 0.55084527
-0.060947835 1.7096717 0.45887768
-0.5137899 -0.41941887 0.7064611
0.70564884 2.3974843 0.17550641
-0.28735065 3.1729002 -0.17401163
-0.63683397 2.1068392 -0.08722957
-0.18857831 2.7555585 0.08702269
0.49524644 2.3068938 -0.2657507
0.9023981 -0.08812189 0.31864047
0.25810254 -0.24912587 0.44073838
0.25063685 2.4379182 -0.3008263
-0.5601357 2.0308557 0.54394877
0.1310154 3.3835175 -0.11826332
-0.020557579 1.848897 0.6545789
0.05779161 1.7719005 -0.5562457
0.49648213 2.7436962 0.035692707
0.30638492 2.21277 0.61990404
0.62045777 -0.25240532 -0.61873794
