0.58966374 1.1067679 0.5959084
0.5041838 0.28446686 0.07532531
0.44104064 1.2639503 0.34864855
0.74510336 -0.2517626 0.7538749
0.40527135 0.74658895 0.6027527
-0.588406 0.6831497 0.45970035
0.050294135 0.050082147 -0.38808638
0.6607418 0.9354237 0.6208124
0.24718139 1.5230507 -0.48014563
0.77096736 -0.25010666 0.93160856
0.46734178 -0.07872371 -0.72762036
0.0044816127 -0.41412848 -0.48179328
0.013780464 1.1472057 0.12507965
-0.7499083 0.7861619 -0.07892981
0.28569803 1.1341354 0.33299005
0.10025314 -0.23177278 -0.54207265
0.3426732 0.24330059 0.23974465
-0.33814788 -0.03152328 -0.59255177
0.1154574 0.43606317 -0.38472188
-0.9038886 -0.09593425 0.730524
0.44732255 1.4582449 0.395181
-0.62487906 1.20731 0.027839124
-0.46210295 -0.25353694 -0.9234731
0.4312176 -0.061288875 0.6453451
0.23547627 0.16828537 -0.65239453
0.846629 1.1046447 -0.11366761
0.8686106 0.9521896 -0.21751651
-0.29067293 0.786024 0.027615149
-0.23727074 1.3430967 -0.34978682
0.22570372 0.043611705 -0.23581374
-0.45155588 1.0602598 -0.14047705
-0.75949025 0.5342574 -0.42297286
-0.008601373 -0.12733522 -0.12464513
-0.7515576 1.2399175 0.17672697
-0.72828364 -0.07288902 -0.42832005
0.30887482 0.8814545 -0.46718523
-0.5975188 -0.40823793 -0.11440092
-0.36542332 1.0506058 0.64127195
0.082653694 1.1402564 -0.413733
-0.29729873 0.57843924 -0.22013976
-0.073116794 1.0048925 -0.49064147
-0.24366307 0.9006312 0.67026985
-0.7466846 -0.04566633 0.21085748
0.2169303 0.3568237 -0.77887833
-0.052329846 -0.05955167 -0.76829904
0.75687563 -0.24349684 -0.48383272
-0.55674565 0.94863695 0.7158277
0.57173324 1.1424084 -0.60756165
-0.10516469 -0.24141201 -0.47265714
-0.17635807 0.84375745 -0.73889035
-0.10975447 -0.10427223 0.18423507
-0.78846085 0.89394164 -0.42633098
0.38579422 0.76670253 -0.024710504
0.1258151 1.1443412 -0.033893663
0.19497995 0.7168198 -0.5441278
0.9221195 -0.2482968 0.010947039
0.037436314 0.42867213 -0.8462615
0.82644194 0.5829432 -0.35487628
0.68543124 1.4146621 -0.053406514
-0.22056928 0.04678631 -0.09387253
-0.44600254 1.147505 0.48039022
-0.13056001 -0.25586158 -0.27415073
0.8533136 0.9698802 0.27600843
-0.7153358 -0.42064697 0.7696876
0.3455268 0.93408275 0.8319939
-0.49385804 -0.4158094 -0.7305336
-0.747007 0.7243279 -0.49110025
0.16800542 0.18097192 0.18150333
0.3070184 0.56721437 0.82666767
-0.5619656 -0.06297577 0.53223217
0.7488883 -0.086728886 -0.5831579
0.82246864 0.9257376 -0.3839702
-0.14435217 1.2993155 -0.516642
0.31292155 0.066751234 -0.03119428
-0.01991396 -0.41043457 -0.76538014
0.72677124 -0.41739732 0.64493275
-0.1458817 0.50433207 -0.84261084
-0.5012045 0.5267112 -0.5074191
0.00032515053 0.69603646 0.4411351
0.57743216 -0.059872217 0.116487175
0.20816746 -0.41736048 0.29448646
-0.35387656 -0.40933645 -0.5949456
-0.37506396 1.0081964 0.8072228
0.09213019 1.1579167 -0.8459567
-0.89028215 -0.09942385 -0.9129301
-0.7628439 0.77125883 0.4644946
0.089493036 -0.42521077 -0.26178545
0.392766 0.8978223 0.12224327
0.53395194 0.1353879 0.36602083
-0.06312011 -0.05251111 0.5781299
0.09154605 1.4939163 -0.2180574
0.11199786 0.9522017 -0.107595384
-0.76363117 -0.2334001 0.3191865
-0.5356531 1.500835 0.24100673
0.41242197 0.94276464 -0.09692995
-0.49103817 0.19549263 0.49971086
-0.8710115 -0.07911891 0.018111266
-0.5303449 0.552336 -0.027666442
0.7299768 0.8908591 -0.53247535
-0.22572643 1.1472771 -0.6026767
-0.2221447 1.3599629 0.6622497
-0.38093534 1.6087573 0.15185356
0.5425931 0.6209959 -0.7248719
0.3131765 1.3826387 0.301902
0.6721039 0.743432 -0.6280153
-0.41254786 -0.054807805 0.42932558
-0.6173767 -0.09204092 0.9145609
0.4256456 -0.056813747 0.42978275
0.59369206 -0.26613572 0.8979309
0.9199861 -0.2478419 -0.3874067
-0.8955023 -0.40709993 0.10282327
0.7463666 0.79743695 -0.06149111
0.9174228 -0.24699165 -0.18849246
0.52749753 0.30350083 -0.53201437
-0.5332598 -0.4155041 0.4742111
-0.1365811 0.079135895 -0.30039695
-0.7053853 -0.4115283 0.3944909
-0.10631576 0.34510675 0.16468626
-0.3551764 0.8319633 -0.44852662
-0.9032989 0.9090481 -0.026550543
0.0046140803 -0.40937382 0.58303285
0.14773595 0.18283854 -0.03181334
-0.70417386 -0.022273276 -0.021560453
-0.71195495 -0.41634774 -0.6258476
0.024769094 0.610412 -0.70260686
-0.8940784 -0.40822893 0.7167517
-0.9042101 -0.093919784 -0.53305995
-0.6161231 -0.2317299 -0.22111113
-0.3708379 0.76427364 -0.84704345
0.43149525 -0.25561836 -0.92324185
-0.59357965 1.2672944 0.50205773
-0.004765776 -0.41702044 0.3795939
-0.22318146 0.48033148 0.81064975
0.32162088 0.8790676 -0.85210985
0.3877292 1.2123536 -0.5149083
-0.53804934 1.2386284 -0.16585848
-0.5223696 -0.24571863 0.90889764
-0.49116457 -0.24481885 0.10453749
0.61858 0.75059474 -0.39611527
-0.007585497 1.2628682 0.30888617
-0.023102261 0.18923971 0.110610366
0.12960333 0.06588256 0.34421605
-0.2558813 -0.41563708 -0.7513367
0.39635593 -0.26762223 0.9205499
-0.250639 1.198677 0.56094927
0.39001834 -0.03344974 -0.5495308
-0.1836189 0.8505827 -0.53891814
0.8518509 0.48308474 0.047995377
-0.49214578 1.2386062 0.32622474
0.37789106 -0.07574788 0.8738271
-0.060782358 0.5852202 0.88580173
0.25925314 1.1870561 -0.3041115
0.29146713 1.5837955 0.3143726
-0.35004005 -0.24684715 -0.7699794
0.74384034 -0.051466584 0.21774882
0.27688748 0.85537064 -0.16432706
0.4167558 0.73840773 0.8170036
-0.4873594 1.4164636 0.4260782
0.5588584 -0.4185344 0.12914369
-0.7020111 0.9335579 0.53414285
-0.1359139 0.9601901 0.45455837
-0.03323256 -0.23144373 -0.64468753
-0.54618096 -0.08328339 0.7375649
0.7708023 1.2723904 -0.20023058
0.18902136 0.51742804 -0.02666501
0.90641403 0.8911937 -0.04886666
0.56845856 0.33333293 -0.12077986
0.5770532 1.2641666 -0.28011894
-0.111635685 1.4700583 -0.21517606
0.39957055 0.1681536 -0.54022443
-0.09655848 -0.42189848 -0.14949062
-0.7447138 -0.41106564 -0.22005364
-0.28042212 -0.41824716 -0.071835734
-0.27267882 0.38500708 0.27732238
0.90359396 -0.08916929 -0.89507294
-0.36632484 -0.41131863 -0.90029323
0.12270063 -0.26167002 0.32628894
-0.8966582 -0.092365175 -0.3368336
-0.025161393 0.70164007 -0.20528501
-0.15948868 0.2928123 0.7348115
-0.6622126 0.5618758 0.13825426
-0.0022770835 1.6998262 0.053517208
-0.11322177 1.1710265 -0.38787112
0.9245217 -0.24854073 0.22440192
0.1581076 -0.4107135 0.46752396
-0.028858002 -0.2552623 -0.913547
-0.91372865 -0.26189995 -0.8739361
-0.17510733 -0.41554946 0.258875
-0.6719607 0.4500094 0.49249333
0.015827514 0.8125112 -0.77118087
-0.2699529 1.1226958 -0.80425704
0.7076882 0.6709883 -0.21991539
-0.32939932 0.08820371 -0.34576568
0.6275008 1.1844447 -0.10720694
0.4427762 -0.23276068 0.753814
-0.012643668 1.1919177 0.61503804
-0.43827385 1.3853874 -0.49711323
-0.1250067 -0.2709102 -0.072788864
0.7619976 0.74056256 0.51599866
-0.21776617 0.050734304 0.13914359
-0.18474275 -0.41698647 0.4455812
0.26655692 -0.050693735 0.53510916
-0.29458767 0.93729794 -0.10086109
-0.31716508 1.1461458 -0.28139883
-0.51511717 1.1585424 -0.3396203
-0.3889196 0.8072792 0.8071264
0.36655924 0.41290945 0.7372791
-0.55220807 -0.05904908 -0.5560293
0.09837602 -0.03553185 -0.6933475
0.20791566 0.80519897 0.08185178
-0.80935764 0.9744146 0.38949305
0.36933106 0.67920285 -0.6435549
-0.67066807 0.6180883 0.58828455
-0.4728228 0.9108342 -0.59356725
-0.11019304 0.80983686 0.55170995
0.04362265 -0.27723068 -0.19430801
-0.767926 -0.22672945 -0.109517574
-0.03918301 1.4044046 -0.3706885
-0.32718655 0.7901534 -0.2264865
0.27478528 0.87033695 0.66710365
-0.2681775 -0.24183388 0.38292074
-0.49911356 0.28496605 0.22532019
-0.5372529 0.88365996 0.19160378
0.28053623 0.05533184 0.16452111
-0.13688017 1.1456685 0.2305974
-0.8995508 -0.40425617 -0.11241168
-0.5749067 -0.40604502 -0.91542447
0.5521897 0.43277392 0.60851383
0.07162426 1.027672 -0.7139367
0.22788107 1.2663426 -0.760025
0.4070611 1.1993041 -0.7046814
0.051827997 1.1315963 -0.2051583
0.37077045 -0.09097226 -0.18731758
-0.526523 -0.41518405 0.26739156
0.103822805 -0.076207325 0.465545
0.09017596 0.037801795 0.14234388
0.8873527 0.75142014 -0.23285368
0.71495545 0.24443817 -0.25647596
0.7380998 -0.086732194 -0.90352446
-0.4279263 -0.23938137 -0.4863109
0.17978936 1.6691399 0.025085442
0.10108912 -0.26351392 -0.0351422
-0.21949849 -0.40940368 -0.46419612
0.43965873 0.46115613 -0.24208526
0.3886467 0.95149004 0.3406855
0.34065273 -0.4138768 -0.58721685
-0.30600673 0.19843501 -0.6490254
-0.5330467 1.5274466 0.04898127
0.42227 -0.4076017 0.6149681
0.49610054 1.5362749 -0.014397103
-0.07868701 -0.086058155 0.38860676
0.38308877 0.6921342 -0.44531256
-0.34043708 1.6130188 -0.042068247
0.23385412 -0.39906463 0.910305
-0.21025062 -0.07462773 -0.42314243
-0.056249857 0.055200152 0.2615127
0.14552371 0.5419054 -0.5278344
0.38892943 0.9971343 -0.3125956
-0.6562059 1.1178185 -0.14450355
-0.2924689 -0.2531501 -0.17821403
0.8161205 1.1216997 -0.3237505
0.5475172 -0.40674248 -0.49672693
-0.4341452 0.6669203 0.34209958
0.11163433 0.8443011 -0.4377346
-0.38843995 -0.24959883 0.24100193
-0.46231008 -0.07218518 0.23305714
-0.21029508 0.9094182 -0.3243126
0.893332 -0.095610045 0.9074558
-0.07754038 0.37787807 -0.37461495
0.92752147 -0.2510031 0.8574562
0.0727848 1.2910578 -0.28915864
0.21463221 -0.41867143 0.09919463
-0.09903194 0.75884223 0.75386363
0.34428507 1.6208981 0.08352855
0.2300899 0.08773513 -0.4459808
0.6679822 1.0781014 -0.27276284
-0.4912688 0.5664294 -0.23274659
0.43361855 1.2201341 0.67949647
0.729651 -0.4133978 0.42735282
-0.5875634 1.0304451 -0.6869824
0.53295135 -0.050065223 -0.33017632
-0.54859614 0.81801057 -0.7398342
0.72264 -0.41274536 -0.3876934
-0.89842683 -0.09287438 -0.14957379
0.7972898 0.36000478 -0.09730486
-0.8669426 -0.09489551 0.91139686
-0.8778192 0.91429245 0.17433582
-0.19727322 0.6932693 -0.11908686
0.30840158 0.41089445 0.1290597
-0.20864691 0.19653949 0.026604645
0.3133423 1.4661064 -0.19608028
0.29337245 -0.252649 0.21802059
0.09662816 0.6488431 0.10256997
-0.1624887 0.6197971 0.54171485
-0.11071639 -0.2584062 0.91489136
0.51260424 0.80816936 -0.76151574
0.70345914 1.0854805 -0.4895326
-0.13010803 1.3187144 0.47412914
0.20489152 1.1132267 0.14614373
-0.1845383 1.0670211 0.84855527
0.26613432 0.9868382 0.022128291
-0.1715739 0.5013584 -0.65421164
-0.55325633 0.12223061 -0.28856486
-0.7499703 -0.40890366 -0.0077080536
0.12676004 1.0252032 0.6927129
0.72165036 -0.04326702 -0.19284427
0.7279811 -0.033620827 0.0092285955
0.4778189 1.3466899 -0.13935056
0.7041479 -0.41515064 -0.76042116
0.328717 0.6154535 0.053759288
0.23944272 1.2951851 -0.15159303
0.5875615 0.13378203 -0.22080438
-0.45546618 -0.074192226 -0.74194866
0.6509552 0.14624998 0.16597122
0.28653347 0.5532715 -0.37359506
0.7003066 1.2772048 -0.41211915
-0.49989313 1.3213758 0.13952571
-0.76154894 -0.23711357 -0.32228604
-0.4325227 -0.4122476 -0.19965652
0.7910335 0.5859549 0.3814274
0.34460485 1.1911576 -0.015694782
0.15956932 0.7586827 -0.9094237
-0.7703439 -0.25098008 -0.52808785
-0.35146448 1.2173954 -0.4702846
0.26379907 -0.41078466 -0.2897191
-0.63540137 0.3842789 0.17242007
-0.687537 0.8269032 -0.281972
0.44012612 0.94237053 0.54955447
0.1066201 -0.22737649 -0.7630044
0.25066194 -0.0902043 0.32611883
-0.13075283 0.8164351 0.32411212
-0.5925816 0.74353206 0.020198606
-0.8892731 -0.41176677 0.31982386
-0.85631037 -0.40586576 0.90403146
-0.73661923 1.1797837 0.38214165
0.34264112 -0.41435683 0.7744169
0.6824112 0.5770364 0.5665091
-0.5712267 -0.24873246 -0.7901025
0.23728079 -0.25047818 -0.20426795
-0.8917899 -0.40648788 -0.7346442
-0.4390568 1.1340995 -0.70454574
-0.22205505 0.6731087 0.37868708
0.619153 1.4697961 0.11642495
0.5488905 0.975448 -0.18863913
-0.6202669 -0.22330302 -0.019723715
0.72518915 0.92334735 0.11851594
-0.8946986 -0.40805537 -0.3287653
0.8020453 0.73834133 -0.44208437
0.32478976 0.09318873 0.3613248
-0.6758634 1.404352 0.11307281
-0.73381436 -0.41128847 0.20774579
-0.3877794 0.592257 0.79320085
-0.7442837 -0.08543237 -0.61072505
-0.21378349 -0.41082725 0.89804983
-0.6734029 1.1060952 0.5594417
0.8726938 1.0417142 0.07057132
-0.7482367 -0.22992831 0.10897434
0.00702239 0.39556736 0.33467627
-0.48339134 1.3606089 -0.0564325
-0.54310906 0.33602393 -0.18908024
0.20905896 0.53164756 -0.6928351
0.18935695 0.7176244 -0.73410094
0.2712014 1.0761101 -0.8260383
-0.54526174 -0.41210112 -0.5310823
-0.42662525 0.8431289 0.61185193
-0.26061505 -0.07535735 0.30547684
-0.9024219 -0.0956557 0.34404403
0.09785746 -0.027996697 0.6741312
-0.45992982 -0.24155688 -0.10053976
-0.69429386 1.1814598 -0.4116097
0.48439908 0.48161143 0.106496185
0.40676087 -0.077220574 0.016556473
0.18117759 0.12823735 0.5466305
0.78185064 -0.22630236 0.1173024
0.51250905 0.57724714 -0.07450026
0.19467415 -0.07693368 -0.88541013
-0.424352 1.1768959 0.021293774
0.6005726 -0.22896066 0.4247827
0.32183182 0.6134535 0.41647243
0.46299565 1.3793887 0.16593911
0.120357305 -0.26758248 0.14950013
0.6756098 1.1124139 0.07628637
0.5488706 0.9881662 0.19466662
0.005558119 0.8432278 -0.60286355
-0.023751214 0.6190176 0.27421665
-0.40345347 -0.41289514 -0.39985996
-0.7237382 -0.08944094 0.622537
0.5511518 -0.4099522 0.33187187
-0.90024793 -0.09394051 0.53802824
-0.64617765 1.3442583 0.3084774
0.023251532 -0.42055503 0.18848422
-0.6785092 0.84640783 -0.610196
0.7503661 -0.23694044 -0.29122844
0.4178744 0.43896657 0.46438193
0.005911155 0.7557145 0.9323907
-0.91743493 -0.26837176 0.21673119
-0.22065571 -0.0922182 0.89971054
0.12296972 0.9990617 -0.52699685
-0.84698 -0.4074275 -0.91444874
0.33899537 0.6324804 -0.1715734
0.26670998 0.41467673 0.3236459
-0.59762585 -0.40639013 0.094435506
0.48673493 0.48160315 -0.43615645
0.1870569 1.4930906 -0.04825276
-0.40819687 0.9634243 -0.30248994
-0.92365634 -0.2485778 -0.648662
0.8958084 -0.0876937 -0.28978387
0.6535338 0.43022257 0.014161655
-0.7132859 0.95990205 -0.11986466
-0.30792007 0.81476885 0.45213303
0.24772091 0.43388987 0.5694233
-0.51906693 1.1487721 0.6753952
-0.04440426 -0.10668492 -0.32680047
0.52300787 0.6775917 0.099358335
-0.5429717 1.1293595 0.1945031
0.1400806 0.5332087 0.3904897
-0.72700226 -0.41401535 -0.4291443
0.39865345 -0.41254836 -0.40097332
-0.07428309 -0.04760672 0.7530464
0.16435134 0.9711206 0.8810057
-0.4989028 -0.063090496 0.019378746
0.5436517 -0.41818184 -0.6740992
-0.40056014 -0.045947336 0.62844443
-0.033604763 1.3307481 0.113722965
-0.72192705 0.2208654 0.016352348
-0.45075774 -0.41316333 0.0021890104
0.2051907 0.35849684 -0.5829352
-0.69457453 0.22606091 -0.197986
-0.13531472 1.5459373 -0.42540255
0.47288886 0.33780116 0.29156137
0.55012524 0.76097804 -0.13578233
-0.055970654 -0.271006 0.09920721
0.5813518 -0.052339487 0.5286825
0.11892918 0.5921724 0.8776275
-0.6888821 -0.41135025 0.5928714
-0.2238841 0.67802566 0.87315476
0.5085416 1.1432085 -0.393198
-0.88858986 -0.089258716 -0.7382185
0.88981056 0.82625973 0.13379008
-0.60667527 1.0459108 0.3684487
0.16830568 1.189697 -0.61203194
-0.08316204 -0.4146027 -0.33572018
-0.30568504 0.98217416 -0.63701665
-0.25533563 1.4267387 -0.55835295
0.5861647 0.78720653 0.512331
-0.40994626 -0.060137518 -0.4339957
0.25551403 -0.17423779 0.92603755
-0.7656162 -0.24257532 -0.7450913
0.6854603 1.0464925 0.28358155
-0.46602893 1.0529351 -0.49031577
-0.3492437 0.8202503 0.23646483
-0.33202016 1.3122506 0.4119579
-0.32315174 0.37551692 -0.74850416
0.06886271 0.6489347 -0.37648487
0.0925425 0.82614213 0.77128905
-0.60876274 1.0053473 -0.30527994
-0.03590183 1.370148 0.68214685
-0.21324709 1.4573476 0.34425002
0.012563679 0.29908556 -0.0408903
-0.108096495 1.6720034 -0.11771895
-0.08174273 1.1898606 -0.038746312
0.011636004 0.43873292 -0.1673202
0.040028453 -0.12229921 0.055909097
-0.531352 0.70870966 0.7263878
0.22847947 0.70013404 0.71428317
0.7300105 -0.4121225 0.22579911
0.4400312 -0.2505479 0.08118446
-0.88657063 0.53955257 -0.004264646
-0.51750696 0.30407715 0.027003817
0.19976276 0.34847745 -0.05368451
0.068927154 0.9649067 0.097802065
-0.41081476 -0.08370213 0.8849344
0.26371533 1.0723832 -0.15630344
-0.36754298 1.5504616 0.34743866
-0.5082018 0.6448213 -0.75363207
-0.23796162 0.39125466 -0.23942563
-0.92275286 -0.25636375 0.8699349
-0.31161827 0.5147175 0.627969
0.36660224 -0.41439843 0.4329613
-0.24490449 0.9723893 0.2735914
0.040629573 -0.4213268 -0.020838074
0.39932114 0.11980069 0.5481992
-0.46192592 0.68091214 0.14228952
0.19625527 -0.41192204 -0.4617911
-0.46641803 0.4004029 0.35871905
0.16567168 1.3138782 0.05161626
0.009694505 0.5063553 0.51800704
0.8699896 0.5492356 -0.15209976
0.20569052 -0.11129005 -0.095614016
0.7004855 0.18765959 -0.047123224
0.18681341 0.8883571 -0.6831254
0.38299924 0.32532495 -0.6669473
0.097895876 0.8387531 0.5744001
-0.15170513 -0.4189881 0.064276025
-0.19091225 -0.092653655 -0.20860934
-0.53127825 0.5125537 0.68555194
-0.55615556 1.2127678 -0.56985664
0.8985416 -0.40704238 0.12151575
0.8073307 1.1566595 0.21754014
0.56257516 -0.41050577 0.73766047
0.025525719 1.3221197 -0.72856927
-0.25069663 -0.22868784 -0.5935211
0.51879406 1.105299 0.38029382
0.89496124 -0.4090346 0.5333384
0.25244248 1.467377 0.14605722
0.3630129 -0.08813506 -0.90947413
-0.09505819 1.19062 -0.81694645
0.14146602 -0.071585685 0.8723566
-0.007815347 1.520047 -0.034075443
-0.22552514 1.644938 0.25646222
0.26812625 1.4906493 0.49465755
0.5957295 1.3948321 0.30622602
-0.57729495 0.8753249 -0.43851504
-0.25243837 -0.059105203 -0.7498913
0.71952724 -0.08447501 0.87696254
-0.7201395 -0.04317475 -0.22107643
-0.44563785 -0.22701585 -0.6403914
-0.48445088 1.5310843 -0.13836247
0.6106299 0.9537946 -0.65268767
-0.6289034 0.70593 0.27229065
-0.3454667 0.782184 -0.6601231
0.3568523 0.5097367 -0.57029766
-0.10244444 0.5376847 0.6977879
-0.34207767 0.43953857 -0.56803596
0.41365364 0.087224945 -0.18250635
0.86711204 0.62004626 0.18568699
-0.3578077 -0.41503423 0.35343492
-0.36119804 1.2886415 -0.65875506
0.22563297 0.76739466 0.8988347
0.7386401 -0.07194363 0.42631596
0.35841256 1.407879 -0.0042205714
-0.92272556 -0.25439495 -0.43065512
0.42003042 1.3647633 0.5534966
-0.15615973 0.13989034 0.6183855
-0.87950504 -0.41436523 0.5202689
0.5040448 0.8226621 -0.53536963
0.5098041 0.6047641 0.50308204
-0.3331893 0.112109184 0.4948882
0.50450295 0.57983136 0.7268281
-0.15102455 -0.24169424 -0.7658012
-0.707564 -0.26331085 -0.9271468
0.39202648 1.0847389 0.17902046
-0.0879038 -0.22292057 0.6396754
-0.1595572 -0.09165262 -0.9176953
-0.8554689 0.75729126 0.29071617
0.10310407 0.31796384 -0.25252992
0.57926553 -0.08631636 0.7470755
-0.035661362 0.68220544 -0.53510934
0.15149619 1.6456673 0.22060657
0.23671952 -0.410814 0.6122215
-0.48891523 0.29807454 -0.5934579
-0.30051535 0.40354812 0.079643525
-0.612162 1.4164985 -0.23572835
0.03318964 -0.23979442 0.4750473
-0.6386306 0.80061233 0.6215327
-0.7799065 0.5914245 0.39137232
0.75068057 -0.23419109 -0.08782082
-0.26825956 1.0346515 -0.44480655
-0.0558386 0.9794283 0.2502098
0.7118106 -0.06171937 -0.38644743
-0.688132 1.0401683 -0.5223377
-0.8175127 0.38575137 0.10116657
0.58303404 -0.040180165 0.31752014
0.23364812 1.2999051 -0.4637528
-0.12674113 1.2624221 -0.21528348
-0.284949 1.4686027 0.5187212
0.3967513 1.3268409 -0.32609692
-0.51790893 0.8428805 0.4050064
0.3217525 0.22682852 0.049161702
-0.19831762 0.2017084 0.23956358
-0.41462412 0.6697264 0.553648
-0.085506365 0.5442776 -0.27931768
0.32102063 -0.22707033 -0.77849376
-0.14004579 0.49217427 0.37431067
0.6300926 -0.2616412 0.07669094
0.6545547 -0.22944635 0.25033435
-0.42074993 1.3226383 -0.29067406
-0.17211491 1.3199052 -0.7123477
0.106004715 -0.40895495 -0.627553
-0.19632386 0.70541507 -0.89500743
0.6470643 -0.2453864 -0.91734886
-0.64084214 0.29474068 0.39944446
-0.6013342 -0.246938 0.2585817
0.56989145 -0.40993452 0.5216605
-0.15262622 0.8813297 0.092737615
0.2883005 1.0476786 -0.64054704
0.023375295 0.671715 0.6641112
-0.6956105 0.87680066 0.29692835
-0.16421017 0.3927293 0.5712999
0.8969761 -0.091094054 0.7328932
-0.5879655 1.3328004 -0.39793748
-0.59970045 -0.062807634 0.3432742
0.40776545 0.09654687 -0.36989704
0.31754482 1.0445142 0.6542568
0.26691616 1.140914 0.7991898
0.68966645 0.8404865 0.31087554
-0.17044212 0.51135516 -0.07254009
-0.13545021 0.5201899 0.15202928
-0.6240827 -0.23819196 0.46971995
0.1465987 0.57061374 -0.22318865
0.9174435 -0.25108355 0.6450847
0.12919478 0.9510499 -0.89887834
0.41980907 -0.24440257 -0.29579228
-0.5735934 0.11602265 0.1273444
-0.4865592 -0.24482897 0.58749473
-0.34326026 0.3480457 0.50892574
0.924437 -0.25025004 0.43955028
0.5943459 -0.24281368 0.64300483
-0.5659379 1.0191263 0.01698142
0.5319977 0.8077297 0.2300427
0.8487886 0.7592117 0.32814282
0.16800877 0.24489444 0.35778594
-0.3982281 0.4449591 -0.3320701
-0.77276593 -0.25417352 0.53620315
0.19899307 1.6520958 -0.31109363
-0.037944514 1.453672 0.30767554
0.5474641 -0.08761938 -0.90970963
0.24438989 0.22602433 0.6850234
0.09497779 -0.25541824 0.9220312
0.65806174 -0.08195239 -0.7377758
-0.0087649785 0.982002 -0.3021972
-0.06420309 0.031287313 0.024087694
0.45152277 1.0091784 -0.7545585
0.14455655 -0.10411058 -0.30212313
-0.7865966 -0.25390023 0.7302128
-0.74562585 -0.07987991 0.43235835
0.5205134 0.87435484 0.74553525
0.18944728 0.9777671 -0.31269574
0.08861807 1.066255 0.30582035
-0.37568727 0.3828034 0.72347677
0.58932203 -0.22467883 -0.21743934
-0.20571378 0.8720919 0.86912274
0.78021497 0.91776186 0.45468974
-0.5888209 0.52559024 0.3163551
-0.19463807 1.5367737 -0.038851045
-0.6185044 -0.40467972 0.9019915
0.23732749 -0.24201772 -0.39746898
-0.6062479 0.23682845 -0.41859156
-0.4603448 1.5012593 -0.320005
0.78179276 -0.24173278 0.3408719
0.9132238 -0.2439323 -0.5917663
-0.17022598 -0.12131497 0.0018365586
0.02961471 1.0149374 0.5267049
0.33462203 -0.07789914 -0.36702007
0.6148793 0.72603786 0.68654644
0.53746176 1.2803187 0.027547333
-0.7077934 0.90531814 0.06561281
-0.42332137 0.96178377 -0.79470575
0.89675397 -0.40735886 -0.085127115
0.6978586 0.41297323 0.4551028
-0.16416956 0.3303792 -0.5658616
-0.36364368 0.23492926 0.35124773
-0.366 0.31510043 -0.4580763
0.059731904 -0.2639179 -0.3702411
0.7178844 0.5693116 -0.5480062
-0.51071465 0.72145414 -0.5423434
-0.050695144 0.9499055 0.7061329
-0.68575203 1.0422564 0.18236992
0.2798008 -0.046353042 -0.70329773
-0.89243174 -0.40782 -0.5363549
0.01719493 0.4203912 -0.6673478
-0.2683776 0.70655537 0.6722375
-0.048433546 0.5101825 -0.49370965
0.8902037 -0.40886873 0.7326907
0.22967273 -0.10640271 0.11034151
-0.22980228 0.4951856 -0.4216562
0.041712325 1.3344655 -0.098263405
-0.45528296 -0.23699254 -0.2986744
0.9006304 -0.090104476 0.5328332
0.8857844 -0.40200055 0.90580916
-0.06351902 1.0059235 -0.05477329
-0.49409902 0.5092922 0.5021998
0.56658554 1.4460733 -0.38155383
0.30772156 -0.40401906 -0.9148601
-0.31857228 1.2696486 -0.12461611
-0.55127203 0.12332584 0.33062434
-0.3819123 0.63647676 -0.40086752
-0.14157388 -0.4092461 -0.907688
-0.18839288 1.3063707 0.26389024
0.44618064 0.5652628 0.27156764
0.27519092 1.3350703 0.6747913
-0.36755902 -0.4082169 0.54719734
0.5780252 0.35677862 -0.32052755
0.20892441 -0.40925205 -0.75863194
-0.16195035 1.4874694 0.14315149
-0.5440924 -0.060656287 -0.16003424
0.5401031 -0.102411665 0.9156296
0.7738546 0.29521352 0.10841361
0.55234027 -0.039844897 -0.12644523
-0.21148533 -0.24181056 0.7604006
-0.051471516 0.83153725 -0.9233421
0.1171802 -0.41300923 0.7488046
0.2759828 -0.25612205 0.009325551
-0.34685916 -0.41740483 0.15079466
0.26326054 0.21210098 -0.21005005
0.00030030982 0.6285206 -0.8967372
0.2511992 -0.23911256 -0.6165119
-0.12043662 1.23123 0.78199416
-0.07475445 1.4927695 0.5456856
-0.24064745 0.92915714 -0.8656157
-0.45657757 -0.23976283 0.40390372
-0.18500224 1.6829154 0.08741779
-0.13333504 -0.2484479 0.48211747
-0.3599994 0.60278034 -0.6341098
0.09712976 0.48963514 0.19112968
0.22738896 -0.24674565 0.7723064
0.932094 -0.24869636 -0.7803879
0.44639578 -0.23718458 -0.6244184
-0.3094828 -0.26256725 0.023698397
0.28219345 1.0840907 -0.4514268
0.72285354 -0.40017402 -0.9180366
-0.7416834 1.2627933 -0.23837698
0.05864162 1.4970748 0.13437599
-0.3571366 0.2394125 0.13380194
0.14951491 1.4251592 -0.616941
-0.92210746 -0.26077184 0.42564183
0.4534223 -0.23051691 0.529191
0.41065085 -0.24245438 0.3602637
-0.9096855 -0.10604171 0.1674548
-0.50622666 0.4672726 -0.6970742
0.46225947 0.10360855 0.1750766
0.41993022 0.26696858 -0.31280953
-0.32642877 -0.09550465 0.11572881
0.0032763148 -0.073130324 -0.5027493
0.702824 0.6195121 -0.017067336
-0.40594417 -0.2298558 0.7504616
-0.24574682 0.1997335 -0.19371134
-0.069672234 -0.25706673 0.29636908
-0.24412376 1.2660315 0.08117567
-0.42991197 0.6985252 -0.09939121
0.7762984 0.42181122 -0.29218733
0.90262365 -0.08771424 -0.4881689
-0.31271458 0.9902268 0.4841553
0.13302481 0.5296004 0.69386625
-0.31999886 1.1986006 0.753855
0.56076735 0.26343822 0.48976588
0.26396036 0.4098199 -0.23165038
-0.6543193 0.61386675 -0.6204289
-0.18160738 0.09766517 -0.5063195
0.39339304 -0.4188656 0.014567282
0.089181155 -0.40491402 -0.9095552
-0.159796 1.0615399 -0.2232027
-0.73443836 0.59154147 -0.03422105
0.42278636 0.2843392 0.62948465
0.010587621 -0.4101357 0.9043803
-0.027381705 0.94320834 0.90133023
0.4573081 1.54726 0.20487618
0.40852946 -0.07780751 0.22340424
-0.42740056 1.0039115 0.3168323
0.061764695 0.22924742 -0.75028825
-0.46757334 0.4754504 0.14556952
-0.20776162 0.69958067 0.19257575
-0.06045645 0.15486203 -0.10139324
0.26839542 -0.052981585 0.72215885
-0.9105378 0.7350676 0.07213922
0.4816299 1.0518053 0.74286056
-0.7431241 0.7382257 0.13301226
-0.035462707 1.6576238 0.25279552
-0.73038125 -0.08653277 -0.9020195
0.4119379 -0.41660267 -0.1846484
-0.08407202 0.2751252 -0.22973776
0.12770894 -0.22781125 0.61344594
0.8971642 -0.086827636 -0.08942885
0.8886298 -0.08293767 -0.7048031
0.56426406 -0.40834162 -0.2919026
-0.15880534 1.0728774 0.6391184
-0.49391 0.7659366 -0.3042925
0.34496504 0.7466266 0.22672278
-0.30058193 -0.22751814 0.57789534
-0.409508 0.25963223 -0.28897452
-0.44181347 0.13562535 -0.49647188
0.38634908 0.49268734 -0.76996934
-0.6529643 0.4185247 -0.5364759
0.5885545 0.4739241 0.36242306
-0.66915226 1.4123405 -0.07405897
-0.0877559 1.1327581 0.42663592
-0.6165118 -0.07637374 0.14087194
-0.7314953 -0.08376679 0.7982683
0.5042619 -0.23553404 0.23034954
0.007773032 0.018610176 -0.1893276
0.2048611 0.2470878 -0.41446108
0.19048847 0.5583322 -0.8658411
-0.05215633 1.4640107 -0.5999993
0.73175544 1.0959115 0.45603535
0.33941615 0.3657872 -0.44332778
-0.37044257 -0.07749664 -0.26197878
-0.83686984 1.0906097 0.24814925
0.180442 0.657649 0.5326433
-0.10527009 0.15322572 -0.6672452
-0.40497756 0.08723079 -0.15965343
-0.83631706 0.7101281 -0.3204841
-0.5672252 0.41907156 -0.37301174
-0.41640073 1.3112335 0.6022195
-0.17649731 0.34431162 -0.052683566
-0.1364038 1.5956327 0.41345775
-0.921124 -0.25569317 -0.22123203
0.5698228 -0.40026855 -0.076979026
-0.86746037 0.8902372 -0.22889847
0.8578378 -0.25039148 -0.9283471
0.45380774 1.0119106 -0.5347426
-0.21946603 0.24233606 -0.40114367
-0.38987154 0.44274414 -0.099485606
-0.32461745 0.55604374 0.23861068
-0.1212069 0.85875154 -0.15425512
0.0842354 0.16066322 -0.2409544
0.5784364 0.94464576 0.41925395
0.7525662 -0.24630663 0.54078794
0.8933462 -0.4086486 -0.6850173
-0.059198238 0.81442654 -0.38524896
-0.3802927 0.2570708 -0.080283545
0.33715168 1.3541707 -0.6239242
0.41707984 -0.25093 -0.108208254
0.3843655 1.5713263 -0.3382441
-0.18193007 0.08983354 0.3978727
-0.23399064 -0.060965788 0.51606095
0.2227644 -0.41485727 -0.10123736
0.12407926 0.029201973 -0.042176235
0.665985 0.55644804 0.1807656
0.32275587 1.6386235 -0.13153392
-0.8984614 0.7121203 -0.13125345
-0.02855422 -0.097067885 0.91203177
0.90720636 0.68337584 -0.01675728
0.0020263412 0.45177042 0.037398994
-0.25338346 -0.055126633 0.7099835
0.41121668 0.26097175 -0.112161204
-0.34211558 1.4314258 0.039017405
0.38069832 0.43981192 -0.05715745
0.1998457 -0.24651277 -0.9252416
0.0871844 0.8212205 -0.23663789
-0.25713137 1.6091354 -0.23992065
0.56277657 -0.05241163 -0.5309246
-0.34678236 1.1710271 0.20771068
0.412626 1.4392209 -0.4799518
0.5806105 0.9473493 -0.39886093
0.90478945 -0.086722314 0.11389434
0.6224927 0.66601413 0.34109744
0.6193112 0.36643425 0.19048697
-0.33301806 0.2165374 0.64768934
0.20123544 1.423735 -0.34207135
-0.42441046 -0.40803173 0.8925959
0.11398472 1.174909 0.44051796
-0.7308234 -0.2508683 0.9168182
0.35930735 0.68633914 -0.8347951
0.5764416 -0.22901537 -0.4165399
0.6934999 0.86016715 -0.25258338
0.548522 1.3168557 -0.5362576
0.33761752 1.2598913 0.15629494
-0.83509934 0.54060364 -0.22438398
-0.81468153 0.37976152 -0.11390211
0.3962649 -0.4079159 -0.7616053
-0.6625451 0.48877499 -0.21119758
0.69636816 1.2442799 0.34511626
0.72696567 -0.41136715 -0.18454677
0.7171229 1.3266795 0.15109959
0.7379084 -0.08325265 0.64732194
-0.61524415 -0.24779165 -0.6172828
0.017954769 0.8098986 -0.020313926
-0.25995645 -0.41409326 -0.2716492
-0.3736475 0.082836665 0.25959572
0.19939113 -0.070205644 -0.5192573
0.17719667 0.37554687 0.7844664
0.06629166 1.5597622 -0.45960617
0.4420848 0.8183558 -0.2931199
-0.6463598 -0.08206809 -0.7445544
0.1429143 1.4461851 0.31794816
-0.57739496 0.13237976 -0.08041453
0.31359246 -0.23113075 0.62066793
-0.021082068 1.6373401 -0.29406622
-0.3171997 0.52252114 0.43563056
-0.35693806 1.3976419 0.22573894
0.89869285 -0.4085867 0.32762173
0.21702965 0.92469096 0.24993837
0.024951078 -0.22573093 0.765877
-0.79571056 1.0626948 -0.31820035
-0.53666687 0.8747021 -0.14808576
-0.51545244 0.980626 0.5272911
0.2520643 0.5820699 0.21732283
0.64592254 0.55295765 -0.37167287
0.5778527 -0.18121368 -0.04527393
-0.7111083 0.22535974 0.21318166
-0.61639094 0.6382755 -0.37929255
-0.31536186 0.5920235 0.030194335
-0.31006765 1.5101321 -0.39553118
-0.84506917 1.0943611 -0.13795619
0.17714792 0.7118539 -0.08792443
0.66945106 1.4213214 -0.23482817
-0.9299252 -0.2574545 0.63283026
0.4808433 -0.4149148 0.9031273
0.7029603 0.9874194 -0.07706912
0.15308332 1.2779088 0.24404496
-0.34647828 -0.09091094 -0.07641662
0.026581932 1.1180906 0.83984435
-0.7849953 1.2629619 -0.030950528
0.062330395 0.8807881 0.38529426
-0.22859803 0.66334903 -0.52353513
0.07089516 -0.10995722 0.25763854
0.1460051 0.33673465 0.49734718
-0.12706983 -0.40902743 -0.618441
0.2553563 1.2996457 0.4583381
0.898448 -0.40695113 -0.48471594
0.19098088 1.1870556 0.6038115
-0.44981843 0.8634696 0.014060192
0.38415214 1.1437967 0.50818896
-0.17721795 0.27976596 0.42397553
0.12393625 0.33040857 0.15335631
0.43864757 1.1542025 -0.18996665
0.7356937 -0.41461033 0.02096988
0.036469754 0.3704822 0.6515435
0.06055515 1.350528 0.47532728
-0.27086812 1.1405826 0.37587267
-0.061690424 1.01498 -0.8747321
-0.3329506 0.564728 -0.81777084
0.12532672 1.4346106 0.60965985
0.5899911 0.16990419 -0.41445988
0.8946679 -0.40790683 -0.28542823
-0.57820964 -0.409226 -0.32285744
-0.011718869 0.21862793 0.31288457
0.035862643 -0.09131397 -0.91746545
0.57028866 0.86436594 0.022695
0.080928735 1.5749121 0.42291394
-0.75139487 0.3636281 -0.3288874
-0.1881189 -0.40564144 0.6156635
0.5565927 1.1993718 0.20179114
0.22620699 1.0008761 0.47780532
-0.3926754 0.08703557 0.03940443
0.5367074 0.6311357 -0.5328211
0.0168445 0.8005645 0.19441974
0.76171905 -0.24156347 -0.7395537
-0.15323038 1.366719 -0.046432987
-0.32042605 -0.4111989 0.73606664
-0.08713369 -0.40967208 0.7560332
-0.6151601 -0.25070238 0.719151
-0.1588309 0.6766244 -0.71207404
-0.2493916 -0.25686958 -0.9226947
0.7295368 -0.4113533 -0.5796486
-0.6025791 -0.23383094 -0.4287778
0.7869815 0.43485284 0.25389153
-0.13335106 -0.054382823 -0.61083364
-0.025971942 1.167448 -0.60811895
0.69237727 0.38167584 -0.4657904
-0.3688652 0.995871 0.10344997
-0.18543032 0.69712865 -0.34333113
-0.55072236 -0.09234549 -0.91561633
0.26843727 0.81875783 0.45031232
-0.84890914 0.5717193 0.20024389
-0.28299332 -0.2374995 -0.38305682
0.52934444 -0.41170043 -0.8971367
0.3931802 -0.22867104 -0.47623935
-0.6970836 -0.4186054 -0.79893374
-0.3203525 -0.25210577 0.920784
0.3873914 -0.41460848 0.22235292
0.0062340917 0.59907067 -0.067815736
0.036791123 0.2995919 -0.54064137
0.78903913 1.2456427 0.0031909107
0.6984545 -0.41789025 0.876834
0.53090036 0.107124776 -0.011660882
-0.57051665 -0.045415655 -0.35566527
0.6528227 0.4950987 -0.1781051
0.51108277 1.5278302 -0.19888535
-0.11611402 1.0078272 -0.69000256
0.6854559 0.2578981 0.32164332
0.051099963 1.3206239 -0.4987377
0.8952166 -0.40670416 -0.8805909
0.5575862 0.45772773 -0.63148904
-0.7676586 0.41480976 0.3013947
0.44650495 0.76599836 0.39344603
0.5467623 -0.25203127 -0.7757433
-0.356154 -0.08933691 -0.9127101
-0.13604292 0.3031807 -0.7699379
-0.016076418 0.26934677 0.51462525
-0.22126646 -0.25281006 0.18124503
-0.26326597 1.1127701 -0.071827106
-0.009731943 0.41172934 0.81840956
0.16166514 0.72516084 0.30757248
0.33996075 0.2697658 0.45216912
-0.9216131 -0.2481708 0.0010047588
-0.019245783 0.20371577 -0.41367382
0.104164176 1.2752823 0.764243
-0.83052766 1.0845442 0.048871987
0.36044008 0.8608618 -0.6558009
-0.10375972 0.68520415 0.0506432
-0.64615154 0.6762084 -0.18219191
0.57276136 1.2734094 0.49642122
-0.0019273367 0.097174585 0.49172303
-0.5152573 -0.41580683 0.7033231
0.7152156 0.73467696 0.14340143
-0.31095642 1.441397 -0.17816454
-0.65078384 0.40771276 -0.030110393
-0.18719074 1.0600603 0.08608734
0.4978323 0.63262963 -0.28607443
0.9056796 -0.08948978 0.32539672
0.2538423 -0.24115929 0.44970846
0.24693903 0.7448641 -0.31943896
-0.53148746 0.33909044 0.5991591
0.10452387 1.6889979 -0.13898894
0.035799958 0.19118157 0.70817876
0.061885126 0.10863918 -0.5758163
0.4990793 1.0685548 0.0070218015
0.34925795 0.56788486 0.6221711
0.62511194 -0.24053653 -0.60704416
