0.5889738 1.4203076 0.5235525
0.4690751 0.5013342 0.11464022
0.45771784 1.5531476 0.25805473
0.74650514 -0.25149196 0.7562711
0.38918036 1.0520653 0.5583873
-0.5934305 1.0055633 0.38992205
0.03268961 0.1520384 -0.31148854
0.6520224 1.2397904 0.56956387
0.30063304 1.7025397 -0.622512
0.7721832 -0.24819052 0.9342667
0.46335083 -0.08412692 -0.7270845
0.002828475 -0.4132195 -0.46632856
0.03286113 1.4132977 0.027193706
-0.72932243 1.0400274 -0.16805886
0.29865843 1.4186882 0.24859057
0.098080784 -0.24093217 -0.53166866
0.3133853 0.4609983 0.26793694
-0.33807766 -0.083559476 -0.58003116
0.13105036 0.6035776 -0.3575992
-0.90468794 -0.094623104 0.73433256
0.47176838 1.7607081 0.28695947
-0.5988053 1.4706714 -0.11227685
-0.46659732 -0.25192636 -0.9219228
0.428633 -0.08133045 0.6455436
0.23954837 0.32438317 -0.56685275
0.8796172 1.3094165 -0.16426083
0.8970002 1.1373875 -0.24212617
-0.2775558 1.0370078 -0.03729946
-0.19511038 1.5650382 -0.49506533
0.20992404 0.14448246 -0.1564858
-0.42119408 1.301755 -0.251521
-0.7345089 0.74064267 -0.46749616
0.012266127 -0.043403298 -0.13389474
-0.7380085 1.5290508 0.026757553
-0.72641087 -0.08327757 -0.42135412
0.34428263 1.053498 -0.5082436
-0.59034264 -0.41428643 -0.10698798
-0.36009595 1.3806436 0.53171533
0.12135231 1.3329539 -0.50631523
-0.2678545 0.79088736 -0.23598485
-0.037635483 1.1907351 -0.568769
-0.24959114 1.2308037 0.5876118
-0.75064003 -0.07810703 0.22372574
0.24892959 0.48510906 -0.7402419
-0.059089612 -0.0874684 -0.7604117
0.76363397 -0.24983194 -0.4900672
-0.5595331 1.2932615 0.6135572
0.6302942 1.2922769 -0.6803244
-0.09929681 -0.24033035 -0.45706978
-0.12776147 0.9947423 -0.7977873
-0.110251114 -0.05468893 0.18630745
-0.76008475 1.105139 -0.52738655
0.39263308 0.99244964 -0.05951401
0.14848115 1.3821781 -0.124672905
0.22889404 0.877591 -0.56628
0.9234781 -0.24709113 0.012254011
0.07331869 0.5549514 -0.82243955
0.842181 0.75000143 -0.331076
0.70447266 1.6259389 -0.1499448
-0.23484936 0.15845059 -0.043385103
-0.4355643 1.4664593 0.35962093
-0.119142875 -0.22735646 -0.2665374
0.8664069 1.2305655 0.23958053
-0.7187815 -0.42030522 0.7758945
0.32684225 1.2743912 0.770246
-0.5002185 -0.41848058 -0.7306872
-0.7172724 0.9175571 -0.56137174
0.14191893 0.35112268 0.22556987
0.28014863 0.9013046 0.8067355
-0.5667279 -0.08574857 0.5407062
0.7461344 -0.08661206 -0.5833906
0.85180783 1.0895536 -0.40941
-0.09918241 1.4930242 -0.64819986
0.30973375 0.1911376 0.056908734
-0.021974012 -0.41390216 -0.76399344
0.72980213 -0.41809702 0.6474093
-0.10870263 0.6270932 -0.8518679
-0.45949227 0.70940715 -0.52535176
-0.004854004 0.9870616 0.38962203
0.5649371 -0.082443416 0.11246452
0.20014685 -0.41261905 0.28821886
-0.35503462 -0.41560972 -0.5931791
-0.38354084 1.3533704 0.70567596
0.14898178 1.2878723 -0.9246068
-0.8914911 -0.09822637 -0.91111135
-0.775048 1.0939503 0.38007376
0.079571605 -0.4162228 -0.24383302
0.40272474 1.1444557 0.07343855
0.47658646 0.404931 0.38967836
-0.06233308 -0.080127686 0.5722747
0.124590464 1.7086413 -0.35595486
0.13239467 1.1728029 -0.17153358
-0.7631014 -0.24332446 0.32705235
-0.5020756 1.7803351 0.07113236
0.4284866 1.1651307 -0.14534196
-0.50229883 0.5225196 0.47552842
-0.86686 -0.081046924 0.025581997
-0.508646 0.80662405 -0.078351274
0.76727545 1.0354831 -0.5581887
-0.17799896 1.3249395 -0.71068585
-0.21864071 1.7021226 0.52648
-0.34036088 1.8736801 -0.030825946
0.57672703 0.7470554 -0.7167646
0.33748117 1.6727567 0.1917972
0.70335543 0.8805015 -0.6332424
-0.40411156 -0.086355194 0.4348953
-0.616569 -0.0909675 0.9171449
0.41391832 -0.081224404 0.43216193
0.5953313 -0.2653675 0.90134144
0.9222747 -0.24597053 -0.38875172
-0.8964648 -0.4066028 0.10995966
0.7591614 1.0099535 -0.07768205
0.9194602 -0.24621168 -0.18788503
0.53552693 0.4466433 -0.4858228
-0.53573775 -0.42163712 0.48670983
-0.14355376 0.17853224 -0.23592272
-0.7103598 -0.41506076 0.4027531
-0.1121422 0.54188836 0.16586004
-0.31599295 1.0220203 -0.511719
-0.88161826 1.1733938 -0.1403481
0.0045699957 -0.4148713 0.57999516
0.13613203 0.31477106 0.021165509
-0.69169664 -0.078728974 -0.021921847
-0.71715224 -0.41753262 -0.62380433
0.062162086 0.75137746 -0.7169343
-0.8963677 -0.40673727 0.7212572
-0.90398395 -0.09177944 -0.525336
-0.6091211 -0.24900863 -0.20862749
-0.31538135 0.9041258 -0.89115214
0.42992434 -0.25432503 -0.9220958
-0.58203316 1.5943925 0.3567323
-0.0058009983 -0.41460198 0.37058437
-0.24694711 0.81428146 0.7871163
0.37335584 1.002193 -0.889616
0.42744267 1.3767341 -0.6048144
-0.49891585 1.4787781 -0.3043868
-0.5226701 -0.24470711 0.9136927
-0.4649725 -0.24978781 0.10873751
0.6402465 0.91936255 -0.40664613
0.011905216 1.5554178 0.19561736
-0.03819678 0.3384055 0.14941087
0.09844341 0.26201105 0.40397993
-0.2574647 -0.41983998 -0.75167423
0.39665258 -0.2663185 0.92440903
-0.2446047 1.5271825 0.44344896
0.3809733 -0.08123136 -0.5456629
-0.14402339 1.0240034 -0.59742683
0.8452225 0.7046995 0.08087973
-0.47669262 1.5401897 0.1903173
0.3811697 -0.07463004 0.87464666
-0.08793351 0.930694 0.8355761
0.2945392 1.3829243 -0.39576006
0.31997076 1.8752332 0.18123499
-0.35626194 -0.25807375 -0.76701516
0.73697233 -0.08058025 0.21981362
0.297292 1.0658975 -0.21319288
0.38969278 1.0674214 0.7706756
-0.47378677 1.7366161 0.2730883
0.5495589 -0.42231274 0.12957281
-0.70634997 1.2629151 0.43074143
-0.1320743 1.2662919 0.36510986
-0.036120303 -0.24777994 -0.634514
-0.5433909 -0.08288351 0.741909
0.8023057 1.4566829 -0.27686352
0.18919174 0.7174541 -0.028646387
0.92775977 1.099877 -0.06628016
0.54539454 0.5352328 -0.08181496
0.604035 1.4427094 -0.3579901
-0.07482161 1.7046225 -0.36877528
0.3893435 0.32063746 -0.4509679
-0.09362134 -0.40809792 -0.13839886
-0.7445593 -0.41567767 -0.2132083
-0.26797837 -0.41185385 -0.06624481
-0.26871508 0.6350248 0.25711828
0.9036083 -0.08843673 -0.8955914
-0.3706905 -0.4112947 -0.90062046
0.11788306 -0.24593304 0.3185451
-0.89613724 -0.09152039 -0.32808787
-0.003598588 0.90631306 -0.23994817
-0.18449405 0.62387013 0.7238451
-0.65245676 0.8405688 0.08320932
0.041471884 1.9511904 -0.10785457
-0.07546984 1.377655 -0.4990831
0.9258208 -0.2464446 0.22601241
0.15534654 -0.4131441 0.4601867
-0.031894438 -0.25585583 -0.9132643
-0.916005 -0.2591244 -0.87047696
-0.17277849 -0.41142067 0.2557451
-0.6876813 0.77230936 0.44933045
0.06132736 0.94771844 -0.8103236
-0.21474698 1.268902 -0.90728444
0.7183169 0.8608858 -0.21808097
-0.31862915 0.22758073 -0.28489304
0.6551963 1.3940821 -0.17430502
0.4452885 -0.2398532 0.75848556
-0.009035619 1.5185685 0.5075629
-0.38774154 1.5900552 -0.6575917
-0.11394209 -0.22550118 -0.071709946
0.7465285 1.0314457 0.4945976
-0.2431699 0.20697576 0.193086
-0.18259007 -0.42032963 0.44462097
0.25916272 -0.08261318 0.5424892
-0.26984382 1.1747267 -0.18769462
-0.28093332 1.3693502 -0.39924297
-0.47722822 1.3800226 -0.46590757
-0.40846196 1.1579266 0.7374741
0.34141707 0.734515 0.7343515
-0.5522381 -0.08322655 -0.547488
0.091036476 -0.08016016 -0.6708405
0.21255392 1.0516164 0.029682137
-0.8056755 1.2854402 0.2727074
0.4048496 0.8190893 -0.654356
-0.6871667 0.9494226 0.52347267
-0.42322665 1.085345 -0.6677101
-0.112705454 1.1234381 0.4819041
0.044371862 -0.2384933 -0.18318295
-0.76706994 -0.24477667 -0.10101263
0.0027490617 1.6156403 -0.51094127
-0.29433638 1.0062144 -0.28935337
0.26455313 1.1912138 0.6055584
-0.2627992 -0.24918091 0.3826478
-0.4817816 0.56080633 0.2007812
-0.5269344 1.1681242 0.09726446
0.24796274 0.20921084 0.23546165
-0.11843628 1.4240576 0.12974721
-0.900192 -0.40517592 -0.103507206
-0.5804047 -0.4052884 -0.9152998
0.5297385 0.72923535 0.6207661
0.12016167 1.1747313 -0.7839191
0.2845104 1.4090463 -0.85423255
0.4686051 1.3384376 -0.7905826
0.08270572 1.3501968 -0.29927343
0.35802093 -0.07095542 -0.18502018
-0.526109 -0.41711712 0.2845871
0.09922086 -0.08016125 0.45839775
0.0652411 0.17143065 0.21564405
0.9061246 0.93554664 -0.22815645
0.69474816 0.44232285 -0.18892512
0.73728573 -0.085438706 -0.9013467
-0.4238358 -0.2570359 -0.47939026
0.22386837 1.922702 -0.12532493
0.092941254 -0.2118707 -0.02988428
-0.21693014 -0.41191715 -0.45550987
0.43583798 0.64946926 -0.22003137
0.39265347 1.2285953 0.2799274
0.3368374 -0.41845754 -0.58016217
-0.26779646 0.37088957 -0.59438324
-0.4926247 1.7937796 -0.1309148
0.42411226 -0.41266903 0.61773527
0.5353864 1.7801698 -0.13367848
-0.081441924 -0.08041993 0.38258713
0.40606886 0.86039877 -0.4597816
-0.30207014 1.8866533 -0.23185158
0.2360886 -0.3987881 0.9149504
-0.2034503 -0.0723809 -0.40831572
-0.085541755 0.22221005 0.3199895
0.1705094 0.70520234 -0.51925814
0.42052698 1.1886126 -0.36946833
-0.6262568 1.361448 -0.27542353
-0.27619326 -0.23924434 -0.1731138
0.8480999 1.2885245 -0.37485927
0.5440022 -0.41269517 -0.4940353
-0.42559785 0.9615778 0.2804507
0.14749531 1.0236238 -0.4842139
-0.38134837 -0.25372553 0.24964853
-0.44325772 -0.083125696 0.23961285
-0.17883965 1.1189443 -0.40038627
0.8937758 -0.09421692 0.908475
-0.05625625 0.54071176 -0.34064722
0.9284878 -0.24918097 0.8588861
0.10880534 1.4999133 -0.4056084
0.20353553 -0.40864247 0.09840035
-0.11751626 1.0972152 0.6876589
0.38093397 1.878291 -0.051120546
0.21996415 0.21113467 -0.3620851
0.6944269 1.2609978 -0.32677656
-0.4612711 0.79156506 -0.27097335
0.4287455 1.543679 0.5872806
0.7309742 -0.41607475 0.42747036
-0.53307223 1.1902099 -0.77379405
0.52926046 -0.081375316 -0.32835346
-0.5005815 0.972043 -0.80340874
0.72384477 -0.4168945 -0.38918993
-0.89772403 -0.093277514 -0.13963574
0.78745806 0.56139183 -0.049446337
-0.86737436 -0.094052166 0.91357553
-0.8672166 1.2002071 0.06560364
-0.16876581 0.9223319 -0.14893645
0.28508237 0.61848164 0.13529634
-0.21247022 0.35054708 0.051683985
0.34806144 1.6750033 -0.31206077
0.28289133 -0.24087633 0.21083248
0.10949996 0.8832201 0.07630731
-0.17227322 0.9298483 0.4920599
-0.11029661 -0.25904047 0.9199698
0.5564624 0.9367403 -0.78277683
0.7511271 1.2312806 -0.54613477
-0.11867683 1.6373632 0.34890252
0.22055882 1.3752578 0.06302951
-0.19377795 1.4149121 0.740106
0.28181168 1.2285883 -0.040973842
-0.13228863 0.6570718 -0.6571127
-0.5112343 0.3284258 -0.2568804
-0.7433722 -0.41416615 0.0031731515
0.121731214 1.354568 0.609593
0.71717864 -0.08337216 -0.19587588
0.72451365 -0.08142978 0.008433179
0.5037209 1.5573025 -0.23463768
0.7043247 -0.41540214 -0.76125336
0.3248228 0.8458541 0.03435176
0.2692275 1.5130093 -0.25568098
0.5524349 0.3194924 -0.13398845
-0.4585644 -0.08217773 -0.73756003
0.59256315 0.39666066 0.21964252
0.30143335 0.7265878 -0.36599863
0.7277088 1.425511 -0.4906305
-0.4715865 1.5962026 -0.00979159
-0.76071346 -0.24857977 -0.3170755
-0.42303374 -0.41307575 -0.1945507
0.7837288 0.8477837 0.39049485
0.36732218 1.4255261 -0.10010401
0.21206698 0.87487644 -0.9343531
-0.77226675 -0.25291565 -0.5230874
-0.30708522 1.4202807 -0.59848624
0.24990407 -0.4044561 -0.27684975
-0.62180537 0.66793096 0.14889088
-0.6613551 1.0515263 -0.3707899
0.43424445 1.24741 0.48610902
0.10399298 -0.24135712 -0.76096374
0.24634692 -0.08071372 0.3295812
-0.12916833 1.0979842 0.2534234
-0.5754018 1.0046682 -0.054602906
-0.8916701 -0.41105866 0.32470885
-0.8572856 -0.40459293 0.9072953
-0.71572804 1.490061 0.23423621
0.34452072 -0.416939 0.7780526
0.66113263 0.870337 0.5629337
-0.57673 -0.249789 -0.7885612
0.2302479 -0.22423527 -0.19535881
-0.8949934 -0.40423015 -0.73076236
-0.38454893 1.2975905 -0.81413496
-0.21497723 0.9516635 0.31859928
0.6392039 1.7130377 0.0061948285
0.5726837 1.1730729 -0.23162672
-0.6052988 -0.24608675 -0.004902076
0.7441927 1.1640851 0.08020495
-0.8969692 -0.40751114 -0.32299495
0.82876754 0.89657015 -0.4358421
0.28661746 0.31325907 0.40808737
-0.64180416 1.6735032 -0.052889235
-0.7305596 -0.4142264 0.2131171
-0.40647614 0.937341 0.7420434
-0.74461854 -0.084719986 -0.60442185
-0.21365428 -0.41049856 0.9027722
-0.6588727 1.4312493 0.42603692
0.89704454 1.273906 0.031059982
-0.74989593 -0.24164969 0.113917105
-0.0062325327 0.6330631 0.3225256
-0.4451319 1.6171408 -0.2137148
-0.5174017 0.5576086 -0.19080108
0.24117503 0.6721165 -0.68359
0.23005188 0.853984 -0.7536596
0.32953173 1.2048457 -0.8944132
-0.5472996 -0.4164158 -0.5280211
-0.43122834 1.1703464 0.5281731
-0.25741148 -0.07954608 0.31020457
-0.9024822 -0.09479619 0.3505131
0.096316755 -0.08244125 0.6732902
-0.44110206 -0.24224624 -0.09419078
-0.65239537 1.3976653 -0.55376196
0.45968392 0.7192888 0.12093404
0.3879708 -0.06976733 0.01152127
0.14012018 0.39981812 0.56698173
0.7824429 -0.24265844 0.12023798
0.50917125 0.7885169 -0.07200268
0.18935347 -0.078727216 -0.8832217
-0.39558923 1.4412348 -0.105495356
0.59834445 -0.24610978 0.42648828
0.30524093 0.889899 0.38863093
0.48586565 1.6412978 0.06249242
0.11117724 -0.23195541 0.14543378
0.69935304 1.3513528 0.017098982
0.5624063 1.2423906 0.14305457
0.045003973 1.0135249 -0.6513051
-0.032009862 0.8826253 0.23161852
-0.3994062 -0.41743395 -0.39319235
-0.72366756 -0.087261684 0.6287768
0.5459218 -0.41499412 0.33241487
-0.8994883 -0.09234509 0.5428046
-0.62880445 1.6462437 0.15070283
0.020459523 -0.40966386 0.18162726
-0.63722765 1.0241268 -0.68885255
0.7562627 -0.25078028 -0.29125935
0.3969072 0.72479486 0.46014643
-0.021322351 1.1120389 0.8578464
-0.9194379 -0.2670263 0.22363779
-0.21987616 -0.0912859 0.9028566
0.16139925 1.1718998 -0.5933516
-0.8517052 -0.4059527 -0.91285
0.34271848 0.82840604 -0.17827955
0.23891464 0.6653422 0.32143685
-0.57783544 -0.41191232 0.10627104
0.49845952 0.64644766 -0.41536683
0.21967608 1.7332019 -0.17864126
-0.37552127 1.1797715 -0.39462364
-0.92549694 -0.245456 -0.642925
0.8953978 -0.08586727 -0.28916147
0.63270444 0.6535031 0.038288593
-0.69023865 1.2097805 -0.23104034
-0.29987073 1.1107273 0.38025934
0.22073525 0.73760957 0.5497668
-0.5082494 1.4892976 0.55009806
-0.030009465 -0.056680888 -0.31404293
0.52415943 0.9159508 0.079052955
-0.52448803 1.414844 0.06647214
0.117078945 0.80665624 0.3581999
-0.7291187 -0.41663188 -0.42535537
0.3883575 -0.41525042 -0.39182305
-0.07881008 -0.08248055 0.7569263
0.14503685 1.315227 0.8067242
-0.4765312 -0.0801638 0.029202119
0.5437658 -0.420964 -0.67417765
-0.40300316 -0.082338825 0.63024557
-0.005614167 1.5962968 -0.011242526
-0.69906276 0.4846244 -0.0016009317
-0.43491226 -0.41244218 -0.0014422402
0.22733945 0.5157243 -0.5401906
-0.66589797 0.4592137 -0.20341016
-0.08508163 1.7656001 -0.59602654
0.43783325 0.60358423 0.30370712
0.56258154 0.9665006 -0.1538837
-0.057839453 -0.22738755 0.093548894
0.5826539 -0.08336063 0.5349803
0.0926234 0.93058264 0.83859617
-0.6931776 -0.4119045 0.601043
-0.24766338 1.0306292 0.81638277
0.54232997 1.3152944 -0.4675234
-0.8891958 -0.08744699 -0.73357517
0.9103458 1.0610665 0.1247748
-0.5960963 1.3491778 0.25017
0.21874316 1.3514189 -0.70333266
-0.08306672 -0.40652883 -0.32205364
-0.2564426 1.150755 -0.720913
-0.20036952 1.627253 -0.7189778
0.5743265 1.082996 0.47119576
-0.40385938 -0.08332351 -0.42252624
0.25687754 -0.16985643 0.92982274
-0.76881653 -0.24102451 -0.7419046
0.700129 1.3177581 0.2271477
-0.4253833 1.2502439 -0.5942997
-0.3447161 1.108979 0.16225338
-0.31890023 1.6222367 0.2768494
-0.28582507 0.52315414 -0.7380569
0.09168738 0.8326096 -0.39373964
0.077047825 1.1629376 0.70177937
-0.57636976 1.2288368 -0.41569346
-0.03117599 1.7104676 0.55357647
-0.19304502 1.753662 0.19827089
0.006321267 0.45661658 -0.0054451395
-0.06582466 1.9229823 -0.29250517
-0.053886607 1.4352866 -0.15122434
0.019822016 0.61177135 -0.1518854
0.04078465 -0.033973098 0.059149034
-0.5452193 1.0532987 0.65500236
0.20844218 1.0221615 0.6669011
0.729444 -0.41723794 0.22554262
0.4287526 -0.25066343 0.07975303
-0.8703888 0.80313987 -0.06476658
-0.5038799 0.54266185 0.0166593
0.19068229 0.5186953 -0.021558713
0.08022641 1.2194088 0.0232268
-0.41028607 -0.0830865 0.8869734
0.2857297 1.2888193 -0.23099841
-0.34459257 1.8525193 0.18238048
-0.46008402 0.79787934 -0.7888652
-0.21404138 0.5705409 -0.22233844
-0.92412865 -0.25470245 0.8734945
-0.32539088 0.83845127 0.5861676
0.3627183 -0.418312 0.43213737
-0.23413654 1.257014 0.18054926
0.039319657 -0.4044168 -0.01653625
0.34110245 0.42835695 0.5535188
-0.45011368 0.9498523 0.082206964
0.18863112 -0.4132744 -0.4476382
-0.4657781 0.6943015 0.31890184
0.19332135 1.5657771 -0.058968738
-0.005852636 0.8013463 0.48954916
0.8697485 0.7433683 -0.12435596
0.20102346 -0.039371684 -0.08059332
0.65847325 0.4097781 0.021820681
0.2301307 1.0345869 -0.7283407
0.40607527 0.4519047 -0.62217474
0.0914917 1.1501372 0.5095791
-0.14457963 -0.40806627 0.06631805
-0.17710115 -0.045458585 -0.19794321
-0.54667246 0.852978 0.6309447
-0.50722814 1.4064038 -0.70197994
0.90025723 -0.4069053 0.12180634
0.8313681 1.416152 0.1556035
0.5655755 -0.41251397 0.7419362
0.085700184 1.4764425 -0.84727097
-0.24765736 -0.24972372 -0.5867276
0.5271104 1.3911319 0.310001
0.8968593 -0.4077053 0.53387165
0.28149003 1.7351241 0.022581294
0.35974455 -0.08686225 -0.9064429
-0.036127023 1.3285012 -0.91078806
0.13908803 -0.074599415 0.8742404
0.024229385 1.7666425 -0.18133673
-0.19461438 1.9176573 0.081845194
0.28092122 1.8045654 0.3675698
0.6203213 1.6743706 0.20804301
-0.54221535 1.075839 -0.5217254
-0.2575544 -0.0865549 -0.7477242
0.72022486 -0.08302268 0.8778151
-0.7241304 -0.08176617 -0.21695638
-0.45222616 -0.24220288 -0.63655233
-0.4398266 1.7875793 -0.31853527
0.66052014 1.0910795 -0.69526553
-0.6227738 1.0016117 0.19992155
-0.2987491 0.9457059 -0.7093986
0.3806533 0.65635663 -0.5544989
-0.12441384 0.8607943 0.66072714
-0.2996351 0.61367667 -0.567506
0.39583164 0.21976885 -0.09239395
0.86997503 0.8590266 0.19814166
-0.35342672 -0.41913652 0.35702133
-0.30726197 1.4634062 -0.7974727
0.19836396 1.1139653 0.8402121
0.7379116 -0.08252853 0.43059546
0.38958678 1.6496356 -0.114354104
-0.92435515 -0.25237703 -0.42381412
0.42665255 1.6768041 0.44587314
-0.18303272 0.45037532 0.6020764
-0.88248473 -0.4124303 0.5257642
0.5380227 0.97799754 -0.5628089
0.49419722 0.8951726 0.48583305
-0.35500962 0.40298462 0.47892034
0.48327044 0.8959955 0.7133453
-0.15395948 -0.255724 -0.7633171
-0.71176976 -0.26134077 -0.92580795
0.40691176 1.3431855 0.1074377
-0.089393586 -0.24086389 0.6383921
-0.16259454 -0.09010699 -0.91488314
-0.8571479 1.0598917 0.20421153
0.10553622 0.46265393 -0.20908737
0.5785699 -0.08717142 0.7486174
0.006073417 0.85437804 -0.56895316
0.18560168 1.9307837 0.068786375
0.2357398 -0.41773254 0.6107098
-0.45239967 0.47080064 -0.5837301
-0.29672718 0.6254373 0.068489596
-0.5621748 1.6484574 -0.40383756
0.033483498 -0.24446346 0.47064257
-0.6495422 1.1388102 0.5358994
-0.7852768 0.9056903 0.32690585
0.7510389 -0.25252378 -0.086582005
-0.23191148 1.2320491 -0.5401943
-0.044421576 1.2539937 0.1671753
0.7174852 -0.08283405 -0.3912171
-0.6480843 1.2329648 -0.6327401
-0.8001352 0.66356826 0.06296573
0.56901026 -0.08155084 0.32226253
0.27866918 1.4820626 -0.57351285
-0.09080526 1.4924585 -0.34159076
-0.27759466 1.7974122 0.36843148
0.42971736 1.5135982 -0.42492217
-0.50830114 1.1515203 0.31652242
0.29787287 0.38914293 0.09523944
-0.20964965 0.3996337 0.25261667
-0.42192048 0.98877513 0.4913456
-0.063931435 0.7317735 -0.27752626
0.31707376 -0.23822734 -0.77939713
-0.14102697 0.75840676 0.347737
0.6253295 -0.27556095 0.07815181
0.64883554 -0.2487252 0.25092775
-0.37813193 1.5493011 -0.4407891
-0.11847706 1.48188 -0.84343565
0.10357569 -0.4133772 -0.61950517
-0.14170349 0.827037 -0.9295297
0.6468165 -0.24413094 -0.9170858
-0.6437799 0.60333073 0.3688923
-0.5952004 -0.25515974 0.25287157
0.57163906 -0.41442448 0.52470434
-0.13978496 1.1334699 0.017912835
0.3370105 1.1973526 -0.7098923
0.006528229 0.9916294 0.61525345
-0.68762875 1.1747124 0.20318478
-0.17934865 0.69640744 0.54448295
0.89710236 -0.08956297 0.7345505
-0.54574823 1.5510209 -0.557807
-0.5861474 -0.08684201 0.346726
0.38984364 0.24150586 -0.27330288
0.31129676 1.3666692 0.57747686
0.25521123 1.4826274 0.71481115
0.6946088 1.1130519 0.27317047
-0.15829125 0.71604204 -0.07980451
-0.13492727 0.74727184 0.13400632
-0.62477285 -0.25094032 0.46354133
0.15500349 0.759139 -0.2267128
0.91836536 -0.24902388 0.64649534
0.18340005 1.0729668 -0.94758403
0.41518736 -0.24806125 -0.28557652
-0.5548434 0.3671937 0.13123667
-0.4963918 -0.26051816 0.5960727
-0.34986085 0.65715396 0.46928483
0.9253081 -0.24752954 0.4404226
0.5950979 -0.25083405 0.6470623
-0.54460573 1.283153 -0.096680164
0.5343649 1.0612528 0.19731963
0.8500924 1.0236962 0.31415558
0.14059368 0.47313234 0.37715966
-0.36547124 0.645965 -0.32369724
-0.76888573 -0.252707 0.5466487
0.24563816 1.8324606 -0.45278132
-0.014483037 1.7464342 0.17222786
0.5461657 -0.086381644 -0.9082295
0.204374 0.5552002 0.67939436
0.09668655 -0.25596118 0.9269105
0.6544523 -0.08175557 -0.7352394
0.024952449 1.1879432 -0.37885183
-0.08642707 0.14091694 0.09825806
0.51255894 1.1426753 -0.81331635
0.15747693 -0.055849254 -0.28768498
-0.7900561 -0.2520854 0.73808277
-0.7416893 -0.08210318 0.43682283
0.49742955 1.1974618 0.6874963
0.21964881 1.1746702 -0.37651238
0.09770943 1.3504231 0.22088651
-0.39007816 0.7169217 0.6936666
0.58766305 -0.24481356 -0.21216854
-0.22682002 1.2250502 0.799567
0.78101194 1.2025119 0.41803855
-0.58607394 0.8271569 0.26564038
-0.16284254 1.7889025 -0.20615374
-0.6202611 -0.40319297 0.90644944
0.24789946 -0.23966885 -0.3946875
-0.56311977 0.44195196 -0.40573043
-0.41051626 1.7265441 -0.49276024
0.7811614 -0.24851367 0.3421524
0.91570467 -0.24191856 -0.5945642
-0.14910284 -0.043200284 -0.00036971894
0.03249363 1.326287 0.43996578
0.3407679 -0.07749209 -0.36407137
0.59480715 1.0413753 0.65137994
0.5600279 1.5129955 -0.05662192
-0.6920124 1.1770746 -0.037911035
-0.36536914 1.1058476 -0.8778918
0.89823425 -0.40743935 -0.08443952
0.6805986 0.6886653 0.4794754
-0.1346062 0.500553 -0.52548146
-0.36479262 0.50027764 0.33193886
-0.3408322 0.50747126 -0.43348083
0.07049485 -0.24538392 -0.35427892
0.7372132 0.71651566 -0.5233493
-0.47154814 0.9028584 -0.5931549
-0.05802554 1.2836773 0.6214541
-0.6704104 1.3280718 0.060341973
0.27069086 -0.08103064 -0.7034993
-0.89542663 -0.4060004 -0.53153527
0.048511043 0.5738213 -0.6347952
-0.28185892 1.0366108 0.61344874
-0.024704391 0.68552154 -0.48212153
0.8921145 -0.40745988 0.73404133
0.2244562 -0.054560162 0.12244719
-0.20168637 0.67465293 -0.41413456
0.07439251 1.5700591 -0.21985775
-0.44476348 -0.24670504 -0.2897695
0.90053356 -0.08776039 0.5346641
0.8868834 -0.40066648 0.9071777
-0.041721895 1.2442619 -0.14000566
-0.5025562 0.8278175 0.44776905
0.59508157 1.6079125 -0.47622812
0.30572003 -0.4039209 -0.9149375
-0.28162897 1.5124254 -0.26127547
-0.54207236 0.42405498 0.31941214
-0.34431487 0.8320098 -0.4341111
-0.1439904 -0.40914994 -0.9088223
-0.1653314 1.592174 0.13707292
0.44523615 0.8370818 0.2650923
0.2743528 1.6654468 0.5620216
-0.368672 -0.41417724 0.5530825
0.5681265 0.53926 -0.28025556
0.2064324 -0.41291928 -0.7558297
-0.12989964 1.7540164 -0.009861158
-0.53182864 -0.08164962 -0.14800808
0.5418509 -0.101501 0.9178938
0.7460828 0.5298323 0.15401566
0.5409224 -0.0694682 -0.12292689
-0.211252 -0.25529414 0.7654751
0.0053858794 0.951115 -0.97086906
0.11879805 -0.41834438 0.7526815
0.2621165 -0.22825864 0.009582033
-0.3426705 -0.41603804 0.15285423
0.25152907 0.3462349 -0.14551876
0.04768002 0.7499937 -0.91288865
0.25062 -0.2533691 -0.60429764
-0.123208836 1.5791179 0.6617936
-0.060803175 1.8215585 0.40550572
-0.18613008 1.0614755 -0.94757915
-0.45383137 -0.25709438 0.41357177
-0.14698751 1.9411398 -0.098838
-0.12933186 -0.25673825 0.4750836
-0.3197127 0.76910836 -0.6605944
0.08629926 0.7190276 0.17689389
0.22637378 -0.25944227 0.77911437
0.9325792 -0.24662796 -0.78193104
0.44086814 -0.2541477 -0.6317348
-0.28527796 -0.24366671 0.026451368
0.32026893 1.2577432 -0.52681494
0.7229449 -0.4000062 -0.9176545
-0.69818234 1.4967642 -0.3895706
0.09127124 1.7637506 -0.0028022164
-0.35192662 0.445616 0.13406013
0.20820586 1.5951778 -0.7539947
-0.9224226 -0.25879738 0.43233147
0.44981948 -0.24623463 0.52861285
0.40059677 -0.2524922 0.35544997
-0.91244864 -0.104393125 0.17234764
-0.46449548 0.6257386 -0.7086369
0.4219983 0.28661358 0.23746917
0.4014578 0.43561852 -0.2468086
-0.30122817 -0.07248482 0.11931147
0.013409022 -0.07568999 -0.48271513
0.70514846 0.8347759 -0.013898104
-0.40836716 -0.23938781 0.7566836
-0.2352576 0.34451038 -0.15164395
-0.06567684 -0.24121457 0.28694123
-0.21309097 1.5292284 -0.046399415
-0.40696654 0.94307756 -0.15700519
0.7886559 0.5946326 -0.2499002
0.90300196 -0.08579285 -0.48985854
-0.3132381 1.2930577 0.38176996
0.111732736 0.84772897 0.66533554
-0.32139927 1.5450158 0.62879866
0.5250778 0.5544274 0.5084121
0.25879347 0.5820583 -0.19989336
-0.6136559 0.7873939 -0.6610418
-0.16399196 0.2290522 -0.4370548
0.37893367 -0.41611308 0.016575728
0.08717677 -0.4054004 -0.90952146
-0.12764372 1.2865477 -0.3216884
-0.7158621 0.84997445 -0.09517666
0.38832018 0.5952625 0.6360628
0.011448065 -0.41004294 0.90844876
-0.046813883 1.2967461 0.81678915
0.4885746 1.8144646 0.08935315
0.39944488 -0.07862201 0.21700507
-0.41753098 1.3062998 0.2088309
0.084775664 0.3834266 -0.6796502
-0.45892876 0.7396175 0.098816276
-0.21912368 0.9637369 0.13693288
-0.06350641 0.27833986 -0.04615435
0.2691595 -0.08618082 0.73350364
-0.89409566 1.0068638 -0.013855576
0.4695106 1.375906 0.6675105
-0.73084706 1.0193014 0.05399494
-0.0036973653 1.9370097 0.086091295
-0.7323216 -0.08491129 -0.89849067
0.39966172 -0.4170859 -0.17871268
-0.079028144 0.417589 -0.1864708
0.12668307 -0.25156334 0.611205
0.8957697 -0.08632869 -0.08855246
0.88713264 -0.08120454 -0.70552295
0.5574653 -0.41493827 -0.2884977
-0.15879914 1.4004042 0.5326321
-0.46405822 0.98135024 -0.37108272
0.3390093 1.0023301 0.18601939
-0.3000772 -0.24581808 0.5801098
-0.3757382 0.4478208 -0.25860208
-0.38671505 0.31980497 -0.44022644
0.42062193 0.6149378 -0.7529782
-0.6143454 0.6005209 -0.55112636
0.5754351 0.74511856 0.36857158
-0.6277356 1.6586301 -0.24049684
-0.07679062 1.4416637 0.32574505
-0.6050916 -0.09117071 0.14410271
-0.7308968 -0.08181185 0.80265677
0.4944316 -0.24635276 0.22827157
-0.012709395 0.111692786 -0.105020985
0.20757973 0.39395756 -0.35395515
0.23776686 0.67384005 -0.86440647
0.0027872736 1.641381 -0.74497837
0.7371279 1.3864405 0.3967005
0.34949106 0.52684975 -0.39876485
-0.35923994 -0.07667814 -0.25458002
-0.823521 1.3799826 0.11062106
0.16540779 0.95615506 0.49003053
-0.080792576 0.31935066 -0.5870898
-0.40221906 0.24140006 -0.11347337
-0.81135297 0.9280592 -0.39603454
-0.5328562 0.62530875 -0.3823426
-0.41164875 1.6551449 0.46302885
-0.17323984 0.52436364 -0.035138503
-0.115278296 1.9010242 0.25357926
-0.92247224 -0.255967 -0.2139731
0.5610289 -0.4063536 -0.07452653
-0.84653425 1.1276834 -0.33671117
0.8568648 -0.24941361 -0.92760926
0.49804133 1.1713765 -0.59665024
-0.2019636 0.3965643 -0.3585873
-0.3714864 0.657848 -0.1106115
-0.3220157 0.81302965 0.19927877
-0.095489234 1.0840027 -0.2257525
0.07548329 0.2800303 -0.1808461
0.580565 1.2311273 0.36592695
0.7538887 -0.25022423 0.54329526
0.89384925 -0.40771943 -0.6868126
-0.027668834 1.0074146 -0.43652636
-0.3697323 0.44472492 -0.06375624
0.39347565 1.5185384 -0.7396369
0.40556628 -0.24845542 -0.105926335
0.42911175 1.7499563 -0.4598897
-0.21511948 0.30649477 0.42199564
-0.23382097 -0.08279287 0.51604295
0.2116014 -0.40322942 -0.093761384
0.12540485 0.13282251 0.03783819
0.6610152 0.8014235 0.18502681
0.37026983 1.8583403 -0.26784125
-0.87858903 0.9562998 -0.21173833
-0.027616534 -0.09586574 0.9146528
0.9126029 0.8967856 -0.0059397565
0.002675512 0.6490497 0.03523279
-0.25814694 -0.08336848 0.717537
0.390443 0.43564588 -0.057243135
-0.3078149 1.6920388 -0.119966716
0.37373918 0.63937604 -0.038200147
0.19610165 -0.24659935 -0.92482173
0.110520035 1.0266974 -0.28420246
-0.21253495 1.8503155 -0.42217922
0.56112826 -0.08411129 -0.53292394
-0.32507312 1.4545822 0.08804077
0.4576018 1.6141531 -0.59867775
0.6116214 1.1179678 -0.44113165
0.90131474 -0.08560157 0.11628229
0.6266347 0.9380971 0.32770967
0.59484947 0.6180674 0.21340758
-0.34785473 0.54996395 0.616307
0.24292849 1.6189331 -0.46677256
-0.42507 -0.40727308 0.89826787
0.12593865 1.478385 0.34170657
-0.7319663 -0.24877101 0.92134416
0.40371537 0.80361426 -0.84697014
0.5912459 -0.24902585 -0.40666372
0.71656704 1.0475743 -0.27644947
0.5841257 1.4698267 -0.6280083
0.35931584 1.521588 0.0635521
-0.8181714 0.77109987 -0.27780274
-0.7872785 0.6211396 -0.14430547
0.39502782 -0.41188043 -0.7615482
-0.635836 0.71973294 -0.24555552
0.7129552 1.5237355 0.26959383
0.7255799 -0.4168744 -0.18514755
0.74061567 1.5722069 0.06846732
0.7380479 -0.08282606 0.6497749
-0.62115026 -0.25563824 -0.6149687
0.022727951 1.0362728 -0.071943164
-0.25238723 -0.4103173 -0.26202032
-0.3905034 0.30192375 0.28448978
0.19750062 -0.07943757 -0.4966659
0.15092352 0.7118337 0.7869515
0.12009486 1.7497122 -0.6099932
0.4641379 1.0077841 -0.32295135
-0.6472186 -0.08087413 -0.738397
0.16499478 1.7417376 0.192999
-0.55913925 0.3493215 -0.061967675
0.3127156 -0.24992917 0.6245183
0.024366658 1.8588057 -0.46088988
-0.3186865 0.82153875 0.39368132
-0.32887822 1.6795295 0.07662976
0.9002299 -0.40763003 0.32726866
0.22208655 1.1936336 0.18538241
0.024211146 -0.2437576 0.7710346
-0.7634113 1.2865252 -0.44672725
-0.5113581 1.1153511 -0.2373139
-0.51385844 1.3014919 0.4228325
0.25737685 0.81464314 0.2002565
0.65714395 0.7237172 -0.35023743
0.569023 -0.20123324 -0.042842187
-0.6907094 0.5156729 0.19251826
-0.58635324 0.841718 -0.4323582
-0.30144048 0.83037937 -0.009879611
-0.2589078 1.73231 -0.5707078
-0.8230628 1.3410281 -0.2748317
0.18567045 0.92678666 -0.11967797
0.69510424 1.5955584 -0.3284093
-0.9314844 -0.25509062 0.63748527
0.48326945 -0.4136551 0.9065295
0.72849274 1.2024801 -0.11958058
0.17529115 1.5593847 0.13778147
-0.3247564 -0.068795554 -0.07354051
0.019784711 1.4680321 0.74176574
-0.755207 1.5188085 -0.18724033
0.06383355 1.1671448 0.31683135
-0.18722041 0.8331717 -0.55122375
0.06823314 -0.063004 0.25294197
0.11919221 0.6164714 0.48981318
-0.12677091 -0.4148832 -0.61158276
0.26627547 1.606482 0.35063753
0.90031564 -0.40623823 -0.48755586
0.1952533 1.5075473 0.50603807
-0.43282962 1.1239648 -0.06905216
0.38837695 1.4499502 0.42404923
-0.18983337 0.53637195 0.40947065
0.10766137 0.52240753 0.17250822
0.46579313 1.3569384 -0.26248708
0.73374325 -0.4196754 0.021549707
0.011156902 0.686186 0.6372402
0.073732205 1.6634316 0.35885984
-0.25779533 1.440572 0.26763856
-0.008073861 1.1458952 -0.9572308
-0.2891872 0.7013247 -0.83881366
0.1331785 1.7735037 0.48128176
0.5637013 0.35711926 -0.32764167
0.8969351 -0.40787858 -0.28687724
-0.5757121 -0.41398466 -0.3167677
-0.034024592 0.42341423 0.3326867
0.031217918 -0.089831345 -0.9123186
0.5835984 1.0966578 -0.011760019
0.102914095 1.8916037 0.28030467
-0.7176144 0.5813608 -0.34918424
-0.1879608 -0.41111135 0.6162908
0.57386744 1.4601899 0.12616313
0.2283479 1.3001726 0.40220097
-0.40284884 0.25165626 0.075227834
0.56029284 0.7809576 -0.5279994
0.023461565 1.0610301 0.13650592
0.76099825 -0.24140155 -0.7386625
-0.11984651 1.615931 -0.186888
-0.32081413 -0.41491842 0.7419059
-0.0869715 -0.41468036 0.75928175
-0.6188792 -0.2508549 0.72811127
-0.11858523 0.8254366 -0.74256796
-0.25371423 -0.25600207 -0.92134655
0.729769 -0.41332635 -0.5809971
-0.6004019 -0.24849507 -0.42300642
0.78163445 0.679937 0.28489834
-0.13721316 -0.08277473 -0.5926434
0.022692503 1.3378549 -0.70507526
0.69662726 0.5403071 -0.41766986
-0.3492558 1.2664473 0.0013750144
-0.15109074 0.8904649 -0.37804434
-0.5542084 -0.09056285 -0.9132626
0.26108557 1.1078691 0.3944323
-0.8486128 0.86272323 0.13524239
-0.27438104 -0.23990992 -0.37486124
0.52876496 -0.4111215 -0.8976742
0.41742623 -0.24198364 -0.46751845
-0.7032862 -0.41802365 -0.7987902
-0.32010067 -0.25093544 0.924709
0.37621164 -0.4148053 0.22055645
0.015793048 0.8076825 -0.08298506
0.057301164 0.45480424 -0.48401916
0.8248893 1.4706824 -0.067377135
0.7010045 -0.41682374 0.87965757
0.5014059 0.28864712 0.062637836
-0.56249845 -0.083603084 -0.33385235
0.6511586 0.68821687 -0.15636495
0.5529691 1.734365 -0.30930793
-0.06828877 1.1648855 -0.7700956
0.6489948 0.5273899 0.3575323
0.099033944 1.5075135 -0.6204685
0.89574766 -0.40599418 -0.8809874
0.58185 0.58756036 -0.60490054
-0.77197754 0.7172829 0.2591365
0.437572 1.0446389 0.35501927
0.54830253 -0.25448528 -0.7762568
-0.35975474 -0.08760514 -0.910332
-0.10133152 0.45416012 -0.73592514
-0.03758455 0.54479516 0.5076016
-0.21453978 -0.23697478 0.18438655
-0.23556595 1.3570194 -0.18056086
-0.038526993 0.73926526 0.8066653
0.15885566 0.98973846 0.2595685
0.30489075 0.55077875 0.45617187
-0.9240279 -0.24807298 0.0076485146
-0.0128582595 0.33868247 -0.35199103
0.10450481 1.6144998 0.6484582
-0.816555 1.359309 -0.08433281
0.40130126 1.0039086 -0.69223905
-0.091951326 0.91160595 0.028069489
-0.6230066 0.91208476 -0.24959959
0.5877312 1.5791762 0.4110729
-0.042338595 0.34369826 0.52262473
-0.51841176 -0.41817895 0.7138457
0.7224777 0.97610193 0.12757346
-0.27174586 1.6838193 -0.33876866
-0.62535834 0.66612417 -0.05316326
-0.16341756 1.3209336 -0.010643059
0.5050157 0.819437 -0.28628016
0.90276504 -0.08671478 0.32681662
0.24848679 -0.2487191 0.44573027
0.2686062 0.92780006 -0.3442858
-0.54086345 0.6737802 0.55882776
0.14647031 1.9094577 -0.29823434
0.0035857086 0.5162791 0.6986199
0.06969672 0.24563912 -0.49593687
0.520852 1.3004024 -0.05322083
0.32924968 0.8748656 0.60077834
0.6227151 -0.24931824 -0.6050171
