0.6229258 1.3550248 0.4643253
0.52035016 0.43519068 0.0540912
0.47544423 1.4834609 0.20896566
0.74293053 -0.25248215 0.7567278
0.4411675 0.9764426 0.5067198
-0.54810166 0.9081086 0.39067447
0.111313194 0.10381438 -0.35600442
0.69528043 1.1755285 0.507304
0.26247257 1.6390114 -0.65560687
0.76571214 -0.24821681 0.9340365
0.45456195 -0.085050255 -0.72265315
-0.0007427441 -0.4065901 -0.4656854
0.040529102 1.3316255 0.0013423888
-0.715631 0.93520635 -0.1587181
0.32081503 1.341016 0.20669705
0.08177897 -0.19302379 -0.5119734
0.37732103 0.38441664 0.21878868
-0.3324083 -0.08190585 -0.5743711
0.15331034 0.5349008 -0.40435994
-0.90412635 -0.094503105 0.7269691
0.4829768 1.6887558 0.24157387
-0.5964713 1.3674548 -0.105349794
-0.46655762 -0.2522108 -0.9220863
0.42122445 -0.08303818 0.6396404
0.27167618 0.26899064 -0.6290584
0.8803367 1.2633705 -0.23624787
0.90265524 1.0913305 -0.31673864
-0.2692945 0.94983405 -0.03882589
-0.22012825 1.4782963 -0.5045911
0.25775856 0.10185543 -0.21100137
-0.41851348 1.2032064 -0.2531317
-0.7280267 0.6403302 -0.4631818
0.019619163 -0.10240258 -0.14459708
-0.7286236 1.4176669 0.041365627
-0.7243272 -0.085262805 -0.4250135
0.3402916 0.9920639 -0.55246747
-0.585037 -0.41468808 -0.10585361
-0.31955525 1.2732604 0.51756364
0.10415141 1.2633407 -0.53816676
-0.24559739 0.7073959 -0.25050902
-0.0584638 1.1182101 -0.59416676
-0.20235863 1.1296666 0.57236814
-0.743196 -0.07926096 0.21345124
0.25523618 0.42411947 -0.7942343
-0.06298497 -0.090435155 -0.7613463
0.761449 -0.25153905 -0.49148017
-0.5114184 1.1826136 0.61688256
0.60383946 1.2437074 -0.7373855
-0.09607002 -0.21500184 -0.45327553
-0.14512244 0.91882694 -0.8213172
-0.09457159 -0.048739716 0.17532653
-0.7662561 0.998932 -0.5153961
0.41341507 0.92555577 -0.119002886
0.14963551 1.3049145 -0.15745509
0.23435551 0.8105166 -0.6077646
0.92159826 -0.24819043 0.014055638
0.07088944 0.4838742 -0.86393416
0.85592943 0.70348215 -0.40817982
0.6928859 1.573701 -0.21313635
-0.1922692 0.1105295 -0.07082644
-0.4065234 1.3584163 0.35890552
-0.109648466 -0.21885473 -0.26724935
0.89154196 1.1803275 0.16655877
-0.7238618 -0.42087126 0.777022
0.38077772 1.1948524 0.72459304
-0.4984616 -0.419353 -0.72865015
-0.7192067 0.8146762 -0.5552264
0.20781687 0.2673735 0.17779428
0.35023847 0.81904435 0.75897753
-0.56853044 -0.08775204 0.5184944
0.73868537 -0.08700712 -0.5810683
0.850199 1.0447209 -0.4825356
-0.1292978 1.4138073 -0.66448104
0.35385403 0.13880363 -0.013879288
-0.021757588 -0.41463697 -0.7596668
0.72585166 -0.4189489 0.6501521
-0.11628702 0.5520846 -0.8842944
-0.4476016 0.61218107 -0.53422594
0.04256635 0.8977498 0.35897452
0.57195807 -0.07552451 0.120246865
0.19734919 -0.4119798 0.28543955
-0.35189658 -0.4156085 -0.5896745
-0.33459 1.2482123 0.6990175
0.11204976 1.2233918 -0.95777464
-0.8913361 -0.09923586 -0.91163754
-0.7358463 0.9769837 0.39111942
0.07783699 -0.42913938 -0.25088662
0.42523336 1.072825 0.02152333
0.5427882 0.3329323 0.32665583
-0.0712554 -0.0793411 0.5624498
0.10057813 1.6319184 -0.3805806
0.14096838 1.0945814 -0.20874286
-0.7621166 -0.24527466 0.314136
-0.5039859 1.6778288 0.08037956
0.43532455 1.1038162 -0.19599174
-0.4410622 0.4182462 0.46747297
-0.85622674 -0.07895692 0.019801322
-0.4822176 0.7131045 -0.08882551
0.7609874 0.98839176 -0.6269715
-0.20442823 1.2444437 -0.725089
-0.19324934 1.6019489 0.51584405
-0.35103846 1.7747072 -0.030393165
0.5709126 0.7021817 -0.78312653
0.34610605 1.598165 0.1531073
0.69799745 0.83557165 -0.70301676
-0.39857376 -0.085017875 0.4068396
-0.6196035 -0.09107943 0.9139997
0.4074878 -0.08176095 0.4322214
0.5871192 -0.26744717 0.90029943
0.92062926 -0.24694262 -0.38811582
-0.89563674 -0.40635264 0.105354056
0.7769039 0.95601374 -0.14855224
0.918218 -0.247793 -0.18587708
0.5623094 0.39739335 -0.55525243
-0.5415165 -0.42315516 0.49163818
-0.09007113 0.13734317 -0.2896018
-0.7188916 -0.41699165 0.40383816
-0.06306477 0.4606798 0.14083254
-0.31901744 0.9292227 -0.52556264
-0.8710034 1.0636042 -0.120209165
0.0008162339 -0.41462547 0.5741217
0.18444905 0.27096513 -0.03156389
-0.68084925 -0.08280477 -0.036222316
-0.71454835 -0.41813725 -0.6230666
0.053396583 0.667694 -0.7608168
-0.89914787 -0.40518123 0.71821576
-0.90373564 -0.09268991 -0.527274
-0.60074234 -0.24586886 -0.20574033
-0.3328256 0.824213 -0.9070804
0.42394128 -0.25454807 -0.9208248
-0.5590521 1.4811473 0.36457062
-0.009587362 -0.41149887 0.36924726
-0.17409852 0.7140219 0.76612556
0.34835875 0.94979817 -0.9373631
0.40081054 1.3171301 -0.65097713
-0.5062183 1.3786869 -0.29789644
-0.5240222 -0.24598137 0.9148139
-0.43682748 -0.23098958 0.09485802
0.6458205 0.8672421 -0.47172803
0.028426154 1.4701344 0.1716561
0.01859606 0.26756936 0.119088225
0.16808158 0.17738467 0.36589712
-0.25736535 -0.42122823 -0.7501892
0.3812347 -0.2573921 0.9241812
-0.21434397 1.4301195 0.4346812
0.3596459 -0.07747499 -0.5440825
-0.15496111 0.94192505 -0.62168056
0.88288176 0.6519862 0.004451853
-0.46012637 1.4364891 0.19304249
0.39098948 -0.07463528 0.8635117
-0.017269198 0.8347504 0.8115314
0.2838049 1.3159429 -0.43764293
0.3189097 1.7984338 0.1478087
-0.35628003 -0.26120237 -0.765965
0.73932964 -0.08386247 0.22339934
0.3077528 0.998917 -0.26528692
0.45160204 0.99076474 0.7194252
-0.46205178 1.6314676 0.2768948
0.5463853 -0.4199527 0.12983873
-0.66925013 1.1453586 0.43815452
-0.10103916 1.1725988 0.3371822
-0.03733157 -0.24739966 -0.62683976
-0.5353283 -0.08169697 0.7312561
0.79039764 1.4063525 -0.34485698
0.22430655 0.64642894 -0.073577225
0.9426794 1.0521512 -0.14236672
0.58229566 0.47028726 -0.15027551
0.58848184 1.3895957 -0.41569966
-0.098803096 1.6201432 -0.3829574
0.42639175 0.26875916 -0.51746273
-0.09714928 -0.41643012 -0.14131361
-0.74094486 -0.41655478 -0.21220969
-0.26799363 -0.40956706 -0.07084523
-0.21989751 0.5397196 0.24338602
0.90288234 -0.08933662 -0.8956232
-0.37052754 -0.41173232 -0.9005325
0.11928667 -0.24079879 0.31630772
-0.895733 -0.092582665 -0.3318816
0.005534246 0.82553846 -0.27339807
-0.10942229 0.5270293 0.6996176
-0.6207533 0.73763216 0.08630954
0.0227058 1.8692613 -0.12338382
-0.094643414 1.2977085 -0.518986
0.92488325 -0.24790837 0.22906448
0.15177536 -0.41040105 0.45590806
-0.033354618 -0.25640753 -0.91307247
-0.91585016 -0.26024324 -0.8705075
-0.17569105 -0.40645152 0.2543212
-0.6337073 0.66064644 0.45117635
0.043401234 0.8726448 -0.836614
-0.24903736 1.1896482 -0.9202508
0.7352191 0.8077676 -0.28805256
-0.29013973 0.13971213 -0.3147884
0.65255845 1.3383598 -0.235502
0.4393608 -0.24166408 0.7558526
0.02264081 1.4227254 0.4871779
-0.4200369 1.498478 -0.6564839
-0.10741183 -0.24510676 -0.07891849
0.79399073 0.97087777 0.42717332
-0.19543928 0.12801084 0.18194482
-0.19083846 -0.4191671 0.44265985
0.24425045 -0.08399398 0.535589
-0.25962847 1.073951 -0.20102963
-0.29099703 1.2772436 -0.40737176
-0.4907962 1.2830614 -0.46165606
-0.35011652 1.0519428 0.7293488
0.4132182 0.6550627 0.68136203
-0.54806805 -0.08494674 -0.5469935
0.080055624 -0.0722643 -0.6624527
0.23738843 0.9815725 -0.019260034
-0.7766263 1.1727376 0.2870865
0.40131184 0.7596394 -0.7102019
-0.63212454 0.8355011 0.52607656
-0.43492508 0.9946675 -0.6726297
-0.06032173 1.0360527 0.45868218
0.05295883 -0.27711493 -0.18318461
-0.7632853 -0.2481375 -0.10344398
-0.024955977 1.5354772 -0.5296743
-0.28243276 0.91154003 -0.31041583
0.3158321 1.1099735 0.5622636
-0.2573884 -0.23331448 0.36745548
-0.43298608 0.46651924 0.18996835
-0.5045513 1.0675342 0.09601029
0.31803274 0.118072495 0.18477151
-0.10148224 1.3293142 0.11918263
-0.8985953 -0.40521753 -0.103539266
-0.5797472 -0.40572175 -0.91481876
0.5944278 0.6583997 0.5584153
0.09614596 1.1063414 -0.8195815
0.24341932 1.3504837 -0.89184684
0.4327366 1.2839861 -0.83865654
0.07717689 1.2716384 -0.32942182
0.37663043 -0.05200299 -0.17932075
-0.53195167 -0.41618183 0.29419208
0.09141393 -0.05516679 0.43265474
0.12031253 0.09833777 0.19068594
0.9192239 0.88984287 -0.30501878
0.7317206 0.38834164 -0.26092112
0.733763 -0.086114585 -0.8990358
-0.4151774 -0.24879102 -0.47299176
0.20337127 1.8463414 -0.15224937
0.101213194 -0.23370525 -0.030724883
-0.21608575 -0.40470776 -0.45201653
0.46428272 0.5872329 -0.2793515
0.4224234 1.1545355 0.22900419
0.3316173 -0.41696703 -0.57700145
-0.25639647 0.29583448 -0.6299424
-0.50429666 1.6911467 -0.123646796
0.41918892 -0.41332716 0.6165627
0.51515114 1.7202258 -0.18254487
-0.08709347 -0.057726853 0.37351072
0.41385752 0.80164516 -0.5136723
-0.3239727 1.7894137 -0.23232418
0.23074487 -0.3958617 0.9153322
-0.20010072 -0.022114448 -0.41277498
-0.025814133 0.12533337 0.3017875
0.17437455 0.63829136 -0.5670341
0.41848716 1.1292837 -0.41892093
-0.6274543 1.2564536 -0.26910958
-0.2678915 -0.21904583 -0.17726016
0.83849686 1.2416422 -0.4438273
0.5395336 -0.4120627 -0.49012712
-0.38155514 0.86001754 0.27541816
0.14797097 0.9513242 -0.52591145
-0.4024674 -0.24524966 0.25964567
-0.4170501 -0.0676278 0.20863298
-0.18084238 1.0348817 -0.4234754
0.8928679 -0.09545068 0.9089799
-0.029783238 0.46726507 -0.37888426
0.9264238 -0.25079906 0.86168426
0.09295885 1.4248707 -0.43302602
0.20446266 -0.40879992 0.0981142
-0.058954738 1.003969 0.66282606
0.3646308 1.8074813 -0.086976245
0.27872932 0.14712164 -0.43570593
0.6854254 1.2092552 -0.3910901
-0.4415967 0.70124036 -0.27958122
0.45899352 1.4683657 0.5401894
0.7274592 -0.41733062 0.42977387
-0.55565 1.0951314 -0.7724117
0.5330843 -0.07170558 -0.31235898
-0.51605797 0.88303286 -0.8086581
0.72110665 -0.41741633 -0.3874681
-0.89734936 -0.09351893 -0.1433306
0.8244095 0.50941384 -0.124280654
-0.86848974 -0.0932168 0.9104142
-0.8451731 1.0876634 0.08428402
-0.15152255 0.85096735 -0.15974377
0.33094567 0.5405909 0.083977096
-0.16734603 0.283606 0.03479153
0.32992965 1.610419 -0.34776574
0.28229702 -0.22641209 0.2153053
0.1560283 0.80792546 0.03911273
-0.115434974 0.8370975 0.4684273
-0.114429206 -0.25976515 0.9192902
0.5396688 0.8898287 -0.8428553
0.7360098 1.18257 -0.61125576
-0.10035738 1.5441296 0.33264053
0.23198685 1.2986323 0.026625358
-0.14745246 1.3146204 0.7265736
0.29467368 1.1600746 -0.084196106
-0.1281466 0.575894 -0.68846476
-0.48382312 0.23409829 -0.27584904
-0.7358166 -0.41535366 0.0041786097
0.1674665 1.2666445 0.57565343
0.7167026 -0.08537565 -0.19107634
0.7298809 -0.084053725 0.012862397
0.493296 1.4986672 -0.28443235
0.6995376 -0.41573656 -0.76019883
0.35817748 0.7773088 -0.017223056
0.2595504 1.4427729 -0.29303896
0.5975486 0.25840354 -0.20185357
-0.4563635 -0.08367833 -0.7346499
0.64756465 0.33012754 0.15071683
0.3165006 0.65989864 -0.41944557
0.70568883 1.3748438 -0.553574
-0.4686457 1.4962801 -0.0059853094
-0.75714886 -0.25155595 -0.31735826
-0.42062777 -0.40996632 -0.19519006
0.8341385 0.78761744 0.31996736
0.3690782 1.3575087 -0.14441371
0.19147998 0.81524634 -0.97614926
-0.7705476 -0.25424218 -0.52300143
-0.33173662 1.331352 -0.6042365
0.2471379 -0.39938962 -0.27904174
-0.58096755 0.5664923 0.15288696
-0.6579218 0.9486917 -0.36606586
0.47450918 1.1744177 0.43374223
0.09869388 -0.23861668 -0.75537646
0.24559534 -0.04320512 0.32151264
-0.094962284 1.0007488 0.22801107
-0.55494 0.9034456 -0.055818286
-0.89328384 -0.41066658 0.31913036
-0.862749 -0.4030105 0.9058844
-0.6981112 1.3765942 0.2494532
0.33673847 -0.41671613 0.7763755
0.720065 0.8038968 0.49716508
-0.5742891 -0.25079688 -0.7865368
0.23533876 -0.2213059 -0.19457471
-0.89410555 -0.40502298 -0.7317325
-0.41458946 1.2098806 -0.81754434
-0.15933485 0.8395212 0.28645962
0.6314477 1.6538422 -0.05349523
0.57655823 1.1127275 -0.28789678
-0.59300256 -0.24917865 -0.0023364206
0.765978 1.109672 0.009810605
-0.89573264 -0.40868962 -0.32159966
0.83397394 0.8522758 -0.50964904
0.35717162 0.23069236 0.35283065
-0.6430457 1.565531 -0.039842524
-0.72710216 -0.41505438 0.20918985
-0.33979064 0.83165765 0.73124236
-0.7433442 -0.085417986 -0.6059727
-0.21467556 -0.4111655 0.9022254
-0.6292212 1.3156497 0.4376216
0.9114355 1.2246321 -0.04375136
-0.7521491 -0.24170002 0.104268
0.053930122 0.54321635 0.28870168
-0.4537953 1.5188856 -0.21178186
-0.4935481 0.46349245 -0.19217023
0.24179581 0.6055087 -0.731366
0.21500358 0.78553367 -0.79352915
0.29578683 1.1499376 -0.9394992
-0.54300684 -0.41630888 -0.52556944
-0.38478225 1.0633872 0.52032775
-0.24336585 -0.039372526 0.2927661
-0.9009305 -0.09482686 0.3429438
0.0856232 -0.08662501 0.6572033
-0.43097252 -0.22917512 -0.09832262
-0.6705265 1.293314 -0.5431875
0.4997521 0.6565118 0.065272994
0.4116252 -0.02304563 0.027714267
0.21444385 0.31490347 0.52534795
0.77954525 -0.2488289 0.122608975
0.5375395 0.7262746 -0.13371968
0.18391624 -0.07941788 -0.88271755
-0.39089274 1.3461387 -0.10711007
0.59664714 -0.24860582 0.42678484
0.35627472 0.81218386 0.3392559
0.48723966 1.5754677 0.015673947
0.11067414 -0.23533612 0.14536443
0.7098155 1.2942265 -0.047754806
0.5839981 1.177093 0.08511414
0.02822087 0.9587892 -0.68244857
0.014781434 0.7925087 0.19920453
-0.3965459 -0.4148955 -0.39191473
-0.7182739 -0.086499736 0.62290037
0.54003894 -0.41539875 0.331833
-0.895494 -0.09183255 0.5345861
-0.61799145 1.5354179 0.16283591
0.017603964 -0.41166937 0.1825423
-0.64846474 0.92407215 -0.68558747
0.7547697 -0.2527755 -0.28768653
0.4565215 0.65310943 0.40099907
0.045178548 1.0168715 0.82918197
-0.9207208 -0.26579803 0.2182737
-0.22838478 -0.091996446 0.9002973
0.1439498 1.1063886 -0.6283933
-0.85046434 -0.40641144 -0.9134331
0.36239702 0.7572081 -0.2295146
0.2858547 0.5788862 0.27687806
-0.5619794 -0.41335997 0.1085541
0.51447654 0.59107643 -0.47848088
0.20513244 1.6591918 -0.20878324
-0.3785342 1.084625 -0.40216753
-0.92531997 -0.2466918 -0.6435485
0.89494264 -0.08698267 -0.28972685
0.66633916 0.5922301 -0.030025817
-0.6844015 1.1035858 -0.22262177
-0.24713974 0.9924799 0.37368682
0.28456873 0.65525544 0.50225735
-0.47152573 1.3787124 0.5523132
-0.008493971 -0.06228388 -0.33663228
0.55613625 0.8542403 0.01231413
-0.51287544 1.3143187 0.06750327
0.16924937 0.72237813 0.3195324
-0.7265227 -0.41785794 -0.42482865
0.38336742 -0.4111827 -0.39043635
-0.09190452 -0.08310393 0.74840176
0.19961406 1.2252141 0.7720061
-0.45868468 -0.053638026 0.011781535
0.53798133 -0.4206969 -0.67063713
-0.40936285 -0.08916344 0.5992665
-0.0034359503 1.5116613 -0.032814976
-0.6624905 0.38152188 -0.007571513
-0.42663854 -0.4085045 -0.0052784476
0.24694791 0.45303285 -0.58732384
-0.63667 0.35822213 -0.21224654
-0.12234904 1.682724 -0.6082918
0.48994446 0.53999346 0.24357435
0.58139443 0.9070798 -0.21525913
-0.06326239 -0.23637725 0.09135793
0.579894 -0.08525537 0.535555
0.16311166 0.8402028 0.80169564
-0.6990062 -0.41212857 0.6024895
-0.17949253 0.9297163 0.796371
0.5266595 1.2595073 -0.52282023
-0.8893568 -0.0883119 -0.73439586
0.9368514 1.0131401 0.049329575
-0.56868124 1.2437626 0.2570234
0.19238997 1.2854779 -0.7400172
-0.0866819 -0.40363342 -0.32385057
-0.27634013 1.067239 -0.7365804
-0.23994938 1.5434338 -0.7273306
0.62007177 1.0177704 0.41030884
-0.394961 -0.067699954 -0.41675663
0.2484583 -0.13099882 0.9248309
-0.7673862 -0.24174768 -0.74147093
0.7215955 1.2601827 0.16184261
-0.44553244 1.1584429 -0.5975194
-0.3181672 1.014437 0.16013733
-0.30181837 1.5186965 0.27127296
-0.28443444 0.4466402 -0.7683363
0.09701474 0.75922453 -0.4356408
0.133006 1.0746534 0.6671094
-0.5806962 1.1272092 -0.41280746
-0.005610289 1.6151977 0.53373164
-0.18966134 1.6586539 0.18758126
0.0460368 0.39664224 -0.04166007
-0.094285384 1.836983 -0.30321804
-0.054380763 1.3480546 -0.1741958
0.050275438 0.54149127 -0.18640223
0.057742868 -0.06313131 0.045145586
-0.48711437 0.9426914 0.6523428
0.26878506 0.93874264 0.6251346
0.72625244 -0.4193449 0.22779286
0.42509797 -0.23095189 0.07840868
-0.84310186 0.69084704 -0.053609997
-0.46898046 0.4408323 0.010710817
0.23227005 0.45500457 -0.07143028
0.095746905 1.1397351 -0.011595011
-0.4166265 -0.085485265 0.8882608
0.2841146 1.2210876 -0.27385822
-0.34605062 1.7550706 0.17914473
-0.46967384 0.7114713 -0.7986027
-0.18816435 0.49098283 -0.2446399
-0.92601585 -0.25161973 0.8680197
-0.2629782 0.7395165 0.5711205
0.35732162 -0.41788763 0.42964125
-0.20909414 1.1583256 0.15923792
0.03604988 -0.4136104 -0.014046112
0.41176888 0.34827954 0.49630886
-0.4242263 0.8520913 0.07744777
0.18559565 -0.40709355 -0.4468376
-0.41922835 0.59295785 0.31345898
0.19280773 1.4884827 -0.09145813
0.05464171 0.7121406 0.45879233
0.8972054 0.6950624 -0.20224959
0.21879017 -0.05245388 -0.084273905
0.70393085 0.34846753 -0.04946989
0.21028584 0.9661984 -0.7668964
0.42450953 0.4013636 -0.68580824
0.1413672 1.0632715 0.47598326
-0.15296587 -0.4110723 0.06844023
-0.16553128 -0.028840605 -0.21456933
-0.48405915 0.7434522 0.627596
-0.5349271 1.3114985 -0.69818014
0.89881355 -0.4084139 0.124111384
0.84392405 1.363527 0.08327121
0.5588614 -0.4135812 0.74332833
0.044571802 1.4102733 -0.87354434
-0.24250656 -0.24738896 -0.58526385
0.55103636 1.3232133 0.25407192
0.8946091 -0.4088683 0.53605944
0.2765387 1.6592222 -0.010368219
0.3532501 -0.0876753 -0.90478694
-0.07266349 1.2565444 -0.9312084
0.11312053 -0.07396069 0.8579184
0.008295298 1.6846521 -0.1995723
-0.20103449 1.8222635 0.07403999
0.29495725 1.7248344 0.33429992
0.6330421 1.6131744 0.14997183
-0.5479629 0.9767976 -0.52328527
-0.25849617 -0.08931656 -0.74530506
0.7195256 -0.08312275 0.8754918
-0.7225009 -0.0832613 -0.2242671
-0.44750184 -0.24416709 -0.63143075
-0.4631666 1.6889241 -0.31374806
0.6429028 1.0454898 -0.7564324
-0.58571696 0.8968068 0.20370354
-0.3102641 0.85995203 -0.7249934
0.38844234 0.5983288 -0.60918736
-0.057659537 0.7689034 0.6359577
-0.28448647 0.52337277 -0.59463525
0.45006496 0.14134035 -0.16650112
0.9070735 0.8076309 0.122490674
-0.35526937 -0.4166478 0.35732114
-0.34225532 1.377466 -0.80205464
0.26253885 1.0273154 0.7998272
0.7385112 -0.08394934 0.432324
0.380957 1.5800215 -0.15421194
-0.9240167 -0.25399143 -0.42512572
0.44746113 1.601367 0.40166944
-0.11023056 0.35762668 0.5782076
-0.8845581 -0.41049626 0.5229648
0.53286433 0.9246319 -0.6229068
0.5503533 0.82685935 0.42749617
-0.2908126 0.30523166 0.4610464
0.54718506 0.82245505 0.6562313
-0.15302202 -0.25937736 -0.7617621
-0.7107778 -0.2614925 -0.92555726
0.42309535 1.271699 0.058812447
-0.09438823 -0.2408773 0.6302097
-0.16502976 -0.09060153 -0.9146641
-0.82319355 0.94617903 0.2189047
0.13749987 0.39974383 -0.25927868
0.5755008 -0.0885176 0.74590456
0.0171622 0.78569806 -0.6205652
0.1759055 1.8515518 0.043482684
0.23180047 -0.4194363 0.6068987
-0.44417518 0.38291633 -0.606019
-0.26021993 0.52665764 0.054659545
-0.58303565 1.5451915 -0.39514557
0.03972317 -0.2239931 0.46858257
-0.60278547 1.0276188 0.54396653
-0.7400583 0.7928058 0.33457667
0.7463106 -0.25489467 -0.08467427
-0.2517329 1.1451405 -0.55610645
-0.019031886 1.1607015 0.14057007
0.717903 -0.08435732 -0.38978896
-0.66515815 1.1308539 -0.6252023
-0.7629397 0.555099 0.06945178
0.5713158 -0.083584666 0.328323
0.2506668 1.417929 -0.6099745
-0.102587484 1.4080935 -0.3594093
-0.26444745 1.6960814 0.36130726
0.41013035 1.4541225 -0.46965843
-0.4634959 1.0482473 0.31103742
0.3500061 0.32331145 0.049165014
-0.1527239 0.31269032 0.2359555
-0.37491053 0.8834673 0.4878568
-0.04713042 0.6508855 -0.3077331
0.3078913 -0.2396391 -0.7762915
-0.083776146 0.6586834 0.32778603
0.61706793 -0.2696337 0.06973676
0.64334977 -0.2549025 0.24866548
-0.39771813 1.4532553 -0.44055694
-0.15711138 1.4037628 -0.8586848
0.10008536 -0.4067222 -0.6106216
-0.15749267 0.7531495 -0.95514643
0.642344 -0.2441839 -0.91646266
-0.5917274 0.49440885 0.3673936
-0.5911728 -0.2558819 0.22378024
0.56770307 -0.41591406 0.52513576
-0.11823434 1.0378426 -0.006528685
0.31220335 1.1316772 -0.7556084
0.06624591 0.9018268 0.5851098
-0.6552011 1.0652797 0.21706562
-0.1166594 0.60363823 0.5240797
0.8966937 -0.09083979 0.73503506
-0.5708005 1.4507985 -0.55064034
-0.5709955 -0.090504944 0.32235718
0.43767053 0.18628258 -0.34071797
0.35291857 1.2871654 0.53389585
0.29736 1.3991493 0.6760006
0.72845805 1.0563161 0.20282069
-0.1282891 0.63829446 -0.10194808
-0.10590816 0.65842766 0.11719913
-0.6163095 -0.25779063 0.42179918
0.17368251 0.68710756 -0.27219048
0.91680026 -0.250655 0.64865804
0.15402058 1.0113428 -0.98535717
0.40921944 -0.23308757 -0.28624123
-0.5105294 0.26627225 0.12103671
-0.5248841 -0.26069766 0.5952579
-0.29127634 0.56111026 0.4554628
0.92362356 -0.24900916 0.44329947
0.5906954 -0.25306973 0.6469852
-0.5379437 1.1854575 -0.094410315
0.5664839 0.9928329 0.13892594
0.88795865 0.9705236 0.24057646
0.20876785 0.38447344 0.3357868
-0.3470735 0.5568725 -0.32991326
-0.749773 -0.24859843 0.539437
0.21049014 1.7629213 -0.4807238
-0.010098297 1.659342 0.15482953
0.5398656 -0.08693245 -0.9069218
0.28121907 0.47150502 0.6339127
0.0972574 -0.24855621 0.92740786
0.64619225 -0.08227067 -0.7316737
0.022843346 1.1094921 -0.4139163
-0.043588363 0.09729323 0.06257488
0.48610392 1.0923243 -0.866114
0.17230904 -0.06517255 -0.2832737
-0.79116774 -0.25161508 0.73188597
-0.73502195 -0.08323145 0.42228284
0.55004776 1.1243947 0.63300985
0.21602647 1.1060462 -0.4171917
0.11898293 1.2655582 0.18985182
-0.32061696 0.61335933 0.6793751
0.580668 -0.24090508 -0.20589876
-0.1695075 1.124316 0.7846962
0.8171956 1.1433865 0.34892333
-0.54223263 0.72541165 0.26537478
-0.18110248 1.6970139 -0.21521166
-0.62578356 -0.40362838 0.9073851
0.25450188 -0.21477084 -0.39980334
-0.5471681 0.35075325 -0.41926047
-0.43986288 1.6290909 -0.48977822
0.7781793 -0.25062585 0.3429178
0.91513693 -0.24235101 -0.59433544
-0.13283929 -0.067250624 -0.018347211
0.06686271 1.234447 0.410972
0.35507 -0.02476858 -0.36210468
0.650915 0.97247094 0.58952224
0.5610919 1.4521334 -0.11084436
-0.67615354 1.0724933 -0.030116316
-0.3908332 1.0221936 -0.8886061
0.8959397 -0.40858054 -0.083342135
0.7372073 0.62223625 0.40978253
-0.11573163 0.41743374 -0.55653465
-0.31239253 0.4056483 0.31922573
-0.3379131 0.42711776 -0.45646143
0.07865629 -0.25011396 -0.34791875
0.7440597 0.6740031 -0.59664077
-0.47468972 0.8074424 -0.5999908
-0.010715719 1.1965609 0.59947634
-0.6549767 1.2191432 0.074863076
0.25804067 -0.081453644 -0.70199645
-0.8945757 -0.40731642 -0.53170264
0.05696103 0.49829593 -0.6706205
-0.22469331 0.9362774 0.59838295
-0.01805672 0.6148186 -0.5185732
0.8901892 -0.40846118 0.73525774
0.2385801 -0.053785264 0.115287356
-0.19237226 0.58523846 -0.43767235
0.06493222 1.4904332 -0.24460402
-0.43217307 -0.23730642 -0.28875816
0.9003407 -0.08916281 0.53663504
0.88393915 -0.40168858 0.9075096
-0.035030417 1.1569543 -0.16669297
-0.45037615 0.72543716 0.4414453
0.5693793 1.5572027 -0.5295043
0.3002951 -0.4044166 -0.91401684
-0.2872929 1.4176347 -0.26730883
-0.4896943 0.32414445 0.30875954
-0.3346634 0.7391573 -0.45002306
-0.14439987 -0.40980405 -0.9080396
-0.15358093 1.4975305 0.12531844
0.5009204 0.781124 0.20834315
0.30018294 1.5886083 0.5235131
-0.37592405 -0.415156 0.5583713
0.59713817 0.4840214 -0.35003352
0.20115344 -0.41322732 -0.7503315
-0.13420355 1.6625865 -0.021401921
-0.5207567 -0.07182455 -0.15726897
0.5439774 -0.10323799 0.9189651
0.7932694 0.47123653 0.07873319
0.5397666 -0.037716143 -0.10902242
-0.21431893 -0.25502285 0.7615365
-0.017879052 0.88374597 -0.99834967
0.11577408 -0.4187619 0.75132346
0.26627666 -0.22443025 0.014066279
-0.34629086 -0.4113415 0.1566566
0.29566693 0.28726077 -0.20129338
0.03470325 0.6823094 -0.9515763
0.23449148 -0.24735188 -0.5933168
-0.08593871 1.4786239 0.64426076
-0.04814209 1.7274418 0.38891423
-0.21361135 0.98566383 -0.96707064
-0.44276166 -0.2590683 0.43057853
-0.16450348 1.8484972 -0.1076719
-0.124675035 -0.2573947 0.46322
-0.3206055 0.6831992 -0.6749777
0.13475037 0.64246964 0.13855232
0.22151032 -0.2552814 0.78117454
0.9304218 -0.24695316 -0.78144944
0.42559803 -0.2542935 -0.63135445
-0.27200285 -0.23286638 0.016992155
0.30386308 1.1922402 -0.57139766
0.72054803 -0.40022177 -0.9169923
-0.71052325 1.3898073 -0.37629157
0.08570477 1.6818242 -0.024344087
-0.31213984 0.34505856 0.12590483
0.16619459 1.5308359 -0.78328705
-0.91869664 -0.25734615 0.42775142
0.44593674 -0.24913794 0.5256692
0.39988887 -0.2508579 0.35247594
-0.91209674 -0.1033819 0.16427395
-0.4655559 0.53914547 -0.7227838
0.48280168 0.21042147 0.17319483
0.4385472 0.3738289 -0.30192477
-0.28249735 -0.026965745 0.09998688
-0.011841992 0.029540991 -0.48863706
0.7361104 0.7756371 -0.084270746
-0.41213638 -0.24159995 0.7480092
-0.20558931 0.27121478 -0.1825763
-0.06455034 -0.23118684 0.28073388
-0.20582102 1.4336113 -0.055883795
-0.38646784 0.85579836 -0.1669178
0.8144158 0.54470885 -0.32471547
0.9020103 -0.08662151 -0.49126968
-0.28539395 1.1731243 0.3627332
0.17981467 0.76052094 0.62658465
-0.2841496 1.4396263 0.62117934
0.5907332 0.4828164 0.44386694
0.29120654 0.516376 -0.2511478
-0.6164303 0.69154775 -0.6629659
-0.16950792 0.16896665 -0.4866518
0.38041 -0.41266584 0.01736186
0.083913624 -0.40609682 -0.9081856
-0.13090017 1.2008969 -0.3412892
-0.69312525 0.7474679 -0.08848449
0.4604264 0.5176558 0.5790418
0.010413788 -0.40848917 0.9078109
0.007940197 1.1983855 0.79138094
0.48401523 1.7473694 0.04558493
0.408356 -0.054968182 0.22321612
-0.39445668 1.21156 0.19759494
0.09882667 0.31552148 -0.7259335
-0.42767042 0.6413387 0.08247019
-0.1967061 0.8700387 0.11593574
-0.02446837 0.22557282 -0.0831616
0.26001772 -0.08475189 0.72872037
-0.86993194 0.8947203 0.0031914518
0.51547796 1.3014004 0.61416304
-0.70239735 0.91505766 0.064575404
-0.011601577 1.8525205 0.06954795
-0.7320616 -0.08532006 -0.8977927
0.39698207 -0.41378713 -0.17953986
-0.045432344 0.3518442 -0.22735414
0.123260796 -0.26047453 0.61067164
0.8964115 -0.08752751 -0.089253485
0.88397205 -0.08160998 -0.70504946
0.55291873 -0.41366374 -0.28673065
-0.12569553 1.2977697 0.508919
-0.4587996 0.88533276 -0.37846458
0.36943457 0.9279374 0.13366774
-0.30064705 -0.25059587 0.5734551
-0.3565754 0.3600979 -0.27529433
-0.372903 0.23842314 -0.4650506
0.41946825 0.5638927 -0.8129906
-0.6065745 0.50717485 -0.5562601
0.63012546 0.68161595 0.30347547
-0.63856435 1.5549843 -0.22936833
-0.047121204 1.3541744 0.30779296
-0.594112 -0.09092637 0.12642632
-0.73024726 -0.08167883 0.7967789
0.4893398 -0.23702118 0.22478849
0.03298018 0.062202208 -0.14955653
0.23638564 0.32012695 -0.4016815
0.22854754 0.6130059 -0.91276973
-0.038141478 1.567209 -0.7639488
0.76551723 1.325485 0.33027855
0.37443182 0.46162233 -0.45126963
-0.3572762 -0.039173067 -0.25447538
-0.8076296 1.269 0.12734374
0.21931303 0.8724376 0.44986826
-0.057160437 0.23736998 -0.62444055
-0.3754158 0.14239915 -0.13915709
-0.80468893 0.82209 -0.3842232
-0.5189258 0.5328857 -0.38359368
-0.38688058 1.5475597 0.46121028
-0.13603348 0.44843435 -0.06384869
-0.111999415 1.8065541 0.24141687
-0.9220773 -0.25625002 -0.21654609
0.5569242 -0.4037227 -0.07424209
-0.84393203 1.0178285 -0.31905994
0.8539481 -0.25004417 -0.9269146
0.4805681 1.1158227 -0.65110934
-0.18726622 0.33051547 -0.3869272
-0.34239668 0.56411254 -0.12125391
-0.29367617 0.7095568 0.1850703
-0.08121751 1.0006578 -0.261123
0.11208293 0.22732864 -0.22132584
0.6145755 1.1657838 0.30612966
0.7515798 -0.2519006 0.5449562
0.89111996 -0.4084155 -0.6853347
-0.027726283 0.925986 -0.47270504
-0.3346467 0.34862477 -0.07685911
0.35520405 1.4607971 -0.77917963
0.40243912 -0.23668846 -0.10234714
0.3977244 1.6908075 -0.49951008
-0.14844272 0.21620396 0.4027114
-0.23773398 -0.08518209 0.50823987
0.21424098 -0.40712792 -0.09452349
0.15918633 0.10641351 0.0005576678
0.70162964 0.74308586 0.1154269
0.34495032 1.7938199 -0.30594033
-0.8633347 0.84636605 -0.19474098
-0.04126598 -0.096573435 0.9138794
0.93919754 0.84860027 -0.08292566
0.038272034 0.583924 0.0061726565
-0.27799588 -0.083342284 0.71284723
0.43329632 0.3617841 -0.109647036
-0.31441286 1.5932367 -0.12153521
0.41412246 0.5700964 -0.09211418
0.19044018 -0.24746779 -0.9237093
0.11819 0.9492447 -0.32504028
-0.24422301 1.7605021 -0.4266799
0.54892516 -0.08164491 -0.5230819
-0.3094499 1.3584194 0.08278391
0.4222816 1.557029 -0.64064443
0.60585785 1.0642159 -0.5027519
0.9023752 -0.08743704 0.117470324
0.6784065 0.87905 0.2650941
0.64443696 0.5563835 0.14793381
-0.27811086 0.44884062 0.5988545
0.2187541 1.5511768 -0.49741572
-0.42779595 -0.40801895 0.89769304
0.15336822 1.3913553 0.31101477
-0.73737776 -0.24764599 0.92115617
0.38769358 0.75269735 -0.9021832
0.59255904 -0.24624509 -0.39721984
0.72411585 0.99657375 -0.3450299
0.55176437 1.4184825 -0.6788718
0.36774617 1.448514 0.021732729
-0.8007108 0.66416436 -0.26801345
-0.7582723 0.51415074 -0.13961324
0.39043707 -0.41285154 -0.76104677
-0.6149202 0.6212614 -0.24271156
0.7303606 1.4649069 0.20639116
0.72212166 -0.41808578 -0.1837314
0.7457042 1.5196733 0.0045815464
0.7366451 -0.08385435 0.6492239
-0.61858726 -0.2561044 -0.61344427
0.04096759 0.9531692 -0.10408804
-0.25338113 -0.40326428 -0.26375058
-0.33871263 0.2058225 0.2725806
0.18237981 -0.032566242 -0.48906583
0.22684959 0.62513447 0.744539
0.081254154 1.6762156 -0.631501
0.47113383 0.9476656 -0.37718692
-0.6452172 -0.08141998 -0.73825884
0.1704301 1.6578841 0.16842604
-0.5244625 0.25151992 -0.07592951
0.3061878 -0.25003862 0.6201637
-0.011154122 1.7785909 -0.4772614
-0.26467675 0.7273704 0.37941942
-0.3252622 1.5808401 0.0740609
0.8984612 -0.40873057 0.33049518
0.24795717 1.1146224 0.143974
0.016512327 -0.24517316 0.76854813
-0.7713085 1.1771944 -0.4318264
-0.50378585 1.0164447 -0.24043664
-0.48220682 1.1919818 0.42435718
0.3158207 0.72748995 0.1600363
0.67165434 0.6720977 -0.41834766
0.56203103 -0.17861992 -0.047307145
-0.6442018 0.41030034 0.18815914
-0.5782691 0.74070615 -0.43505982
-0.27463403 0.73805416 -0.025328005
-0.29259437 1.6440337 -0.57392836
-0.8229903 1.2301799 -0.2571295
0.20697099 0.8551166 -0.16556376
0.6783104 1.543669 -0.39104545
-0.9283782 -0.25285965 0.6275798
0.47214895 -0.41165477 0.9070413
0.73811126 1.1489062 -0.18823005
0.18717429 1.4783983 0.10550846
-0.31587654 -0.042201534 -0.08218959
0.06662239 1.3752614 0.716282
-0.7562896 1.4088428 -0.1720567
0.099249974 1.078913 0.284611
-0.17757276 0.74862075 -0.57429063
0.07265675 -0.06424451 0.24795344
0.18434548 0.52747005 0.45232177
-0.12792403 -0.41594753 -0.6078974
0.28615418 1.5265348 0.31298548
0.89801425 -0.40720677 -0.48738346
0.22813302 1.4242725 0.47173196
-0.4235283 1.0323086 -0.075256184
0.4177872 1.3748736 0.37699467
-0.12930244 0.44303972 0.38890782
0.15867092 0.44466382 0.13223216
0.46157092 1.2962265 -0.31186628
0.72911966 -0.42078057 0.023909945
0.080218025 0.5974102 0.6032816
0.091359064 1.5720481 0.33790168
-0.2326569 1.3367267 0.264597
-0.040006652 1.076492 -0.9837067
-0.29907084 0.62408626 -0.86077803
0.15038624 1.689873 0.45118105
0.6017717 0.30533442 -0.39737722
0.8954305 -0.40878057 -0.28660488
-0.57207334 -0.4136312 -0.314231
0.030450549 0.33323509 0.30197966
0.027844813 -0.08995426 -0.911528
0.6023423 1.0386102 -0.07325871
0.107104056 1.8056774 0.25643468
-0.6991949 0.48408136 -0.34876692
-0.19054744 -0.41217571 0.6133398
0.5869106 1.3973494 0.069239795
0.2631145 1.2184343 0.36221495
-0.36147404 0.15779653 0.055745192
0.56478703 0.72990644 -0.5918654
0.05822701 0.9762433 0.10418993
0.7557865 -0.24197665 -0.7340789
-0.12814006 1.5274639 -0.20095342
-0.32175505 -0.41607547 0.74292886
-0.08913946 -0.41558135 0.75635576
-0.6210076 -0.25036097 0.741951
-0.13059562 0.74685115 -0.77025855
-0.25406408 -0.2566418 -0.92094606
0.72431254 -0.41356444 -0.5799204
-0.59527844 -0.2521378 -0.4211296
0.83119 0.6230843 0.209299
-0.1332083 -0.072201684 -0.5895258
-0.0027500482 1.2652531 -0.7312103
0.7205353 0.49403912 -0.49201643
-0.33366254 1.1712313 -0.0087624695
-0.14211011 0.8047044 -0.40268257
-0.5536871 -0.09113029 -0.91236115
0.30216947 1.0279782 0.34924293
-0.81341493 0.75120276 0.14593749
-0.26232463 -0.21320322 -0.37479532
0.5248883 -0.4112767 -0.8975205
0.42400777 -0.2329002 -0.46372128
-0.70202774 -0.41836703 -0.7979861
-0.32331482 -0.25252575 0.9221592
0.3728361 -0.41130668 0.21766561
0.04519182 0.7354318 -0.11928259
0.08410156 0.38440007 -0.52517503
0.822441 1.4221542 -0.13701811
0.6951197 -0.41742632 0.8800204
0.5513985 0.2175377 -0.004359199
-0.5588235 -0.08565061 -0.33905542
0.6784672 0.6312889 -0.22457197
0.532563 1.6796465 -0.35983497
-0.09266449 1.0919597 -0.7958106
0.7072381 0.4625218 0.286043
0.06928434 1.4358971 -0.6477537
0.89451885 -0.40657058 -0.8797082
0.5913976 0.54294837 -0.67197937
-0.7268626 0.60747886 0.2652936
0.47823295 0.97555935 0.30146605
0.54346895 -0.25543833 -0.77337873
-0.36053407 -0.0882321 -0.90910506
-0.095579594 0.37705672 -0.7687222
0.02855039 0.45721018 0.47479364
-0.2301091 -0.21702977 0.18237633
-0.23401347 1.2599158 -0.19052282
0.037433244 0.64624226 0.775348
0.2002925 0.9041348 0.22065935
0.37346458 0.47595978 0.4045943
-0.92560434 -0.24392036 0.0023671892
0.0070405216 0.26375973 -0.40790817
0.13965786 1.5263393 0.61860704
-0.80765486 1.2484783 -0.066731825
0.385327 0.9434751 -0.7411552
-0.057171613 0.8194239 0.01254943
-0.60998946 0.81164634 -0.24947767
0.6103208 1.5134711 0.35370514
0.030550962 0.2564575 0.49202278
-0.5228065 -0.41876096 0.7165047
0.7532635 0.9200929 0.055889945
-0.29294932 1.5909202 -0.3428663
-0.5941542 0.56884444 -0.049667936
-0.14718792 1.2282507 -0.026578005
0.5190321 0.76139975 -0.34556144
0.9034736 -0.08786803 0.32897025
0.24639216 -0.23964226 0.43709505
0.27729034 0.8562454 -0.38999242
-0.47894743 0.5674945 0.5526129
0.11702633 1.8320596 -0.3204623
0.08154704 0.4267803 0.6643369
0.11640394 0.18439412 -0.5507176
0.53055435 1.2388552 -0.10721654
0.39114317 0.7959446 0.5491736
0.6106268 -0.24688661 -0.5982586
