0.5911819 1.3688962 0.5248184
0.46321297 0.45278287 0.10635637
0.4622392 1.5051138 0.25941592
0.7459148 -0.25318968 0.75586075
0.38733286 1.0013801 0.5555383
-0.59496045 0.96664846 0.38231102
0.023755878 0.11123802 -0.34155375
0.65217507 1.1871142 0.5697007
0.30996323 1.6625376 -0.62024444
0.77199745 -0.24990326 0.93378264
0.46094096 -0.08573685 -0.7288388
0.0015015248 -0.412176 -0.46441543
0.036593016 1.3710425 0.025600325
-0.72774935 1.006993 -0.17605624
0.30187654 1.3719162 0.24823481
0.09569608 -0.23760995 -0.53006345
0.3066232 0.41213912 0.25823158
-0.3378227 -0.08365528 -0.58057094
0.12860417 0.56415856 -0.36704886
-0.9051563 -0.09639421 0.734421
0.4779365 1.712239 0.28989905
-0.5936278 1.4353546 -0.11618479
-0.46674496 -0.25343847 -0.9249475
0.4282177 -0.0833771 0.64625084
0.23537153 0.2876801 -0.58021295
0.8836786 1.2603024 -0.16304632
0.89952743 1.088647 -0.24198128
-0.27734274 0.9983972 -0.04317163
-0.18748635 1.5286623 -0.4962308
0.20436701 0.10521818 -0.1783193
-0.41686136 1.2658249 -0.25575364
-0.7348325 0.7113984 -0.47844535
0.01599941 -0.05498434 -0.13201006
-0.7327411 1.4937984 0.022620946
-0.7270105 -0.08509916 -0.4221
0.34725976 1.0129266 -0.5111506
-0.5889725 -0.41419488 -0.10674657
-0.35879266 1.3376658 0.5278981
0.12684762 1.2942498 -0.5079819
-0.26865667 0.75443304 -0.24408092
-0.033437256 1.1543577 -0.5722643
-0.2501611 1.1863506 0.5834173
-0.7516608 -0.08019296 0.22414443
0.24706037 0.44966412 -0.7502912
-0.060145512 -0.08876037 -0.7625108
0.7616309 -0.25132465 -0.49088132
-0.5595963 1.2519605 0.60869175
0.63610125 1.2502036 -0.67969906
-0.10012808 -0.2359246 -0.4555223
-0.12395057 0.96189815 -0.80334103
-0.11321015 -0.041716494 0.19348875
-0.756318 1.0755131 -0.5347934
0.3928501 0.9472378 -0.063523166
0.1526337 1.3397796 -0.12593573
0.23053819 0.8389335 -0.57169473
0.92137545 -0.24914509 0.012835618
0.07254559 0.5219629 -0.83218277
0.8410127 0.7025486 -0.33468497
0.7113167 1.5785611 -0.14697915
-0.2507852 0.12061032 -0.061730668
-0.43273997 1.4256968 0.35644394
-0.11987993 -0.22276354 -0.26510286
0.86785185 1.1786201 0.24031165
-0.71850264 -0.4212305 0.77528155
0.32623854 1.2229439 0.7692812
-0.49961784 -0.41908512 -0.73147655
-0.71501184 0.8882953 -0.5702189
0.13424581 0.30357772 0.21323827
0.27557522 0.84937716 0.8024039
-0.5678132 -0.0880266 0.5407413
0.74469066 -0.08863297 -0.58443654
0.8547077 1.0426011 -0.4099687
-0.0914989 1.4571621 -0.6494577
0.30302447 0.14029795 0.044690758
-0.023173798 -0.41405317 -0.7639313
0.7284521 -0.41909906 0.6470652
-0.10850731 0.5957948 -0.86161363
-0.4595081 0.6776745 -0.5353297
-0.0064645344 0.9416573 0.38425136
0.5642942 -0.080971375 0.11351413
0.19794774 -0.4115965 0.2881034
-0.35437047 -0.41570386 -0.59292686
-0.38378307 1.3096074 0.70220304
0.15581083 1.252604 -0.9260767
-0.8911924 -0.09961446 -0.91375804
-0.7756112 1.0563982 0.37215728
0.07787189 -0.41646677 -0.24253577
0.40394717 1.0978317 0.07125026
0.46884185 0.3537024 0.38083264
-0.062744915 -0.08091748 0.57336855
0.13282669 1.6680676 -0.35483247
0.13482693 1.1308262 -0.17460853
-0.7631398 -0.24486472 0.32689625
-0.49502942 1.7429208 0.070221774
0.43059954 1.120599 -0.14716652
-0.50969404 0.4804846 0.46346766
-0.8679201 -0.082921565 0.025524957
-0.5101186 0.77125144 -0.088176385
0.77022815 0.99072886 -0.55959785
-0.17136742 1.290775 -0.7134867
-0.21441323 1.6582549 0.5257366
-0.33170623 1.8349059 -0.030758604
0.57767814 0.7067673 -0.722083
0.34332964 1.6263802 0.19345632
0.7052073 0.8374401 -0.63651264
-0.40496868 -0.08732894 0.4350749
-0.61640227 -0.09308165 0.9168402
0.41299754 -0.08176571 0.43340224
0.5947405 -0.26719755 0.90097284
0.9200196 -0.2480728 -0.38925466
-0.8959303 -0.40771627 0.11003366
0.7596311 0.96112406 -0.07947972
0.91734517 -0.24832231 -0.1879152
0.5323657 0.4045245 -0.49495035
-0.5353564 -0.42240256 0.48608106
-0.15385911 0.1440354 -0.2602781
-0.71008265 -0.41597402 0.40242434
-0.118064195 0.4986604 0.15447493
-0.31317472 0.9877063 -0.5178422
-0.879003 1.141258 -0.14774632
0.0038104067 -0.41516554 0.57865524
0.12858719 0.27294326 0.0064968234
-0.6928946 -0.08033663 -0.02231625
-0.71659374 -0.41824716 -0.62448555
0.06282609 0.71586895 -0.72480243
-0.89615387 -0.40793586 0.7209041
-0.9045582 -0.093595445 -0.52671945
-0.6084843 -0.24873844 -0.2085335
-0.31182203 0.8742759 -0.89814544
0.42760944 -0.2556771 -0.9247644
-0.5778203 1.5551634 0.3539626
-0.006835849 -0.41360983 0.36942255
-0.2522545 0.76746476 0.7792577
0.37737447 0.96547055 -0.89260656
0.43347055 1.3356578 -0.6047678
-0.4926022 1.4438794 -0.3073753
-0.522572 -0.24637817 0.91302145
-0.4632496 -0.24718969 0.10802449
0.6413392 0.8747581 -0.40983862
0.016649105 1.5121131 0.19502604
-0.04595381 0.29568362 0.13550977
0.08864704 0.21407408 0.39135313
-0.2574438 -0.420223 -0.7520956
0.39574242 -0.26809168 0.9239644
-0.24166438 1.4842298 0.4416962
0.37761897 -0.08109277 -0.5461203
-0.14109512 0.9889418 -0.6030081
0.8422007 0.65303326 0.076787874
-0.4723732 1.5015059 0.18748014
0.38128054 -0.07683311 0.87512344
-0.09240985 0.88198966 0.82923436
0.30003583 1.3414428 -0.39648062
0.3276148 1.8290608 0.18429661
-0.35627788 -0.259166 -0.7686641
0.7366457 -0.08249381 0.22075987
0.29893464 1.0229864 -0.21685633
0.38712126 1.0150384 0.7683431
-0.4683863 1.6978431 0.27151704
0.5462731 -0.42207128 0.12989062
-0.7056484 1.224142 0.4246676
-0.13124332 1.222752 0.36135295
-0.037535403 -0.2466802 -0.63394713
-0.5438559 -0.08500776 0.7416538
0.80783176 1.4089372 -0.27489984
0.18640012 0.67372733 -0.036275588
0.92915696 1.0492445 -0.06621633
0.5408212 0.4878626 -0.08972794
0.6098075 1.3979077 -0.35696483
-0.06654237 1.6659943 -0.3684693
0.38454556 0.2799325 -0.46301153
-0.095134586 -0.40781972 -0.13701364
-0.7433639 -0.41624522 -0.21260428
-0.2683511 -0.4104452 -0.06561206
-0.27301192 0.5929778 0.24719869
0.9025512 -0.08974613 -0.8979701
-0.37062576 -0.41189677 -0.902236
0.116591915 -0.2416546 0.31905526
-0.8969487 -0.09343122 -0.3292337
-0.0032925936 0.86657226 -0.24610245
-0.19166663 0.5762743 0.7145221
-0.65453935 0.8046293 0.07364626
0.05114097 1.9097242 -0.10530038
-0.06958194 1.3405385 -0.50126684
0.92397785 -0.24851659 0.22734326
0.15393214 -0.41291586 0.45912963
-0.03294515 -0.2571076 -0.9158176
-0.91581726 -0.260335 -0.8721206
-0.17325708 -0.4098791 0.25511628
-0.6919108 0.73298866 0.439084
0.06466401 0.91281116 -0.8149301
-0.20789614 1.2371576 -0.91028184
0.7179507 0.813635 -0.22145763
-0.32687652 0.19337687 -0.3028624
0.659925 1.3474364 -0.17337361
0.4445545 -0.24148904 0.7584138
-0.006338949 1.472666 0.50689244
-0.37885833 1.5570753 -0.6591158
-0.115068465 -0.22337 -0.07105036
0.74532366 0.9779321 0.49368346
-0.2525311 0.16190252 0.17723314
-0.18268824 -0.41999888 0.4433846
0.2584148 -0.083347306 0.54414606
-0.26719218 1.136564 -0.19258507
-0.27537963 1.332957 -0.40254295
-0.4712081 1.346471 -0.46945572
-0.41018897 1.1138624 0.7319528
0.33569592 0.68205416 0.72873676
-0.5524178 -0.08472109 -0.54894555
0.08877486 -0.07997966 -0.67106056
0.21291131 1.0078189 0.025205014
-0.80400485 1.249204 0.26640266
0.40616274 0.7795582 -0.6597132
-0.69019496 0.90961003 0.5148903
-0.41870362 1.0538454 -0.67352235
-0.113253 1.0787565 0.4773818
0.043403387 -0.23968273 -0.18194751
-0.76693785 -0.24599995 -0.10106248
0.010800502 1.577495 -0.5109054
-0.29245973 0.9694462 -0.2959636
0.26400506 1.141617 0.60346925
-0.26286244 -0.24701151 0.38197672
-0.48685595 0.52198863 0.18837348
-0.52581894 1.1306806 0.09123247
0.23758416 0.15541309 0.223657
-0.11481119 1.3820195 0.1282142
-0.89950275 -0.40623432 -0.10275189
-0.58021975 -0.40573835 -0.9171008
0.52444434 0.6758304 0.61585265
0.12540361 1.1387031 -0.7867252
0.2920769 1.371588 -0.8538909
0.47510576 1.2985603 -0.7901201
0.08749166 1.3098174 -0.3011044
0.3579702 -0.054033205 -0.1844426
-0.5255191 -0.41707307 0.2844912
0.09855502 -0.07686935 0.46001226
0.05505541 0.12443284 0.20195895
0.90676284 0.88650763 -0.22979137
0.6899656 0.39461958 -0.19679329
0.7355958 -0.08706761 -0.90415585
-0.42298028 -0.2561162 -0.47931415
0.23344153 1.8795228 -0.1223265
0.09200086 -0.21123177 -0.027763836
-0.2168245 -0.4108606 -0.45419985
0.43312007 0.6052018 -0.22723466
0.3938524 1.1803957 0.27836514
0.33391845 -0.41821957 -0.5790852
-0.27206874 0.34024882 -0.6087833
-0.48443502 1.757191 -0.13185945
0.42276734 -0.41340256 0.6170404
0.5435231 1.7342541 -0.13017938
-0.081615195 -0.0723228 0.3838262
0.40681928 0.818854 -0.46471375
-0.29238117 1.8487927 -0.23123509
0.23528808 -0.3998987 0.9139724
-0.20237707 -0.056314707 -0.4056427
-0.094592646 0.17538677 0.3050316
0.16977885 0.66718644 -0.5270718
0.42422393 1.1460097 -0.37104076
-0.621194 1.3277491 -0.2801484
-0.2764272 -0.23362651 -0.17294061
0.8528508 1.2409385 -0.37373424
0.54061866 -0.41295967 -0.4934181
-0.42689332 0.9211376 0.27312595
0.15019959 0.98458886 -0.48860472
-0.381213 -0.2513969 0.24936613
-0.443649 -0.08142675 0.23903534
-0.17578857 1.0823903 -0.4054618
0.8936788 -0.09633814 0.90825236
-0.05943819 0.5034487 -0.35195354
0.92827505 -0.25104785 0.8573791
0.115377374 1.4601486 -0.40616548
0.20163016 -0.4074729 0.09947695
-0.11972974 1.0507228 0.68291616
0.38948745 1.8329146 -0.04755933
0.21311986 0.16767453 -0.37970284
0.698236 1.2150204 -0.3267613
-0.46190444 0.75757253 -0.28041336
0.43150187 1.493316 0.58883035
0.72892594 -0.41696948 0.4273085
-0.5273917 1.1601262 -0.77897316
0.5280201 -0.080331996 -0.32785365
-0.49674857 0.9430105 -0.81045926
0.72078276 -0.41763243 -0.38792267
-0.89878213 -0.09514803 -0.14026508
0.78367734 0.51138973 -0.055357352
-0.86761665 -0.09591098 0.9134467
-0.86554015 1.1661463 0.05844806
-0.16841102 0.8840224 -0.15492503
0.2800501 0.57085514 0.12658505
-0.22073162 0.30986828 0.036805443
0.35586318 1.6322857 -0.31032756
0.28091815 -0.23667201 0.21151736
0.109078184 0.8396952 0.0705998
-0.17513004 0.8853737 0.485586
-0.1107453 -0.26096278 0.91937685
0.55931515 0.89696985 -0.78587955
0.7560786 1.1862864 -0.54590464
-0.11421831 1.5940706 0.3483515
0.22376633 1.3308375 0.062057853
-0.19325437 1.3689647 0.7382963
0.28428477 1.1846434 -0.042961407
-0.13244909 0.6238892 -0.6668839
-0.5177946 0.2959998 -0.2729661
-0.7420275 -0.41466832 0.0037592272
0.122595325 1.3066094 0.60813856
0.716691 -0.0848794 -0.19546793
0.72418725 -0.08297371 0.009251503
0.51018786 1.5125093 -0.23326208
0.7017343 -0.416035 -0.7624419
0.3229238 0.8004378 0.028577995
0.27535063 1.47049 -0.2555129
0.54558575 0.272164 -0.14426595
-0.45782614 -0.08405692 -0.739952
0.5855223 0.34588087 0.21122345
0.30027318 0.6851061 -0.37299898
0.7338388 1.3804064 -0.4890244
-0.4658146 1.5589287 -0.012178155
-0.760339 -0.2497984 -0.31739998
-0.42225587 -0.41201526 -0.19421402
0.7807649 0.7943259 0.38778603
0.3719406 1.3809941 -0.10018065
0.21535091 0.8401167 -0.9393646
-0.77199304 -0.25421613 -0.52373886
-0.3001876 1.3861221 -0.60115325
0.24735096 -0.40267676 -0.27501023
-0.62604403 0.63112307 0.1384865
-0.65876293 1.0195634 -0.37836224
0.43476832 1.1973104 0.48505092
0.102131404 -0.24148609 -0.76191354
0.24469571 -0.072869815 0.3315377
-0.12944797 1.054915 0.24828166
-0.5749978 0.9690757 -0.062243544
-0.8911241 -0.41228998 0.32467133
-0.85690904 -0.40573192 0.90661633
-0.71166956 1.4530847 0.22985956
0.34338877 -0.41779912 0.777094
0.6575576 0.81670725 0.55988944
-0.57642806 -0.25097224 -0.7905028
0.22838321 -0.21864285 -0.19403735
-0.8945621 -0.4051689 -0.73169625
-0.37769577 1.2664733 -0.8175947
-0.21608298 0.9080503 0.31149107
0.64701676 1.6655725 0.009809619
0.5754797 1.1273344 -0.23254552
-0.6045196 -0.24572825 -0.0046281707
0.7457862 1.114263 0.07956776
-0.8962852 -0.40870374 -0.3218047
0.8298739 0.85013354 -0.4382192
0.27749184 0.2631868 0.39706728
-0.63505614 1.6380379 -0.055452943
-0.72941285 -0.41482607 0.2128488
-0.41052383 0.89305764 0.7347263
-0.7447871 -0.08667475 -0.6058898
-0.21399051 -0.41170543 0.9016496
-0.65669096 1.3922031 0.42166418
0.8998909 1.2231166 0.03215114
-0.75029546 -0.24263084 0.113711685
-0.011554699 0.58736634 0.3128515
-0.43825507 1.5810212 -0.21582796
-0.5216123 0.5237234 -0.20299414
0.24098143 0.63528293 -0.69137466
0.23191634 0.81729215 -0.7590207
0.33541977 1.1679137 -0.8958186
-0.54628724 -0.4167372 -0.5279874
-0.43217808 1.1279807 0.5226197
-0.25796312 -0.07153308 0.31039423
-0.90336806 -0.09672421 0.35135335
0.09568232 -0.08437346 0.6748233
-0.4402727 -0.2387423 -0.09418349
-0.64537567 1.366405 -0.5578715
0.45561355 0.67152274 0.11534293
0.38896883 -0.056206703 0.013067301
0.13130642 0.35024485 0.5564537
0.780813 -0.24411999 0.12100625
0.5073676 0.7418556 -0.07714866
0.18726777 -0.08021716 -0.8862903
-0.3906358 1.4040753 -0.108587265
0.59684545 -0.24712831 0.42679214
0.30241907 0.84092915 0.38372642
0.4919944 1.5945232 0.06442203
0.109488145 -0.22730954 0.14754975
0.70294636 1.3027611 0.017925017
0.56437695 1.193752 0.1424959
0.04799703 0.9783243 -0.655905
-0.034165375 0.8388183 0.22478448
-0.39845562 -0.41668558 -0.39256454
-0.7243587 -0.08921525 0.6289562
0.5432289 -0.41512448 0.3322683
-0.90023136 -0.09436101 0.5434085
-0.6230351 1.6090982 0.14792714
0.019129053 -0.408501 0.18176417
-0.6334741 0.9951383 -0.6963054
0.75460255 -0.25190017 -0.29095066
0.39229733 0.67438185 0.45409375
-0.024182346 1.0627105 0.85407215
-0.9196063 -0.2687503 0.22375658
-0.22029625 -0.09346769 0.9028679
0.16558972 1.133879 -0.5959087
-0.85136473 -0.40636194 -0.91460943
0.3416481 0.78450966 -0.18383607
0.23355007 0.6169975 0.3137235
-0.57585096 -0.41186845 0.10631923
0.49695754 0.60383224 -0.42234534
0.22744429 1.6906116 -0.17707244
-0.3718366 1.1447343 -0.39969116
-0.9254062 -0.24715377 -0.6438037
0.8950216 -0.08786228 -0.2886409
0.6286398 0.60430783 0.03249807
-0.6867555 1.1765552 -0.23727772
-0.2998888 1.0672753 0.37525687
0.21565968 0.68804777 0.5430285
-0.506184 1.4479226 0.54686713
-0.033287246 -0.053342666 -0.31139433
0.52311265 0.8679607 0.074842244
-0.5207701 1.3776436 0.062343143
0.113236174 0.7598792 0.35112822
-0.72814107 -0.4172908 -0.42535937
0.3851127 -0.41424668 -0.39016253
-0.07990539 -0.084589496 0.7572539
0.1447342 1.2651836 0.8050113
-0.4771062 -0.07571043 0.029024446
0.5409434 -0.421423 -0.6745161
-0.4038992 -0.08452251 0.62996745
0.00027827144 1.5545127 -0.011594908
-0.70466477 0.4505609 -0.01563022
-0.43385318 -0.4113662 -0.0017108747
0.22499055 0.4779818 -0.5500893
-0.67083997 0.42713976 -0.21775585
-0.07501498 1.728778 -0.5950279
0.4321257 0.5544284 0.29637873
0.5631101 0.92019725 -0.15687396
-0.060149886 -0.22360563 0.09503919
0.58211553 -0.08540064 0.53602564
0.087904334 0.8803438 0.833958
-0.69285786 -0.4127586 0.60055745
-0.25118136 0.9840084 0.8105936
0.54738826 1.2720904 -0.46771997
-0.8895589 -0.08919066 -0.73554057
0.9107755 1.009043 0.124568745
-0.59374607 1.3109227 0.2453728
0.22512409 1.3132126 -0.70423305
-0.08414949 -0.40524042 -0.32036358
-0.2513697 1.117916 -0.7256472
-0.19110534 1.5926671 -0.7193453
0.57335615 1.0315638 0.46942493
-0.40367222 -0.08038944 -0.42271796
0.25640115 -0.17134546 0.9295401
-0.7685988 -0.24221519 -0.74352455
0.7024905 1.2675086 0.2276333
-0.42013007 1.2176675 -0.59873426
-0.34460527 1.0694286 0.15695475
-0.31436193 1.5811821 0.27521077
-0.2873255 0.49330175 -0.7499813
0.091645375 0.7937094 -0.40049517
0.07551204 1.1144104 0.6985725
-0.5718807 1.1960152 -0.4211178
-0.026944464 1.6647353 0.55400234
-0.18689093 1.7121644 0.19805117
1.50507585E-05 0.41495776 -0.01798819
-0.055709057 1.8834956 -0.29065108
-0.048944637 1.3948724 -0.15317437
0.016416255 0.5710335 -0.16166905
0.037761796 -0.039535165 0.06293994
-0.547899 1.0109031 0.6480859
0.20569994 0.97228414 0.6631746
0.72652316 -0.41790324 0.22562939
0.42633584 -0.24665844 0.0802124
-0.87177026 0.7705024 -0.075495526
-0.50923836 0.5061667 0.0042794747
0.18559502 0.4746759 -0.032030515
0.082089454 1.1766567 0.020085515
-0.41054827 -0.0852261 0.8867374
0.2893964 1.2461641 -0.23254949
-0.33776543 1.8128399 0.18215759
-0.45825344 0.7687737 -0.7979028
-0.21748993 0.5336418 -0.23344532
-0.9242845 -0.25657165 0.8728774
-0.3296685 0.79403716 0.5780921
0.36074847 -0.41832262 0.4314755
-0.23241779 1.2157922 0.17636834
0.03803639 -0.40437245 -0.01528824
0.3329625 0.37697202 0.54421794
-0.45105058 0.911939 0.07461795
0.18641396 -0.41217822 -0.4455868
-0.4704112 0.6538024 0.30854037
0.19919063 1.5224483 -0.058752645
-0.009824432 0.75481695 0.48267478
0.86791337 0.69350684 -0.12795252
0.20221052 -0.039627254 -0.07557917
0.6525395 0.36021164 0.013510407
0.23371041 0.9972428 -0.73164535
0.4033712 0.41320628 -0.6318515
0.09097652 1.1029269 0.5063101
-0.14547257 -0.40698317 0.067006886
-0.17991924 -0.038810857 -0.1964607
-0.5510154 0.81083965 0.6219697
-0.49965602 1.3751566 -0.7053015
0.8980657 -0.40852618 0.121928334
0.83521575 1.3652147 0.15760352
0.56431377 -0.41342682 0.74174976
0.093890876 1.4409302 -0.8474237
-0.24745682 -0.24887276 -0.5867441
0.529731 1.3417866 0.31047738
0.89555275 -0.40946746 0.53314936
0.28845972 1.6902962 0.0244787
0.35730577 -0.08847104 -0.9095
-0.028977714 1.2949965 -0.9124688
0.13842472 -0.076776735 0.8747407
0.032224283 1.7257702 -0.18021464
-0.1862233 1.8768427 0.08269769
0.2872163 1.7576832 0.37012565
0.6266245 1.6253147 0.21074063
-0.53873205 1.0440049 -0.52847326
-0.25790983 -0.08815375 -0.7498616
0.72012055 -0.08510551 0.8777257
-0.72526395 -0.08350744 -0.21731794
-0.45196253 -0.24288154 -0.6374109
-0.4308092 1.7520304 -0.31898367
0.66455805 1.0491899 -0.6964358
-0.6233717 0.96416354 0.19214702
-0.29581743 0.91373193 -0.716135
0.37976044 0.616442 -0.5618293
-0.12883809 0.8138404 0.65374076
-0.30044496 0.5816446 -0.5785649
0.3869716 0.17105371 -0.105014816
0.8678584 0.80658424 0.19574307
-0.3529718 -0.41887558 0.3559106
-0.2990447 1.430981 -0.79967964
0.1956495 1.0629584 0.83759123
0.73743963 -0.08461599 0.43147188
0.39641935 1.6049567 -0.11276648
-0.92430997 -0.25415117 -0.42401263
0.43127573 1.6277938 0.44838113
-0.19156341 0.4037549 0.59036434
-0.8820782 -0.41355085 0.52566576
0.54044044 0.93600214 -0.5658756
0.49129283 0.8439673 0.4820771
-0.3637515 0.3591684 0.46558002
0.4792551 0.84280974 0.70972127
-0.15452343 -0.25626495 -0.7644398
-0.7119124 -0.26267296 -0.92865485
0.4099303 1.2964168 0.10687565
-0.09015191 -0.24170206 0.63785225
-0.16373274 -0.091615744 -0.9180536
-0.8570074 1.0246322 0.195831
0.10063751 0.4216603 -0.22131744
0.57815087 -0.08927825 0.7490564
0.007974375 0.81836784 -0.57664394
0.19419059 1.8866103 0.07164662
0.23451689 -0.41822374 0.60943174
-0.45544344 0.4410709 -0.59705913
-0.30146343 0.5863486 0.05807063
-0.5537876 1.6147857 -0.40573558
0.0328276 -0.24302432 0.47049457
-0.6506779 1.0987124 0.52926606
-0.7876195 0.86865914 0.31758144
0.7489245 -0.25345594 -0.08586788
-0.22736102 1.1968908 -0.54434884
-0.042543814 1.2108604 0.1639981
0.7168954 -0.08464519 -0.39161023
-0.642349 1.2026594 -0.638036
-0.80372965 0.62948173 0.05107085
0.56822217 -0.08248913 0.32361
0.2857773 1.4421773 -0.57329166
-0.08443603 1.4540155 -0.34307462
-0.27162176 1.7554402 0.36798683
0.43655574 1.4710739 -0.4240843
-0.5074964 1.1119432 0.3102867
0.29085633 0.34080908 0.08429435
-0.21725154 0.3560376 0.23907527
-0.42438138 0.9463881 0.4845342
-0.06540078 0.69333136 -0.28552455
0.31452334 -0.23898557 -0.780864
-0.14461398 0.7142993 0.34004578
0.6230478 -0.2752047 0.07876612
0.64694387 -0.2494059 0.2515218
-0.3707137 1.5141311 -0.4428023
-0.11018768 1.4483161 -0.84483933
0.10169756 -0.41283885 -0.61805606
-0.13881612 0.7961506 -0.936553
0.64467084 -0.24534437 -0.919817
-0.64978755 0.5640073 0.3570605
-0.5947298 -0.25533134 0.25138193
0.56992376 -0.41520274 0.52442956
-0.13861014 1.0924327 0.013182949
0.34192914 1.1582313 -0.7115482
0.003645274 0.9441149 0.6103204
-0.6865214 1.1377963 0.1969324
-0.18481943 0.65055704 0.53564006
0.89712316 -0.091497906 0.7340143
-0.5374456 1.5186384 -0.5603795
-0.5868343 -0.08849231 0.34677476
0.38310844 0.19839674 -0.28678915
0.31250423 1.3171046 0.5770253
0.25682372 1.4327321 0.7150031
0.6949569 1.0622654 0.27189296
-0.16091207 0.6765015 -0.08842422
-0.13810816 0.7048794 0.12591563
-0.6246195 -0.25258207 0.46179056
0.15343101 0.7177299 -0.23396036
0.9189285 -0.25139362 0.6463164
0.18851125 1.0382535 -0.95080507
0.41219744 -0.24353188 -0.28395015
-0.56271267 0.3298399 0.11629279
-0.49720508 -0.26183903 0.5953962
-0.35534984 0.6137904 0.45888925
0.9248154 -0.24996959 0.44178438
0.59410286 -0.25238603 0.647026
-0.5412953 1.2474558 -0.10178589
0.5342776 1.01201 0.19512022
0.84950376 0.9706286 0.31345052
0.1334752 0.42504397 0.36695045
-0.36767513 0.6118114 -0.3337002
-0.76818323 -0.25409085 0.5466839
0.25550407 1.7916925 -0.44999236
-0.008136493 1.703552 0.17298122
0.5437958 -0.08790371 -0.91119826
0.19663513 0.5042535 0.6711283
0.0961173 -0.25770772 0.926329
0.65248585 -0.083653264 -0.7369267
0.028684653 1.1490523 -0.38250652
-0.09777453 0.1079802 0.07937959
0.51761734 1.1032532 -0.8145399
0.15601498 -0.048805587 -0.2890581
-0.7901138 -0.2535972 0.7377597
-0.74246025 -0.08423433 0.4370393
0.49645972 1.144969 0.6865547
0.22312567 1.1339004 -0.37919456
0.10009436 1.3057971 0.21913147
-0.39590567 0.6721656 0.68427366
0.5854125 -0.24417135 -0.21115378
-0.22848678 1.1789383 0.79564536
0.7814827 1.1495862 0.4182925
-0.5890816 0.78891194 0.25639746
-0.1546045 1.7496818 -0.20579216
-0.619781 -0.40410697 0.9054277
0.2464313 -0.23526809 -0.39373782
-0.5673733 0.411409 -0.4199052
-0.4011227 1.6919389 -0.49348563
0.7798737 -0.24998218 0.3428588
0.9135592 -0.24402815 -0.5955868
-0.14953649 -0.044667475 -0.00072480296
0.033777203 1.2803565 0.43775266
0.3371693 -0.06568141 -0.3619346
0.5927206 0.9880837 0.649714
0.5654037 1.4663574 -0.055192076
-0.68998194 1.1423296 -0.044492655
-0.359945 1.0756106 -0.8831421
0.89592004 -0.40901667 -0.08462144
0.6754869 0.634917 0.47479314
-0.13743931 0.46690592 -0.53748477
-0.3716084 0.45828927 0.31937796
-0.34484482 0.47536066 -0.44619703
0.06937683 -0.24115686 -0.35233998
0.736997 0.6721035 -0.5281429
-0.46953356 0.8714511 -0.6011845
-0.05807638 1.2375453 0.61876404
-0.6673403 1.2920475 0.055135064
0.26804143 -0.08210789 -0.70525503
-0.89497286 -0.40715408 -0.5312164
0.04712493 0.53879046 -0.64444065
-0.28434324 0.9920946 0.6076474
-0.025901739 0.64958274 -0.49082154
0.8910179 -0.40912908 0.73351264
0.22376099 -0.044980966 0.12804422
-0.20331103 0.6392033 -0.42336616
0.08089925 1.529053 -0.22001116
-0.44337445 -0.24309252 -0.28918302
0.9004773 -0.0902656 0.53521717
0.8861326 -0.4017995 0.9065929
-0.03878302 1.2036287 -0.14345603
-0.5063839 0.7867429 0.43857932
0.6031517 1.5646036 -0.47406077
0.30356008 -0.40426034 -0.91639614
-0.27530766 1.4746816 -0.26347506
-0.55003387 0.38426203 0.30552477
-0.34364045 0.7979044 -0.44247878
-0.14426494 -0.40975505 -0.9101014
-0.16013686 1.5506549 0.13611583
0.44363153 0.789107 0.26059508
0.27824715 1.6173341 0.56345713
-0.3684783 -0.41465595 0.5518013
0.5645015 0.49417263 -0.28809682
0.20424516 -0.41309556 -0.75568616
-0.122633785 1.7132332 -0.009628772
-0.53230023 -0.079334036 -0.14835756
0.5418477 -0.103667766 0.91804945
0.7409352 0.47817808 0.14778584
0.53943133 -0.06583214 -0.12200707
-0.21170875 -0.25677314 0.7648743
0.009711798 0.9187157 -0.97557026
0.118147284 -0.41918445 0.7513906
0.2604562 -0.22341183 0.01185452
-0.3422981 -0.41486073 0.15243302
0.24523708 0.3027612 -0.15845647
0.0494968 0.7172104 -0.9203949
0.24800101 -0.2520278 -0.60344577
-0.12070289 1.5331564 0.66084254
-0.054726005 1.77738 0.40641224
-0.18074718 1.030443 -0.9525825
-0.45375574 -0.2575759 0.41308403
-0.137391 1.9009835 -0.09750472
-0.12956512 -0.25534075 0.47402865
-0.3188511 0.7376654 -0.6694174
0.08277051 0.6745248 0.16842431
0.22534907 -0.26084507 0.7788413
0.93037605 -0.24829975 -0.7833739
0.43770367 -0.25455767 -0.6325103
-0.28538096 -0.23738202 0.026420048
0.32510015 1.2171165 -0.52823967
0.72101676 -0.40026146 -0.91944087
-0.69102657 1.4645188 -0.3934668
0.09864586 1.7209648 -0.0014845519
-0.35827297 0.40596974 0.12046674
0.21718045 1.5573394 -0.7528719
-0.9223927 -0.26060474 0.43252313
0.44846174 -0.24721718 0.5284946
0.39843363 -0.2511798 0.35529718
-0.9133271 -0.10619897 0.17261794
-0.4647516 0.5967524 -0.71961415
0.4132889 0.23663756 0.22702992
0.3966179 0.39176688 -0.25653827
-0.3028441 -0.05459997 0.11802083
0.010542002 -0.06512686 -0.48047328
0.7038301 0.78543884 -0.01757957
-0.40873218 -0.24104032 0.7559688
-0.2427139 0.30754077 -0.16740334
-0.06629461 -0.23611277 0.28698593
-0.2073808 1.4893795 -0.04800971
-0.40658876 0.90733624 -0.16460747
0.78586423 0.5468508 -0.255418
0.902516 -0.08785026 -0.49066842
-0.31268936 1.2498219 0.3771957
0.10733848 0.7983838 0.65971935
-0.3190863 1.5010219 0.6267381
0.51859003 0.50181246 0.5015658
0.25515854 0.5392152 -0.2089042
-0.61245966 0.75859666 -0.67091393
-0.17163171 0.19659087 -0.456398
0.37618876 -0.4148869 0.017990936
0.08593486 -0.4058811 -0.910548
-0.12327832 1.2484832 -0.32499427
-0.7168363 0.8165901 -0.1049645
0.38139847 0.5429523 0.62900835
0.011172567 -0.4111963 0.9071621
-0.04765824 1.2486461 0.8142564
0.49615523 1.7673202 0.09295193
0.39736304 -0.070923954 0.21747367
-0.41562796 1.2672482 0.20394608
0.08154399 0.3498835 -0.6928283
-0.4626105 0.70206875 0.08852379
-0.22106594 0.92276406 0.13024908
-0.07279132 0.24050899 -0.06331791
0.26892897 -0.08824923 0.73468006
-0.89338493 0.97394407 -0.022826951
0.4705775 1.3242549 0.66801834
-0.73056364 0.9843833 0.045979347
0.0048746215 1.8950092 0.087832004
-0.7321239 -0.08645199 -0.90158653
0.39660493 -0.41571087 -0.17721385
-0.08497886 0.37912542 -0.20067436
0.12568963 -0.25219148 0.6109525
0.89533937 -0.08856392 -0.08764495
0.88632643 -0.08311793 -0.70691735
0.5538333 -0.41467884 -0.28727543
-0.15759823 1.3555369 0.5299529
-0.46229762 0.94757605 -0.37845027
0.33802438 0.95506495 0.18187958
-0.30050582 -0.24661924 0.5795121
-0.38075048 0.41380668 -0.27240694
-0.39253533 0.28860876 -0.45603982
0.42016628 0.5771411 -0.76039994
-0.6156764 0.571479 -0.5630997
0.57161695 0.693748 0.36375803
-0.6207205 1.624547 -0.24310306
-0.07371948 1.3982744 0.32416356
-0.60630316 -0.09193397 0.14398527
-0.7311361 -0.08391294 0.8027823
0.49209794 -0.24453819 0.2285577
-0.02422413 0.0823265 -0.12706417
0.20298544 0.35321903 -0.3667916
0.23853138 0.63897526 -0.87195885
0.012108206 1.6053412 -0.7443572
0.7397201 1.3343657 0.39807874
0.34683144 0.48545504 -0.40783894
-0.35718775 -0.061701864 -0.2543562
-0.82002115 1.3451151 0.10481037
0.16293496 0.90790665 0.4853043
-0.085688874 0.2871032 -0.602806
-0.4118021 0.20699468 -0.13091546
-0.8097913 0.89798117 -0.4052333
-0.5349976 0.59353673 -0.39358822
-0.407581 1.6136392 0.46108115
-0.17887822 0.48465484 -0.04677279
-0.10781254 1.8585496 0.2547241
-0.9225329 -0.25765938 -0.21402426
0.55753124 -0.40578896 -0.07358132
-0.8433391 1.0969453 -0.34435242
0.8554473 -0.25068176 -0.93010163
0.5023589 1.1298983 -0.5980656
-0.20742504 0.36240974 -0.3734861
-0.37478805 0.6211622 -0.121069565
-0.32500765 0.7717829 0.190808
-0.09337649 1.0450175 -0.23126377
0.068297885 0.23998514 -0.19928828
0.5816083 1.1806692 0.36536074
0.75301766 -0.25199097 0.5434586
0.8914061 -0.40929365 -0.68771625
-0.025572788 0.96974885 -0.4421329
-0.3759839 0.40802053 -0.077486664
0.40151453 1.4787544 -0.73809594
0.40258667 -0.24288094 -0.10488035
0.43839237 1.7081505 -0.45706093
-0.22434624 0.26148912 0.40750265
-0.23436923 -0.08328624 0.5169089
0.21003637 -0.40214205 -0.09236853
0.114088394 0.10018177 0.016968511
0.658301 0.75098944 0.18081138
0.38002557 1.8151505 -0.26498717
-0.87751067 0.92511415 -0.22091734
-0.028207198 -0.09808461 0.91458714
0.911808 0.84582204 -0.0077501927
-0.0012332473 0.6061454 0.025993153
-0.25916615 -0.08546184 0.71785796
0.38439763 0.3894058 -0.06693211
-0.30062044 1.6533883 -0.12084619
0.37031934 0.5937941 -0.04574222
0.19407897 -0.247751 -0.92745125
0.11204651 0.98629355 -0.28900403
-0.20256817 1.8132372 -0.42130843
0.5591836 -0.08542749 -0.5334662
-0.32090783 1.4152033 0.08532859
0.46614587 1.5728784 -0.5966518
0.6147511 1.0738957 -0.44257963
0.9009873 -0.087648675 0.11728214
0.62558085 0.88724494 0.32514113
0.58997387 0.56775016 0.2071448
-0.35553908 0.5050372 0.60506684
0.25091207 1.5783521 -0.46563488
-0.42513537 -0.40826896 0.8969862
0.12936944 1.4325156 0.3410936
-0.7319498 -0.2504362 0.9208635
0.405725 0.7665434 -0.8523202
0.5896646 -0.24916266 -0.4057623
0.7183534 1.0009937 -0.27813643
0.5910926 1.427598 -0.6262923
0.36427408 1.4756641 0.064236
-0.819112 0.74038386 -0.28877854
-0.79032505 0.5891705 -0.15682629
0.39240128 -0.412318 -0.76179886
-0.63745666 0.6871728 -0.2561825
0.7172599 1.4730728 0.2718648
0.7223306 -0.41731635 -0.18383804
0.74651873 1.5234451 0.07130932
0.73778164 -0.08507683 0.65004635
-0.62089 -0.25672847 -0.61608124
0.02299508 0.9944811 -0.07670811
-0.25263208 -0.40880936 -0.2611314
-0.39952415 0.260567 0.26909465
0.19363117 -0.07153871 -0.49388716
0.14470765 0.66079473 0.7805096
0.12981911 1.7111053 -0.6081842
0.4657176 0.964201 -0.3260132
-0.64660895 -0.08266179 -0.74053586
0.17128399 1.6968637 0.19460118
-0.56651855 0.31487882 -0.077537365
0.31167 -0.25093144 0.62455434
0.03454783 1.8196956 -0.45891052
-0.3220813 0.779179 0.38547444
-0.32272983 1.6400733 0.075433224
0.8982595 -0.4092949 0.32679
0.22320575 1.1479943 0.182713
0.023310542 -0.24533519 0.77068794
-0.7579206 1.2555666 -0.4524088
-0.50890577 1.0805731 -0.24363405
-0.51317674 1.2609295 0.41813755
0.25605795 0.7667745 0.19465695
0.6559751 0.6784487 -0.3551955
0.5668714 -0.19935893 -0.04200463
-0.69694877 0.47866985 0.17919672
-0.5856259 0.8099993 -0.44177926
-0.30312067 0.7918049 -0.018202018
-0.24919352 1.6971395 -0.57070875
-0.8177676 1.309023 -0.28084195
0.18527365 0.88414145 -0.12515412
0.70236796 1.5494711 -0.32595217
-0.93149173 -0.25689784 0.6372819
0.48208448 -0.4146171 0.9058801
0.7312174 1.1545976 -0.11992493
0.18031701 1.5148239 0.13793759
-0.32979712 -0.05577638 -0.07423515
0.020984013 1.4202257 0.74096185
-0.74920195 1.4852705 -0.19153306
0.06414553 1.1216916 0.31338495
-0.1858074 0.7984438 -0.55874735
0.06814335 -0.051599286 0.2613889
0.11305471 0.5681939 0.4812098
-0.12731859 -0.41468877 -0.61057997
0.27074906 1.559534 0.35152987
0.8978082 -0.40796202 -0.48759907
0.19809076 1.4599466 0.5060803
-0.43143544 1.0872035 -0.07481418
0.39105415 1.4011285 0.42448777
-0.19642755 0.4912635 0.39840025
0.10165399 0.47685674 0.1621727
0.4704867 1.3127224 -0.2625298
0.73075557 -0.42037982 0.02198204
0.0052249786 0.6376945 0.62927157
0.07853598 1.6179605 0.35965282
-0.25470024 1.3987596 0.2655765
-0.0019559874 1.1128737 -0.96075773
-0.28825867 0.6715057 -0.8480794
0.13830239 1.7271961 0.48286116
0.5585768 0.31272298 -0.3375708
0.89455533 -0.4093753 -0.28678885
-0.57444227 -0.41381812 -0.316483
-0.04156129 0.37748033 0.32055163
0.029605966 -0.09132402 -0.9155198
0.5846944 1.049269 -0.013561205
0.11014065 1.8469164 0.28226626
-0.72025764 0.5511152 -0.36196864
-0.1881625 -0.41158694 0.6148815
0.5781043 1.4120764 0.12730849
0.22969785 1.2526569 0.40064833
-0.4125244 0.21386504 0.059093125
0.56067944 0.73868227 -0.532997
0.023779623 1.0176847 0.13189699
0.7588744 -0.24271956 -0.73997635
-0.11302323 1.5763768 -0.18758494
-0.3207562 -0.41581553 0.7406194
-0.087324224 -0.4155516 0.7580434
-0.6190122 -0.25230622 0.72800267
-0.11701222 0.7924284 -0.7499212
-0.25402665 -0.25757042 -0.9242196
0.7266351 -0.41420394 -0.58114874
-0.5997125 -0.24888197 -0.42337906
0.7773866 0.62715375 0.2802658
-0.13777706 -0.08049197 -0.5924343
0.02923708 1.3016787 -0.7068578
0.69407094 0.49544522 -0.4244292
-0.34651452 1.2279607 -0.003084243
-0.15002763 0.85351235 -0.384922
-0.5543487 -0.09215483 -0.9163921
0.2604316 1.0597968 0.3912732
-0.85053957 0.828251 0.12515266
-0.27359468 -0.23450166 -0.3747422
0.52629256 -0.41163033 -0.89899707
0.4162079 -0.23997542 -0.46649602
-0.7027571 -0.41863257 -0.79992723
-0.32026142 -0.25269604 0.92399466
0.373451 -0.41381484 0.2211416
0.014188153 0.7663014 -0.08965731
0.053861577 0.4184969 -0.49624124
0.82997835 1.4214292 -0.06520522
0.7001569 -0.41788375 0.8789104
0.49406534 0.24000293 0.052029185
-0.56310034 -0.084012344 -0.33435285
0.64876544 0.64073884 -0.16177547
0.5614303 1.6896265 -0.30629364
-0.063063204 1.1307259 -0.773945
0.642898 0.47489434 0.35075986
0.10671326 1.4696608 -0.6208066
0.8944043 -0.4067551 -0.8823589
0.58079684 0.5461165 -0.6119217
-0.7760094 0.68068695 0.24807186
0.4364536 0.9953015 0.3522154
0.5460038 -0.2555158 -0.7777806
-0.3604224 -0.089391716 -0.91372406
-0.10363934 0.42274135 -0.7483461
-0.044436567 0.4977575 0.49737874
-0.21594638 -0.23062992 0.18467079
-0.23120564 1.3183649 -0.18352905
-0.044791512 0.68958086 0.7992307
0.15792271 0.9434116 0.25482205
0.2984438 0.5009036 0.4478364
-0.9243399 -0.2497697 0.007602975
-0.018640548 0.30138654 -0.36838728
0.10746949 1.5668466 0.6489761
-0.81221503 1.3257734 -0.09015967
0.40439814 0.96445554 -0.695343
-0.092770346 0.8698212 0.022613898
-0.6226095 0.87893224 -0.2585035
0.5917028 1.5286021 0.41324776
-0.05175606 0.2961204 0.51006985
-0.5182296 -0.4190937 0.7128285
0.72191465 0.92583555 0.12525696
-0.2637707 1.6466761 -0.33945265
-0.6285646 0.6319284 -0.06393507
-0.1599091 1.2804933 -0.0136503205
0.5044138 0.77514374 -0.29109105
0.9025821 -0.088741526 0.32842857
0.24710512 -0.24748638 0.44552022
0.2694438 0.8861483 -0.34905228
-0.5465449 0.6316891 0.54820037
0.15636967 1.8681514 -0.2955055
-0.0046466356 0.4668209 0.6888266
0.06390469 0.21120155 -0.5144719
0.52427125 1.2540159 -0.053537518
0.32547176 0.8240317 0.5962124
0.6198288 -0.2503026 -0.6053359
