0.61260855 1.2363567 0.4930483
0.52766824 0.3504983 0.038794927
0.46362513 1.3772887 0.2445774
0.7446308 -0.25205225 0.75499606
0.43656942 0.860807 0.521399
-0.5551119 0.78803706 0.39932477
0.093144186 0.06865338 -0.40314323
0.6878046 1.0596695 0.52887714
0.25024077 1.5772309 -0.60137206
0.7699617 -0.24815404 0.93331194
0.46374333 -0.08226992 -0.7305132
0.0014965087 -0.4099816 -0.4763885
0.03285713 1.2350848 0.031495325
-0.7226826 0.8480296 -0.1479103
0.3104565 1.235986 0.23611932
0.09469073 -0.22043467 -0.53687394
0.3819263 0.29573438 0.20526636
-0.33561736 -0.04082796 -0.58683896
0.14902225 0.4731456 -0.42262584
-0.90460336 -0.09451824 0.73031884
0.4695955 1.5778526 0.2864043
-0.6056911 1.2743131 -0.07043812
-0.46528757 -0.25355244 -0.92500216
0.4275121 -0.07971613 0.64308155
0.26764905 0.21162584 -0.6713678
0.86798066 1.1885372 -0.21356773
0.8932884 1.0252569 -0.3034941
-0.269082 0.8569697 -0.037489723
-0.22853777 1.4034431 -0.46223816
0.25708807 0.06927034 -0.2575494
-0.42796823 1.120611 -0.22840765
-0.7369901 0.5665007 -0.4702583
0.013429649 -0.10906703 -0.136284
-0.73934746 1.3170285 0.079247735
-0.7295852 -0.082770884 -0.42931524
0.3313228 0.93229485 -0.5411812
-0.5896808 -0.4097272 -0.11244901
-0.33218277 1.1521392 0.55136454
0.09596205 1.1973486 -0.5088018
-0.25749382 0.63121045 -0.2584117
-0.06273125 1.0537055 -0.57385516
-0.2102822 1.0066805 0.592612
-0.7539831 -0.0782285 0.2201646
0.25000954 0.3785358 -0.81961524
-0.06067074 -0.0777456 -0.7717699
0.7647556 -0.24990022 -0.49226776
-0.5221455 1.0557572 0.63991994
0.59101546 1.193908 -0.706178
-0.099876806 -0.22653097 -0.46888041
-0.15591389 0.8702546 -0.8107958
-0.10323928 -0.07559419 0.1780913
-0.77397966 0.92967117 -0.50121844
0.4087568 0.8451241 -0.10616064
0.14277491 1.220269 -0.12776598
0.22252378 0.75597906 -0.6082506
0.9243867 -0.24837777 0.013804279
0.06651811 0.44304317 -0.8874505
0.85326576 0.6436392 -0.41513816
0.6901371 1.5006046 -0.17030138
-0.19342127 0.072342485 -0.10357031
-0.41807854 1.2412364 0.39203513
-0.119281754 -0.23965514 -0.27646762
0.8800659 1.0823894 0.18561602
-0.7185927 -0.42071313 0.77266175
0.37434518 1.0610327 0.74828637
-0.49621883 -0.41732195 -0.73082167
-0.7249371 0.7484913 -0.54994154
0.20492744 0.21612796 0.15870294
0.3475028 0.69338554 0.7651268
-0.56838024 -0.08696646 0.5320345
0.74667895 -0.08631043 -0.5853629
0.8440474 0.98702395 -0.46991074
-0.13870461 1.3505065 -0.62642026
0.35088485 0.09608649 -0.045977302
-0.019815687 -0.41152644 -0.7639422
0.7273892 -0.4183616 0.6459346
-0.12364729 0.5105938 -0.8932009
-0.46087086 0.549865 -0.54463995
0.035902802 0.7892445 0.3694209
0.58113754 -0.042050257 0.11290787
0.20159674 -0.41254753 0.28572652
-0.3525005 -0.40997505 -0.594702
-0.34414852 1.1165631 0.72596145
0.102787375 1.1850519 -0.9324242
-0.89088917 -0.098986655 -0.9141896
-0.7401036 0.8641321 0.4020786
0.08178498 -0.42711657 -0.25841105
0.41819194 0.98383355 0.038513817
0.5516027 0.2319072 0.31296957
-0.06385623 -0.04999483 0.56126153
0.0939083 1.5557222 -0.32999963
0.13409768 1.0156429 -0.18910092
-0.7620647 -0.24432981 0.31917098
-0.5154002 1.5750029 0.1306194
0.4303684 1.0243049 -0.17914107
-0.448483 0.30367416 0.45871985
-0.8666681 -0.08055927 0.020139948
-0.49304748 0.62308466 -0.0874135
0.75585985 0.93793344 -0.61765826
-0.21385932 1.1866044 -0.6969584
-0.20200923 1.4696095 0.55596375
-0.36325496 1.6796857 0.027904533
0.56559324 0.6576954 -0.78630066
0.33459523 1.4929142 0.19477446
0.69383204 0.78714526 -0.69952667
-0.40135145 -0.06137759 0.4158835
-0.61686873 -0.09066771 0.9149077
0.414949 -0.057516456 0.42952716
0.5922419 -0.2669568 0.8998519
0.9233723 -0.24742204 -0.38924927
-0.89513314 -0.40725732 0.10336709
0.76975846 0.8797664 -0.14031371
0.920619 -0.24795586 -0.18674669
0.5619246 0.34035614 -0.5790671
-0.53345513 -0.4213596 0.48124653
-0.1007957 0.101518735 -0.31984246
-0.71100366 -0.41613278 0.3976242
-0.06890331 0.3882752 0.12831742
-0.32897055 0.86608076 -0.5168931
-0.8782228 0.97436756 -0.10351792
0.003400891 -0.4102149 0.5722753
0.18370035 0.2194459 -0.056302495
-0.6930034 -0.06797218 -0.036458936
-0.7135242 -0.41767517 -0.62606895
0.0489516 0.6276185 -0.7644757
-0.89637035 -0.40687424 0.7173052
-0.9049339 -0.09255272 -0.5315635
-0.60701287 -0.23305747 -0.21294707
-0.3448366 0.77779347 -0.9035907
0.4296816 -0.254651 -0.92432356
-0.5664545 1.3583434 0.4003381
-0.0064271493 -0.4113136 0.36830184
-0.17537665 0.5853479 0.7604066
0.33687812 0.9122213 -0.922943
0.39110172 1.2629149 -0.6165442
-0.51575726 1.2965053 -0.264176
-0.52211714 -0.24485092 0.9120474
-0.46220618 -0.22154942 0.093432434
0.6414333 0.8072734 -0.46826255
0.016568977 1.3620691 0.20800176
0.014741798 0.22063757 0.09222064
0.17266345 0.1017541 0.34178966
-0.25492746 -0.4183601 -0.75226396
0.3926726 -0.26651895 0.92254555
-0.22534168 1.3032192 0.4669289
0.3831831 -0.04279936 -0.55456364
-0.16272005 0.88320994 -0.6104753
0.8829479 0.5694197 -0.0042844866
-0.46960074 1.3242823 0.22889972
0.3814777 -0.07426129 0.87276006
-0.019863283 0.69839036 0.82075316
0.2752589 1.2486777 -0.40484577
0.30727792 1.6905482 0.20172577
-0.3536467 -0.25560218 -0.76980567
0.7399943 -0.077168435 0.22109264
0.30213135 0.9233806 -0.24966557
0.452179 0.8634559 0.739184
-0.47078162 1.5130982 0.31927145
0.5509146 -0.4173706 0.12729684
-0.6781383 1.0283141 0.4613548
-0.10885249 1.0599844 0.36517233
-0.039540738 -0.23141265 -0.6404015
-0.5426909 -0.08227428 0.7367445
0.78155386 1.3412958 -0.31683052
0.22138566 0.5726994 -0.080087036
0.93330425 0.9779059 -0.13035843
0.5888803 0.3964187 -0.16628096
0.5825852 1.3272591 -0.38264263
-0.106978506 1.5381298 -0.33149022
0.4281829 0.2090436 -0.56074655
-0.09805434 -0.41899374 -0.14847144
-0.7414604 -0.41445374 -0.21737684
-0.27427208 -0.4138351 -0.075016044
-0.22808501 0.44635546 0.2359646
0.90341616 -0.08878563 -0.89802563
-0.368338 -0.4117338 -0.9015119
0.124414444 -0.24301599 0.31759405
-0.8979045 -0.092506655 -0.3352992
0.0033691651 0.75480604 -0.2717415
-0.110964395 0.40180308 0.6895083
-0.62962186 0.63917 0.08562026
0.012204749 1.7752202 -0.057701506
-0.10210881 1.2278881 -0.4876638
0.926756 -0.24757719 0.22790265
0.15483376 -0.408786 0.4555623
-0.030170765 -0.25691724 -0.91629815
-0.91523063 -0.26053885 -0.8734687
-0.17590922 -0.40931338 0.25113282
-0.63697433 0.5484855 0.4488989
0.035810445 0.8318118 -0.8309677
-0.25737292 1.1429489 -0.89068335
0.73071855 0.7391143 -0.28766865
-0.29472548 0.09983768 -0.34522194
0.6441266 1.2647731 -0.20755547
0.44216728 -0.23964521 0.75517154
0.012925237 1.3001218 0.5184998
-0.4278573 1.4326434 -0.61393285
-0.11521675 -0.25382623 -0.08197963
0.7902336 0.860923 0.43629292
-0.19002847 0.08103816 0.13863252
-0.18421999 -0.4150051 0.43766168
0.25791705 -0.050367653 0.532705
-0.26970458 0.9954649 -0.18343401
-0.29951715 1.2013315 -0.37801474
-0.49821234 1.2084717 -0.4333405
-0.3532943 0.91955864 0.73990476
0.40951276 0.53497934 0.6763139
-0.55459386 -0.07743719 -0.5551317
0.08534038 -0.050207652 -0.684476
0.23103373 0.8917666 -0.0032947212
-0.78680646 1.0633638 0.313095
0.39397186 0.71251535 -0.7095571
-0.639534 0.71621114 0.5322802
-0.44744772 0.9346935 -0.66279936
-0.071194276 0.9156504 0.47437772
0.049526885 -0.2748361 -0.1937773
-0.7659936 -0.24266821 -0.10716611
-0.033653237 1.4626656 -0.48310447
-0.29294777 0.83782226 -0.29876548
0.3079712 0.9870567 0.58241093
-0.26124713 -0.22876304 0.3709845
-0.44594955 0.36547834 0.18235068
-0.5138495 0.9668361 0.1144342
0.31460792 0.08548601 0.15223472
-0.11214088 1.2294737 0.14483935
-0.89846027 -0.40587407 -0.108396836
-0.5773126 -0.40549755 -0.91654587
0.59309566 0.54653394 0.5527223
0.08597542 1.0608106 -0.7985609
0.22843584 1.3099421 -0.86178625
0.4176562 1.2380826 -0.80470365
0.06970206 1.1959977 -0.29972237
0.3860647 -0.070869334 -0.18820786
-0.5273229 -0.4122378 0.28173375
0.10249302 -0.037324663 0.46184543
0.121678635 0.06697468 0.13808316
0.9111905 0.8234732 -0.30343747
0.73771906 0.31782782 -0.28501776
0.7371453 -0.08582626 -0.903406
-0.42028844 -0.23439774 -0.48257998
0.19406214 1.7598267 -0.09349291
0.10234378 -0.24796945 -0.035731763
-0.21828333 -0.40531677 -0.46182954
0.46489173 0.5167117 -0.29109496
0.41447264 1.0514016 0.25047708
0.33702996 -0.41444665 -0.58189887
-0.26441145 0.22958486 -0.6593698
-0.5181061 1.5992785 -0.07395423
0.42088383 -0.4105465 0.61217535
0.50665057 1.638425 -0.13099843
-0.07670307 -0.057463005 0.37825933
0.40644714 0.7413509 -0.51315635
-0.33338186 1.6994417 -0.17426005
0.23273355 -0.39903873 0.91208744
-0.2053316 -0.05195437 -0.42814207
-0.021475192 0.08590151 0.26112258
0.17130975 0.5798688 -0.5767412
0.4101776 1.0618002 -0.39925933
-0.6341698 1.1733682 -0.23881802
-0.28224778 -0.23657969 -0.18199116
0.8307764 1.1831201 -0.4207778
0.543771 -0.4095629 -0.493455
-0.3924824 0.75401247 0.27996802
0.13854179 0.89075434 -0.51320493
-0.39244258 -0.22694482 0.24495575
-0.45782524 -0.028777145 0.22150645
-0.18911085 0.9634533 -0.4062721
0.8936447 -0.0946839 0.9082999
-0.03727132 0.409636 -0.40228298
0.9285939 -0.24986273 0.85867083
0.0840938 1.3524288 -0.3943833
0.20841931 -0.41404468 0.09578851
-0.06500502 0.8738858 0.6772346
0.35427022 1.7161453 -0.033005998
0.27457196 0.10243487 -0.48628134
0.67975354 1.1444986 -0.36828238
-0.45357978 0.62127924 -0.2832165
0.45129448 1.3443907 0.57290983
0.7283899 -0.41573203 0.4264254
-0.5668302 1.039691 -0.75641435
0.5504782 -0.042854667 -0.3250433
-0.52970266 0.82706255 -0.80211926
0.7231914 -0.41596597 -0.38834172
-0.8989027 -0.093808874 -0.14618015
0.82706285 0.4357146 -0.14149171
-0.86836386 -0.09393243 0.91133034
-0.85473406 0.9885442 0.099836215
-0.15693736 0.7628257 -0.16398703
0.33364737 0.46254027 0.076279126
-0.17221719 0.22786258 0.008719837
0.3220979 1.5390487 -0.30134773
0.28925395 -0.23556317 0.21110685
0.14399031 0.7216625 0.04160651
-0.12343535 0.7210504 0.47559455
-0.11204663 -0.25917742 0.9173612
0.5306959 0.8468517 -0.8319173
0.72521985 1.1315349 -0.58777094
-0.11069203 1.4241568 0.3706115
0.22447255 1.2038455 0.05402096
-0.15551351 1.1819272 0.75942826
0.28793097 1.0718356 -0.0633627
-0.13796082 0.5243269 -0.70080924
-0.5071045 0.14516962 -0.30350107
-0.7389558 -0.41306597 -0.0013940909
0.15628135 1.1404823 0.60392714
0.7261574 -0.07392837 -0.19713458
0.730791 -0.06885244 0.008765673
0.48772794 1.4255342 -0.24579981
0.7028927 -0.41551644 -0.76175916
0.35517853 0.6935069 -0.015428012
0.2521698 1.3667853 -0.2548461
0.60925543 0.18424758 -0.23604617
-0.45926607 -0.08026855 -0.7437887
0.6618793 0.24075812 0.13191734
0.3137297 0.59735525 -0.4271321
0.6997316 1.3252659 -0.5208614
-0.47941202 1.3971899 0.03419517
-0.75923455 -0.24807158 -0.32198262
-0.42623603 -0.4075178 -0.20233545
0.8334489 0.6898192 0.3192156
0.36171716 1.2742226 -0.11328183
0.18042433 0.7809329 -0.97168005
-0.7709131 -0.2533088 -0.52715456
-0.34082222 1.2645959 -0.572555
0.2533881 -0.40467376 -0.286673
-0.5914903 0.46646085 0.14305806
-0.6650444 0.87234473 -0.354046
0.46645373 1.058212 0.45590657
0.10420513 -0.2321645 -0.7610147
0.2544508 -0.061762534 0.32432956
-0.102304436 0.9005169 0.24385327
-0.5634984 0.812171 -0.045924067
-0.891138 -0.4116777 0.31864792
-0.8585057 -0.40444988 0.9050044
-0.71419954 1.2636322 0.28743014
0.34053504 -0.4166159 0.772722
0.71848154 0.6937088 0.49772853
-0.5744026 -0.24977401 -0.79084134
0.23936105 -0.23472792 -0.20569912
-0.8935493 -0.40544057 -0.73469055
-0.42791772 1.1569054 -0.7967435
-0.17482838 0.7456417 0.30100417
0.6256878 1.5643167 -0.0031969536
0.56942344 1.0423491 -0.27202296
-0.6047384 -0.23361304 -0.009879071
0.7550471 1.021456 0.027421527
-0.89547986 -0.4087618 -0.3265512
0.8296862 0.7956501 -0.51107365
0.37049985 0.12869701 0.34415823
-0.65418243 1.4686222 0.0038039023
-0.72708464 -0.41337085 0.20600347
-0.346875 0.70258725 0.732295
-0.74658704 -0.08470996 -0.6111034
-0.21494295 -0.4110734 0.8993454
-0.64368 1.1954645 0.47341102
0.8993692 1.1389611 -0.024221092
-0.75112975 -0.23835918 0.105513126
0.047981106 0.45421118 0.28514838
-0.46543622 1.4301841 -0.16811487
-0.5041166 0.3821504 -0.21061838
0.23519248 0.5592122 -0.74433595
0.21038802 0.7437943 -0.79487926
0.28487444 1.1121341 -0.916286
-0.5430267 -0.4127647 -0.5294212
-0.39324048 0.94383836 0.53706574
-0.25468406 -0.041438952 0.29939598
-0.9028635 -0.09522006 0.34659436
0.0939057 -0.07675708 0.6671009
-0.44959748 -0.22186935 -0.10345371
-0.6760862 1.2234744 -0.51086926
0.5009137 0.56715876 0.05991576
0.41448677 -0.055333316 0.013701118
0.21964738 0.19986713 0.51361084
0.7829109 -0.2403085 0.1201743
0.5361761 0.6487771 -0.13594314
0.19067556 -0.07930213 -0.88920283
-0.40146434 1.252486 -0.074751034
0.5962566 -0.23913655 0.4222653
0.35117453 0.7071332 0.3449296
0.47724587 1.4828101 0.05555427
0.11448778 -0.24873076 0.14534387
0.6980587 1.2087486 -0.021909326
0.57477057 1.0838865 0.10582433
0.023554185 0.8947934 -0.6715665
0.004147594 0.70019865 0.2047494
-0.39965463 -0.41056162 -0.39902025
-0.7237138 -0.085963994 0.62567294
0.5438129 -0.4110645 0.32834303
-0.8986868 -0.092404924 0.5384983
-0.62423927 1.4228752 0.20362788
0.019560061 -0.41548532 0.18087006
-0.65817726 0.86444354 -0.67635566
0.75828147 -0.24851707 -0.29025263
0.45528048 0.54544234 0.4006305
0.039220348 0.87719846 0.84488076
-0.9194842 -0.26784655 0.21802989
-0.22153339 -0.091000274 0.8999537
0.13644788 1.0474076 -0.60913146
-0.84903944 -0.4063484 -0.91527706
0.3610112 0.68758804 -0.23174985
0.2914707 0.48874167 0.27109015
-0.5712153 -0.40719926 0.10094279
0.5131516 0.5305692 -0.48948163
0.19646382 1.5763648 -0.15999398
-0.3869449 1.0112005 -0.38426608
-0.92519796 -0.24745211 -0.6472123
0.89952934 -0.08701274 -0.2899642
0.66982174 0.5109645 -0.039078906
-0.6907723 1.018076 -0.20133641
-0.2625206 0.89199996 0.38345855
0.2820058 0.54366696 0.50143623
-0.48585293 1.2547026 0.5914568
-0.027420904 -0.086562626 -0.334961
0.5518595 0.765491 0.020638622
-0.52189326 1.2104862 0.0994666
0.16426563 0.6215675 0.3209517
-0.7257291 -0.41607267 -0.428666
0.39055797 -0.41100484 -0.39655435
-0.082312375 -0.080934234 0.7517667
0.19218642 1.0852594 0.7972672
-0.5010412 -0.023008898 0.014968639
0.5418415 -0.4195374 -0.6732091
-0.40560699 -0.08242232 0.6188
-0.014283691 1.4159048 0.008047877
-0.6756475 0.29065895 -0.017698545
-0.43707055 -0.40616137 -0.010523578
0.24121107 0.396741 -0.61477405
-0.645074 0.2765227 -0.22627862
-0.13173668 1.6070526 -0.5495397
0.4952628 0.43971652 0.23644176
0.5744975 0.83253753 -0.20894176
-0.061663054 -0.25226644 0.089658424
0.58304656 -0.082268864 0.5349287
0.1602365 0.7071446 0.81216633
-0.69188154 -0.41207194 0.59651625
-0.18468754 0.7921345 0.8015027
0.5192975 1.2001398 -0.49294418
-0.88995177 -0.08807139 -0.7383093
0.92633086 0.9254135 0.057761546
-0.58108115 1.1335874 0.2846949
0.18074414 1.2346478 -0.7102806
-0.08474086 -0.4095115 -0.33369946
-0.28750604 1.0117934 -0.7187787
-0.24964076 1.4817643 -0.68034554
0.61502194 0.9062438 0.42520088
-0.4161439 -0.032415975 -0.43404874
0.25456935 -0.16668266 0.9275256
-0.7676036 -0.24189806 -0.7453196
0.71021837 1.1603746 0.18772812
-0.45232505 1.0928652 -0.57687086
-0.32645082 0.9118717 0.16954052
-0.31250894 1.4045916 0.30944717
-0.29200667 0.39204183 -0.787217
0.09332457 0.6944895 -0.43692482
0.12595636 0.94410783 0.68696356
-0.58674026 1.0515546 -0.39028028
-0.014639108 1.4849839 0.57274103
-0.19959006 1.5512607 0.23310801
0.04559733 0.3384871 -0.06511003
-0.10349737 1.7492979 -0.24019423
-0.062825605 1.2624325 -0.13975754
0.04588395 0.4778893 -0.20361184
0.04895107 -0.09365433 0.050586708
-0.49274522 0.8153362 0.6607139
0.26397127 0.8153213 0.6379552
0.7265802 -0.41542858 0.22478986
0.43478602 -0.2385618 0.07683898
-0.85383207 0.6001278 -0.05512654
-0.48043552 0.35442793 -0.002770391
0.23380718 0.39101636 -0.08874313
0.08896703 1.0476266 0.010577946
-0.4111235 -0.08299428 0.88422215
0.2780528 1.144178 -0.24819586
-0.35854772 1.6440647 0.23030117
-0.4799805 0.65856516 -0.80197245
-0.19797364 0.42584342 -0.26543835
-0.9247576 -0.25452727 0.86984706
-0.26980695 0.61865497 0.570392
0.36113733 -0.4143189 0.4269215
-0.2183994 1.0570128 0.18599817
0.03761384 -0.4175722 -0.021320395
0.41849342 0.23925486 0.48696142
-0.43087602 0.75608534 0.08210798
0.18961199 -0.41075596 -0.4557351
-0.42541972 0.48795176 0.30708766
0.1834823 1.3991867 -0.05260594
0.049590982 0.600243 0.46028107
0.89627516 0.62414694 -0.20958501
0.22170117 -0.08548974 -0.09367123
0.71282494 0.26827312 -0.074801035
0.20282102 0.92203796 -0.7563554
0.41708246 0.352171 -0.70871747
0.13214308 0.94560385 0.4939074
-0.15344861 -0.41500732 0.06257025
-0.17899594 -0.0664235 -0.21841931
-0.49251437 0.62031806 0.6308556
-0.54481626 1.2512741 -0.6704976
0.8993262 -0.40747768 0.1221439
0.82731307 1.2651391 0.11064998
0.56186974 -0.41288733 0.73866826
0.032904454 1.3647614 -0.8409928
-0.24666548 -0.22885771 -0.5930604
0.540992 1.2172575 0.28201497
0.8961302 -0.4085376 0.53253716
0.26685637 1.5637581 0.035754535
0.3602537 -0.087071806 -0.9092939
-0.08300153 1.2124293 -0.90064126
0.13566953 -0.073996045 0.87101823
-0.00068573985 1.5968758 -0.14782354
-0.21328802 1.726275 0.1320602
0.2830949 1.6082883 0.38431767
0.6211571 1.5117079 0.1934171
-0.55598885 0.90898216 -0.51077074
-0.2605948 -0.07763499 -0.75566566
0.71989506 -0.08260356 0.8761392
-0.7282089 -0.07706867 -0.22846907
-0.44740635 -0.23174834 -0.63858306
-0.4749143 1.6041383 -0.25965345
0.6311097 0.99855584 -0.73763245
-0.59533614 0.79228103 0.21116433
-0.32029277 0.80597436 -0.7202295
0.3844515 0.5453566 -0.6217916
-0.061809972 0.64400804 0.63795674
-0.2973274 0.46631205 -0.60851586
0.44747812 0.10914388 -0.2038737
0.9022873 0.7174399 0.12293863
-0.35338593 -0.41236478 0.34889358
-0.35220444 1.3219068 -0.7676283
0.26032078 0.89223194 0.81539094
0.73862886 -0.082075804 0.43027642
0.37209806 1.4968617 -0.112617716
-0.9241177 -0.25454164 -0.4291063
0.4351613 1.4833 0.4425453
-0.11227466 0.23977485 0.5663127
-0.88170725 -0.41233587 0.5214475
0.5257717 0.8706376 -0.6125972
0.54556835 0.7169064 0.4322629
-0.29990393 0.18397915 0.44856307
0.541851 0.70429146 0.66131115
-0.15265119 -0.25053963 -0.7680166
-0.71004343 -0.26227683 -0.9287969
0.41454738 1.1781542 0.08501309
-0.09033802 -0.22900724 0.6274047
-0.16381252 -0.091960534 -0.9208984
-0.8298993 0.8404664 0.22785896
0.13695702 0.34615806 -0.2814732
0.5772154 -0.08719837 0.7476677
0.0019084861 0.72552 -0.6107098
0.16339299 1.7443544 0.1000987
0.23360467 -0.41542953 0.60422045
-0.453337 0.32115775 -0.6264952
-0.26887316 0.4510467 0.04366651
-0.5920896 1.4678133 -0.34992895
0.037626673 -0.22204211 0.463822
-0.60821927 0.9054351 0.5558821
-0.7469705 0.6829748 0.3382116
0.7505255 -0.24717526 -0.086318046
-0.25682968 1.079529 -0.5339118
-0.028916785 1.063051 0.16414532
0.72629905 -0.080722734 -0.39339978
-0.6714211 1.0659182 -0.6026081
-0.7747158 0.4581008 0.062347114
0.5671823 -0.05443249 0.3203032
0.24040584 1.357094 -0.5704601
-0.11204345 1.3286432 -0.32097152
-0.2727083 1.5704175 0.4053533
0.40305352 1.3903766 -0.42987174
-0.47775134 0.9374995 0.3293801
0.35692585 0.26035404 0.025575161
-0.15903181 0.2387614 0.2213638
-0.37940106 0.76685363 0.4917776
-0.053507812 0.5858355 -0.31824195
0.31487072 -0.23269993 -0.7805158
-0.09353115 0.56275403 0.32391322
0.62410766 -0.25943047 0.07438342
0.647133 -0.23977345 0.2494642
-0.40606773 1.376549 -0.40084654
-0.16573818 1.3535104 -0.82206655
0.10382601 -0.40756345 -0.6216972
-0.16734183 0.7129276 -0.95196414
0.6460634 -0.24431923 -0.9196563
-0.59761703 0.38655496 0.35967344
-0.5933295 -0.2462802 0.23559386
0.5685436 -0.4130215 0.5200199
-0.12713215 0.9501694 0.011288062
0.3021846 1.0855732 -0.7318878
0.060283773 0.77939844 0.59509635
-0.667431 0.9606353 0.23047093
-0.12065365 0.48827302 0.5179584
0.8970687 -0.089840196 0.7343635
-0.5770662 1.3791928 -0.50916207
-0.58518654 -0.08513445 0.336752
0.45070928 0.115936846 -0.39428765
0.3423336 1.1637301 0.56057674
0.28475505 1.2651818 0.70572835
0.7199987 0.95549357 0.21909797
-0.13554877 0.5617275 -0.1120396
-0.10775477 0.57440364 0.10962629
-0.62157935 -0.25336543 0.44448483
0.17165142 0.6192707 -0.2777323
0.9188193 -0.2502393 0.64639586
0.14441592 0.9778811 -0.97308826
0.42111906 -0.23684442 -0.29310846
-0.5251683 0.1715397 0.106376365
-0.5020447 -0.26002866 0.589798
-0.2989329 0.4473245 0.45038712
0.92578626 -0.24898824 0.44117898
0.5922462 -0.25082543 0.6441453
-0.5448308 1.0906918 -0.06941438
0.55950665 0.89821446 0.15113994
0.88238204 0.8729699 0.24978092
0.21008672 0.29588568 0.32493427
-0.35763684 0.48568368 -0.3496052
-0.7605336 -0.25139007 0.54258794
0.2038853 1.6992456 -0.42051968
-0.02079236 1.5525229 0.19979444
0.54615635 -0.08675508 -0.9112142
0.28173083 0.35183686 0.6249063
0.094361946 -0.25558442 0.9245986
0.65417016 -0.08127245 -0.7366482
0.014381511 1.0398186 -0.39058626
-0.03838215 0.058955476 0.018808367
0.47440982 1.0527401 -0.8437794
0.1625585 -0.0859441 -0.2995809
-0.7898083 -0.2522602 0.7347201
-0.741251 -0.08237195 0.43115872
0.5452892 1.0005605 0.6543551
0.20924217 1.0372466 -0.39731348
0.111158386 1.1611189 0.21570984
-0.32428876 0.48974085 0.67164546
0.58839035 -0.2271645 -0.2127389
-0.17354338 0.98720676 0.801509
0.8066814 1.0368587 0.366458
-0.55107 0.6181597 0.26493052
-0.19066519 1.6084652 -0.16047838
-0.62097204 -0.40352297 0.9045604
0.25687194 -0.23062912 -0.40831122
-0.5579578 0.2754351 -0.44044048
-0.44703132 1.5521307 -0.43721122
0.78054714 -0.2482459 0.34148306
0.917215 -0.24277984 -0.59628475
-0.15580519 -0.091575235 -0.010748804
0.058565445 1.1186972 0.43718415
0.35408717 -0.056637596 -0.3715279
0.6475985 0.85187554 0.60194814
0.5531108 1.3701615 -0.07659351
-0.6849009 0.97760665 -0.010982834
-0.40186095 0.97084177 -0.87491775
0.8972817 -0.40792105 -0.08373625
0.73856884 0.51933634 0.40226382
-0.12611821 0.36135226 -0.58614147
-0.31939334 0.3036951 0.31179273
-0.34385407 0.35769242 -0.4801603
0.074725166 -0.2525918 -0.3650695
0.74207425 0.6205094 -0.6041248
-0.48438907 0.7457825 -0.5983553
-0.01915579 1.0663674 0.62380844
-0.6657188 1.1207039 0.09951238
0.26671007 -0.06207285 -0.7025045
-0.89392775 -0.40747365 -0.53554726
0.04931214 0.44861218 -0.6973746
-0.23143056 0.8128711 0.60557485
-0.022863429 0.55248845 -0.5321865
0.8912895 -0.40826637 0.7330948
0.2371373 -0.08049904 0.11004575
-0.19892815 0.52316284 -0.45241243
0.055950414 1.4073002 -0.20363398
-0.44622904 -0.22811455 -0.29771584
0.90095663 -0.08823857 0.535584
0.88625884 -0.400878 0.9066415
-0.042306893 1.0742772 -0.14331487
-0.45647562 0.60951793 0.44336426
0.56509167 1.4995279 -0.4907838
0.3061465 -0.40370873 -0.91598755
-0.29880533 1.334064 -0.22974658
-0.49882787 0.21836963 0.29658931
-0.3457205 0.6726942 -0.4524562
-0.14136773 -0.40954477 -0.90969026
-0.16534251 1.3941877 0.16277608
0.49222928 0.6764674 0.21148026
0.29079694 1.4593453 0.563602
-0.36736006 -0.41168797 0.54625857
0.598892 0.4162853 -0.36641565
0.20679496 -0.41053432 -0.7552556
-0.1462108 1.5666008 0.028592661
-0.54452026 -0.033963025 -0.1625787
0.5418677 -0.10231066 0.9172125
0.7977177 0.38669336 0.062389057
0.5733547 -0.010441957 -0.12386911
-0.21166453 -0.2541165 0.75899667
-0.028596684 0.84796816 -0.9841144
0.1160088 -0.41772664 0.74612236
0.27220002 -0.24231479 0.008367669
-0.35071227 -0.41053855 0.1490393
0.29692647 0.23922847 -0.23307659
0.026265062 0.64682233 -0.9550143
0.2506433 -0.24061485 -0.6058696
-0.095230214 1.3458948 0.6795081
-0.05683884 1.6027722 0.4338305
-0.22455908 0.94155824 -0.9548235
-0.44968435 -0.24650165 0.41059467
-0.17503554 1.7543939 -0.04440728
-0.12820831 -0.24232316 0.46559626
-0.3305611 0.6278177 -0.6835036
0.1285139 0.5584508 0.1360354
0.22299673 -0.25810933 0.77476
0.93304616 -0.2470929 -0.78398013
0.43601424 -0.24560189 -0.6350075
-0.28932655 -0.24642035 0.017330272
0.29507524 1.1335843 -0.5453109
0.72262454 -0.39968815 -0.9189819
-0.7176713 1.3111773 -0.33932552
0.07438825 1.5845704 0.024207879
-0.31740832 0.27335465 0.109522775
0.1546994 1.4773777 -0.7393782
-0.92046833 -0.25940728 0.42793736
0.44693354 -0.23894344 0.5224191
0.40215284 -0.23940635 0.35184908
-0.9133384 -0.10475174 0.16708356
-0.47000977 0.48381805 -0.73239666
0.50325775 0.12800008 0.15894996
0.44348618 0.30461878 -0.3362848
-0.3143086 -0.064832106 0.10808227
-0.004356655 -0.03896951 -0.5105417
0.7318347 0.69706786 -0.08461271
-0.40853196 -0.239606 0.75012064
-0.211819 0.2241894 -0.21002366
-0.064351 -0.23771062 0.28368646
-0.2187087 1.3408117 -0.019588515
-0.3970803 0.7673284 -0.16144478
0.80914915 0.48342168 -0.33841872
0.9051502 -0.08641639 -0.49282163
-0.29209524 1.0705862 0.3916006
0.17426753 0.6398088 0.6315851
-0.2941563 1.309696 0.65951556
0.59367865 0.37792903 0.4327501
0.29257807 0.4525274 -0.2697116
-0.6281053 0.6317171 -0.66758287
-0.16344163 0.10914635 -0.52560186
0.3859539 -0.41579038 0.013793639
0.0890817 -0.405424 -0.9099994
-0.1391195 1.1241837 -0.31534988
-0.7022188 0.65716034 -0.089013524
0.4596731 0.40577692 0.57021344
0.009110643 -0.4105726 0.90473723
0.0009700924 1.0624864 0.8195034
0.47379446 1.6518676 0.097203024
0.41157073 -0.051907316 0.21981677
-0.4038838 1.1010853 0.22654185
0.09479281 0.26564866 -0.76596737
-0.43563062 0.5486605 0.08446099
-0.20010969 0.77640367 0.12447114
-0.025394674 0.18472691 -0.1158651
0.2676819 -0.08466835 0.73076236
-0.87819004 0.7990983 0.012256812
0.50607145 1.1739665 0.63678074
-0.711712 0.8153385 0.07227102
-0.025501609 1.7528698 0.12880918
-0.7324269 -0.085361294 -0.9020971
0.40349466 -0.41493398 -0.18403044
-0.049667563 0.3007522 -0.2541803
0.12645385 -0.24387808 0.60428166
0.8994378 -0.08768639 -0.087713026
0.887216 -0.081209525 -0.7080929
0.5585438 -0.4106076 -0.2892771
-0.13252111 1.176842 0.5436673
-0.46722677 0.81126213 -0.37080213
0.36603022 0.8340566 0.14539185
-0.29898044 -0.23700747 0.56863093
-0.37080574 0.29041082 -0.3033278
-0.3809837 0.16502026 -0.4999233
0.41234946 0.5233896 -0.8255009
-0.6175263 0.43914962 -0.5697038
0.6290746 0.57997954 0.30066472
-0.6492772 1.4714822 -0.18637994
-0.058939274 1.2371447 0.33649606
-0.6125673 -0.07529037 0.13315725
-0.7310991 -0.08126853 0.80044687
0.4962195 -0.22671553 0.2235722
0.030450333 0.039990947 -0.19518533
0.23755498 0.26910073 -0.43810737
0.22079815 0.57596505 -0.9248526
-0.049914636 1.509238 -0.7173526
0.75402665 1.2199968 0.358726
0.37378186 0.40327287 -0.47714388
-0.36720288 -0.057101 -0.26555562
-0.82063264 1.1693709 0.15889099
0.21381852 0.75975585 0.4592878
-0.06726086 0.18472461 -0.668213
-0.37973422 0.10451702 -0.16435617
-0.8101309 0.74634516 -0.37812006
-0.52798826 0.45751566 -0.40045318
-0.39521128 1.418199 0.5017636
-0.1425549 0.38341558 -0.08067119
-0.11961055 1.6960173 0.29404467
-0.92223126 -0.2573288 -0.21990475
0.56268203 -0.39994264 -0.076684445
-0.85104704 0.9375188 -0.3042959
0.85572743 -0.24993692 -0.92977446
0.4708156 1.0623064 -0.62792885
-0.19171664 0.27027184 -0.420763
-0.35334694 0.4878484 -0.13425697
-0.2948634 0.616781 0.18437736
-0.092274494 0.9231352 -0.2423013
0.1146234 0.18342763 -0.2634269
0.6054972 1.0587344 0.32730192
0.7527255 -0.25052786 0.5422194
0.8933468 -0.40807778 -0.6870751
-0.034827188 0.862583 -0.4601898
-0.3457643 0.2866848 -0.099293426
0.33933216 1.4113094 -0.73790216
0.41200894 -0.2424327 -0.108640544
0.38894135 1.6304624 -0.44529134
-0.15032747 0.12056361 0.39652008
-0.2345119 -0.053954016 0.50359064
0.21776691 -0.41092956 -0.101137646
0.15582752 0.06250629 -0.05265218
0.69959885 0.6511618 0.115184106
0.33496994 1.724299 -0.2503857
-0.869499 0.76178646 -0.18863346
-0.030140998 -0.09568011 0.9117404
0.930732 0.77095056 -0.08285468
0.035832874 0.50754356 -0.0055673765
-0.26244053 -0.08222505 0.7116501
0.44070268 0.30020106 -0.13629231
-0.32712346 1.5026999 -0.07504155
0.41419286 0.4968399 -0.103055164
0.19668227 -0.24784821 -0.9270901
0.112128705 0.8792069 -0.31311777
-0.25305033 1.6783643 -0.3663615
0.56067485 -0.07418372 -0.52957463
-0.32112584 1.2557001 0.11386499
0.41053334 1.4984094 -0.59251636
0.5995554 1.0044708 -0.48659277
0.90381753 -0.08641952 0.1180463
0.6702668 0.7764334 0.27036938
0.6472716 0.46369228 0.1382606
-0.28170472 0.32819265 0.586707
0.20996888 1.4835622 -0.45018694
-0.4251243 -0.40761137 0.89479476
0.14159045 1.278971 0.34248358
-0.7328987 -0.24868453 0.9200237
0.38149658 0.71309507 -0.9019619
0.59526265 -0.23827255 -0.40311378
0.7169179 0.9292065 -0.3346601
0.54007006 1.366355 -0.6384882
0.3579054 1.3549592 0.055969402
-0.80893296 0.58187866 -0.2724414
-0.76678705 0.43312526 -0.14924528
0.3942994 -0.41055697 -0.76219845
-0.62448776 0.5395888 -0.25174028
0.7177106 1.3626287 0.24237064
0.72424567 -0.41499662 -0.18439047
0.73655975 1.4327301 0.043876592
0.7378892 -0.08274728 0.6491459
-0.6185669 -0.25385308 -0.61756766
0.033891153 0.87139964 -0.09333106
-0.2567495 -0.4086609 -0.27199823
-0.34754014 0.116837114 0.25859568
0.19417658 -0.058891293 -0.5097662
0.22531614 0.4982974 0.7376362
0.07158172 1.6079433 -0.57424134
0.46484977 0.8802291 -0.36900914
-0.64797306 -0.08066147 -0.743924
0.15966415 1.5511208 0.21296188
-0.547408 0.1653226 -0.093690746
0.30940956 -0.24183863 0.61776984
-0.018967714 1.6989211 -0.4130075
-0.27401924 0.61595166 0.379669
-0.3368246 1.4782746 0.117630996
0.8994198 -0.40834504 0.32656235
0.24106926 1.0161979 0.1637969
0.021171413 -0.2424565 0.7650725
-0.77243423 1.1004885 -0.40591612
-0.51104975 0.93314415 -0.22409931
-0.4910817 1.0765374 0.44895378
0.30432922 0.6424536 0.1556837
0.6697742 0.60993433 -0.42612714
0.570711 -0.17256355 -0.04962157
-0.6550951 0.31154272 0.17902656
-0.5877992 0.6698152 -0.43519974
-0.2827186 0.6529104 -0.026176177
-0.30172607 1.5710328 -0.5208732
-0.8254048 1.1457034 -0.22771242
0.20197973 0.778101 -0.15897304
0.6752857 1.4835861 -0.35346693
-0.929901 -0.25524455 0.6315219
0.47868326 -0.4142202 0.9043193
0.7276677 1.0720637 -0.16863513
0.17602015 1.3766592 0.14259264
-0.3392588 -0.06769318 -0.08110464
0.055957407 1.2411683 0.7503973
-0.7643421 1.3213557 -0.13378203
0.09141022 0.9730058 0.30286413
-0.1922331 0.68871963 -0.5769259
0.07794887 -0.079065695 0.25527525
0.18314525 0.42261362 0.4454506
-0.12684959 -0.40991348 -0.6150631
0.27492243 1.4126356 0.3510971
0.9002123 -0.40681303 -0.48752767
0.21665508 1.3012183 0.5038338
-0.42756146 0.9374585 -0.058122367
0.40686226 1.2592961 0.4074331
-0.13529116 0.34262678 0.3828286
0.15829282 0.3770817 0.118957534
0.4542302 1.2246416 -0.28410017
0.73105514 -0.41750455 0.021622676
0.07819198 0.47759366 0.5996834
0.08079378 1.4565148 0.37437317
-0.24377754 1.2290195 0.289653
-0.0501078 1.0364206 -0.9630197
-0.30812222 0.5741793 -0.8707843
0.14087453 1.5613467 0.49816325
0.61237264 0.24023828 -0.4316916
0.89649546 -0.40841877 -0.2861883
-0.57413924 -0.40953434 -0.3204691
0.028519858 0.25882012 0.29003358
0.031549238 -0.091498435 -0.91839695
0.59487206 0.95336646 -0.059215546
0.095823474 1.692662 0.31027982
-0.7078642 0.4069141 -0.36314648
-0.18738534 -0.4076657 0.60775375
0.57678175 1.3036655 0.10079263
0.25393265 1.1053951 0.38654935
-0.3594517 0.10966183 0.030697685
0.5605197 0.67660683 -0.5941188
0.048597008 0.88271224 0.11737027
0.76000285 -0.24179965 -0.73846185
-0.1385076 1.4396211 -0.15668586
-0.31977373 -0.41483003 0.73537815
-0.088869095 -0.41384494 0.75199735
-0.6184361 -0.25087655 0.72793496
-0.13745865 0.6982796 -0.7701452
-0.25282884 -0.25811616 -0.9247197
0.7278912 -0.41302434 -0.58106494
-0.5978395 -0.2388487 -0.42530128
0.83317834 0.5300868 0.20075719
-0.14038658 -0.03587455 -0.6257649
-0.012919454 1.2108741 -0.7019787
0.7196677 0.4344349 -0.50922894
-0.34265703 1.0750577 0.015721848
-0.1509383 0.7382636 -0.4027524
-0.5540033 -0.09151907 -0.9171307
0.29584175 0.9187236 0.3659292
-0.82093716 0.64958584 0.14768171
-0.27518213 -0.2205671 -0.38325083
0.5282426 -0.4111268 -0.89857197
0.42639512 -0.22541136 -0.473026
-0.70004976 -0.41828123 -0.80033743
-0.32045314 -0.25106943 0.92199826
0.37915364 -0.41118467 0.21763578
0.0388307 0.65831333 -0.12124787
0.077091426 0.32903057 -0.5620783
0.80805826 1.3429208 -0.106192924
0.698571 -0.41744283 0.8779242
0.5687865 0.14279488 -0.025841624
-0.56709635 -0.055115238 -0.3413822
0.6770327 0.56074786 -0.23294915
0.52428615 1.6078916 -0.31085378
-0.10116751 1.0389717 -0.7741246
0.7131729 0.36581975 0.27355182
0.059374712 1.3745852 -0.60874903
0.89568436 -0.40625244 -0.8814289
0.58710647 0.49594754 -0.6817391
-0.7339102 0.50231373 0.260934
0.4730323 0.86920035 0.31398594
0.5483475 -0.25396186 -0.7771716
-0.36032912 -0.08928648 -0.91545916
-0.10131662 0.33041263 -0.80218714
0.028047139 0.34590828 0.4691283
-0.22373882 -0.23112169 0.18075174
-0.2423497 1.1769488 -0.16301724
0.03364111 0.5149522 0.7737398
0.1931706 0.80664885 0.22970174
0.37351418 0.367425 0.39590883
-0.924279 -0.24843934 0.001151512
0.007714743 0.22225694 -0.4423209
0.12888643 1.3928401 0.6574196
-0.81532574 1.1545495 -0.037881847
0.3774902 0.8974314 -0.72962976
-0.06771823 0.7371963 0.010699153
-0.617906 0.729687 -0.24475071
0.5977473 1.3977692 0.39074552
0.03141125 0.14433414 0.4839086
-0.5173988 -0.4185446 0.7091707
0.7468182 0.83054507 0.06430583
-0.30200762 1.5076785 -0.29398805
-0.6053939 0.47775623 -0.05969578
-0.15856336 1.1358426 -0.0013295487
0.51698285 0.6935512 -0.34848893
0.9040302 -0.08721417 0.32881624
0.24872345 -0.23327693 0.44194797
0.27149332 0.79200184 -0.3867266
-0.48626816 0.44812965 0.5491419
0.10999051 1.7540098 -0.26057705
0.082222685 0.30422312 0.6552968
0.10450597 0.12272997 -0.60008883
0.5219506 1.1555569 -0.08369228
0.38686994 0.68110514 0.5542128
0.6186062 -0.2453514 -0.60291106
