0.5879389 1.240182 0.58787405
0.5044714 0.3900289 0.06415237
0.44092456 1.4037061 0.34415644
0.74451387 -0.25438392 0.7537264
0.4060843 0.8726833 0.5876541
-0.5818907 0.7965766 0.4453899
0.06337901 0.11329357 -0.40478778
0.6601898 1.0638795 0.6082422
0.23777391 1.6634268 -0.4973141
0.77017 -0.25058335 0.9314803
0.4658114 -0.08870292 -0.72341394
0.0041650306 -0.41100067 -0.47094738
0.01131802 1.2779846 0.11620302
-0.7475732 0.8980999 -0.090774976
0.28457204 1.268278 0.32569218
0.09804192 -0.22458446 -0.53269017
0.34797144 0.33289889 0.2266965
-0.33370882 -0.055584855 -0.58161455
0.12211585 0.5429993 -0.38670027
-0.90405065 -0.09634231 0.7297299
0.4496997 1.605605 0.39670908
-0.63013446 1.3253772 0.013650417
-0.46152395 -0.25576478 -0.9217768
0.42778346 -0.07943351 0.64494526
0.23694952 0.29107583 -0.6403718
0.84808135 1.2404416 -0.12260927
0.86911404 1.0846286 -0.22556046
-0.2870673 0.9028529 0.017032517
-0.24881536 1.4816785 -0.3665787
0.24027994 0.10637179 -0.2513255
-0.45400953 1.1831377 -0.15269713
-0.7513739 0.64176446 -0.42985845
-0.0065108836 -0.08891811 -0.12511656
-0.7607602 1.3564848 0.16423249
-0.7277261 -0.08623339 -0.42402473
0.30742967 1.0097818 -0.4743067
-0.58925796 -0.40820107 -0.11040767
-0.36464897 1.1694562 0.6304947
0.07683653 1.2727811 -0.4243024
-0.28637686 0.6883892 -0.22525242
-0.076637775 1.1331449 -0.4994315
-0.2413783 1.0197186 0.6590903
-0.7534164 -0.072944745 0.21853225
0.22269283 0.4805005 -0.77727413
-0.05450552 -0.08325131 -0.7623579
0.7575507 -0.25091532 -0.48164648
-0.5550982 1.0625927 0.7035135
0.5724145 1.2776568 -0.62254906
-0.10358362 -0.22988242 -0.46399838
-0.17383397 0.9650632 -0.7438235
-0.108574614 -0.06460085 0.1836462
-0.795763 1.0070128 -0.43956554
0.38493818 0.8920268 -0.034930922
0.12216966 1.2762644 -0.04278162
0.19663209 0.84005046 -0.54841036
0.92259985 -0.25471252 0.010956266
0.04455547 0.5489704 -0.8429646
0.8282143 0.7111244 -0.36351642
0.67307246 1.5476965 -0.05913597
-0.21307956 0.10462916 -0.10275494
-0.44649857 1.2675378 0.47074747
-0.12655571 -0.23475131 -0.26821423
0.8568882 1.1042626 0.26838744
-0.71681976 -0.42149222 0.77046263
0.34649512 1.061793 0.82636714
-0.4928919 -0.4188829 -0.727273
-0.7445326 0.830997 -0.49968433
0.17721872 0.25358295 0.17253257
0.3112044 0.6883955 0.8116297
-0.5616938 -0.08351238 0.5347966
0.7461667 -0.091864675 -0.57908046
0.82368314 1.0586921 -0.39450467
-0.1553666 1.4363208 -0.53254616
0.33004388 0.13244294 -0.04288716
-0.018922111 -0.41323015 -0.75912166
0.72623295 -0.41937983 0.6444864
-0.1401515 0.61861676 -0.84393466
-0.4874081 0.636318 -0.5079874
0.005310934 0.81379426 0.42696202
0.5715374 -0.048655495 0.11553967
0.20323063 -0.4109714 0.28784838
-0.3500305 -0.41184697 -0.5877111
-0.3746965 1.1210371 0.79763323
0.08500401 1.2870762 -0.853094
-0.89086086 -0.09908153 -0.9112303
-0.76339066 0.8808553 0.45372358
0.08660464 -0.4186784 -0.25254384
0.39241213 1.0267701 0.1130427
0.52554524 0.24790612 0.3383958
-0.065379046 -0.048358813 0.57186186
0.07933071 1.6307365 -0.22904249
0.1111781 1.078063 -0.11641815
-0.76292056 -0.24121618 0.32123947
-0.5405122 1.6182275 0.23167557
0.41049382 1.0733193 -0.10476399
-0.46932986 0.3129176 0.47226223
-0.87165034 -0.08800853 0.019555442
-0.5164535 0.6613969 -0.038452864
0.731799 1.0227242 -0.54330933
-0.2325094 1.2779078 -0.61506426
-0.23040214 1.4883549 0.6592585
-0.38841915 1.7312261 0.13975868
0.5428309 0.7469183 -0.7299217
0.31208766 1.5247717 0.29895434
0.67002314 0.8736428 -0.634078
-0.40550613 -0.055119876 0.42524666
-0.6167511 -0.092781305 0.9149436
0.4206394 -0.052292984 0.42763454
0.5921333 -0.26802492 0.8981923
0.9214033 -0.25114635 -0.38603616
-0.8940153 -0.41025484 0.10506058
0.7469493 0.92841583 -0.07014964
0.91835177 -0.25237182 -0.1873646
0.52717 0.4248779 -0.5349045
-0.52920365 -0.41845796 0.47333217
-0.12401788 0.14048707 -0.3118985
-0.7035129 -0.41445705 0.39547053
-0.093497485 0.43376788 0.15397823
-0.3530289 0.95066714 -0.45555446
-0.9064044 1.020654 -0.039633013
0.004847886 -0.40901154 0.5749845
0.15904278 0.256158 -0.040047042
-0.6985496 -0.05636476 -0.02319603
-0.71146035 -0.41847995 -0.6234975
0.029626602 0.7309582 -0.7042148
-0.89580214 -0.4078159 0.71780676
-0.9040592 -0.09490436 -0.5288843
-0.60986 -0.23451811 -0.21625961
-0.36655837 0.880151 -0.8482322
0.430691 -0.25779825 -0.92155516
-0.5961496 1.3840415 0.49004465
-0.0049031116 -0.41109744 0.37172553
-0.21128279 0.5907411 0.79647005
0.3204469 1.0088477 -0.8590313
0.3813923 1.3461988 -0.5250864
-0.54418164 1.3627028 -0.18040323
-0.5224917 -0.24803269 0.90938425
-0.48310602 -0.23142225 0.10333277
0.6183654 0.879395 -0.40333676
-0.010176176 1.3948288 0.30187362
-0.011575043 0.25946248 0.10233292
0.14391491 0.12723465 0.34367365
-0.25379607 -0.4196701 -0.7470592
0.3945602 -0.27138352 0.9208683
-0.2527441 1.3243445 0.55319166
0.38416392 -0.053105142 -0.53959465
-0.18253735 0.97221375 -0.5443927
0.85367763 0.61103475 0.03935276
-0.49495953 1.3571084 0.31523108
0.37309065 -0.08021026 0.87299144
-0.054704458 0.70352274 0.8672447
0.25378346 1.3196619 -0.31392357
0.28763133 1.728199 0.31581283
-0.34960103 -0.25683087 -0.7667511
0.7418951 -0.07518235 0.21769519
0.277104 0.9816183 -0.174225
0.41597754 0.8611875 0.79911757
-0.4932629 1.5374382 0.41839302
0.54999214 -0.4177848 0.12763153
-0.70566374 1.0455114 0.52470237
-0.13472065 1.0835978 0.4433424
-0.035154972 -0.23485695 -0.635577
-0.5438369 -0.08919692 0.73721874
0.7595749 1.4014221 -0.20758364
0.19409274 0.62393826 -0.0352469
0.90972745 1.0251498 -0.057996348
0.5668421 0.44839454 -0.12763743
0.5661305 1.3931224 -0.2868249
-0.12505406 1.6104244 -0.23014393
0.39759204 0.28582782 -0.53564274
-0.09341432 -0.41349474 -0.1435089
-0.74052906 -0.41408867 -0.21644351
-0.27317128 -0.41049996 -0.06886411
-0.2599731 0.48176453 0.26128095
0.9038582 -0.08911049 -0.89317834
-0.3656841 -0.4134204 -0.8989887
0.12162666 -0.24338244 0.3221763
-0.8968824 -0.095910765 -0.3326945
-0.02209132 0.8179588 -0.21464908
-0.14433703 0.40849444 0.7139888
-0.6492031 0.6722729 0.12543777
-0.011375586 1.833204 0.04924865
-0.12016091 1.3041552 -0.4006406
0.92483425 -0.25358868 0.22268093
0.15571433 -0.40758592 0.4588887
-0.028079187 -0.26017785 -0.9114688
-0.9146401 -0.26121098 -0.8724791
-0.17217183 -0.4077816 0.25341967
-0.65996647 0.5595565 0.4766928
0.016630193 0.9360747 -0.77638614
-0.27521497 1.2484428 -0.8132415
0.7070244 0.79920924 -0.22786161
-0.31628603 0.15030757 -0.35299295
0.6215688 1.3159153 -0.1135803
0.44082475 -0.24035782 0.7530447
-0.014664408 1.3206623 0.60797167
-0.45513508 1.5200987 -0.51847863
-0.12154755 -0.24748717 -0.0711285
0.7618747 0.8701552 0.5026922
-0.21058688 0.10902249 0.13427413
-0.18157963 -0.41376948 0.43803865
0.26395345 -0.046046752 0.5294906
-0.2942016 1.0590416 -0.112044
-0.3221593 1.2751739 -0.29454082
-0.5206413 1.283007 -0.35299212
-0.38727877 0.92223 0.8003176
0.3744199 0.5346291 0.7190623
-0.5505576 -0.080378234 -0.55270004
0.095166534 -0.063175544 -0.6792959
0.20818186 0.9288845 0.07129802
-0.8130754 1.0829601 0.37721756
0.37063864 0.8039448 -0.6483731
-0.6626876 0.7267301 0.5744175
-0.4727146 1.0263622 -0.59955287
-0.10607386 0.9302796 0.538496
0.045084648 -0.25566706 -0.1900678
-0.7660801 -0.23614985 -0.10629778
-0.050461113 1.5434558 -0.38515598
-0.3229055 0.90760815 -0.23538968
0.2758049 0.9975376 0.6557739
-0.26462492 -0.22812559 0.37816316
-0.47815043 0.38284224 0.21068993
-0.5356858 1.0000457 0.17875284
0.2960268 0.11657737 0.15564469
-0.1384663 1.2726492 0.22157481
-0.8983881 -0.40773812 -0.1089931
-0.57523835 -0.40677804 -0.914394
0.55603266 0.554173 0.59492344
0.0682013 1.1567609 -0.7229866
0.21743253 1.399981 -0.7675289
0.4049404 1.3317237 -0.715474
0.04747644 1.2628477 -0.21541514
0.3712411 -0.059232414 -0.18371409
-0.5203006 -0.4141431 0.26889825
0.10221134 -0.047042876 0.46444768
0.10390695 0.09349543 0.13903582
0.8869512 0.8827796 -0.24243337
0.7086082 0.377386 -0.25839514
0.73767483 -0.08724655 -0.9011562
-0.42264795 -0.24057494 -0.47905886
0.17340831 1.8096544 0.02186254
0.100897506 -0.23884405 -0.033697695
-0.21584223 -0.4065424 -0.45379364
0.44110763 0.57582307 -0.24617077
0.3884802 1.081969 0.33111337
0.33822477 -0.41604093 -0.57946545
-0.28403103 0.3133739 -0.63455534
-0.5401978 1.6517537 0.03526014
0.4189247 -0.410415 0.61057085
0.49164653 1.6796625 -0.019750219
-0.07864158 -0.0524673 0.3876628
0.38326555 0.81716317 -0.45089638
-0.35681462 1.7587435 -0.059159454
0.23314069 -0.4025877 0.90974355
-0.20876992 -0.042633742 -0.4225023
-0.046285562 0.113320634 0.25945258
0.1494699 0.65985215 -0.52942985
0.38642538 1.1278152 -0.32152987
-0.66081375 1.2352047 -0.15809399
-0.2873841 -0.2311825 -0.17403808
0.8108082 1.2527386 -0.33473033
0.54475677 -0.4099416 -0.49115324
-0.42472073 0.78095037 0.32831877
0.11204599 0.9696673 -0.44451857
-0.38523096 -0.23340844 0.24100389
-0.4586025 -0.046482857 0.23240131
-0.2103793 1.0334332 -0.3332729
0.8926502 -0.095864855 0.90740216
-0.06508617 0.47720736 -0.37580794
0.92852926 -0.25077638 0.85710275
0.06490879 1.4259598 -0.30059898
0.20876451 -0.41009414 0.09766582
-0.09464693 0.87949204 0.7400924
0.33912683 1.7677039 0.07985261
0.24412654 0.1649274 -0.46161383
0.6639466 1.2087479 -0.28135228
-0.47863686 0.67665964 -0.23968443
0.4283139 1.3493378 0.66781473
0.72727036 -0.41646773 0.42559195
-0.58678925 1.1400988 -0.6890253
0.5262939 -0.05316768 -0.3246876
-0.54614556 0.9271903 -0.74351764
0.72081923 -0.41642654 -0.38467437
-0.8988035 -0.09830555 -0.14690489
0.7946897 0.4866853 -0.10658102
-0.86745346 -0.09490529 0.9112044
-0.88012147 1.024147 0.1631007
-0.19039476 0.80900073 -0.12563603
0.3114838 0.5142481 0.118071295
-0.19548151 0.2708528 0.01895922
0.30348215 1.6014526 -0.2020628
0.28973445 -0.23302028 0.21628322
0.10128028 0.76229405 0.09194442
-0.15479214 0.73617435 0.52474797
-0.11084526 -0.26477963 0.9153644
0.51111805 0.93910754 -0.76531506
0.7049561 1.2162527 -0.5026817
-0.13405786 1.4490917 0.46892065
0.2029337 1.2456915 0.13809837
-0.18442768 1.1851796 0.8361635
0.26464322 1.1164781 0.013562432
-0.16330756 0.61620694 -0.6528754
-0.52313197 0.21279909 -0.29314327
-0.74375707 -0.41158977 -0.0046655526
0.12700327 1.1518792 0.68416595
0.71763694 -0.072797984 -0.19165388
0.7241835 -0.06522691 0.009460122
0.46836895 1.4800322 -0.14395896
0.70431113 -0.4164533 -0.75911736
0.33039945 0.733039 0.043131705
0.23215765 1.4295851 -0.1596858
0.5861957 0.24375956 -0.22148412
-0.45409054 -0.08600746 -0.7388886
0.63817585 0.27018067 0.1504492
0.28868723 0.6708559 -0.37706855
0.6848369 1.4014201 -0.4206346
-0.5043647 1.4420679 0.12748182
-0.76057935 -0.24564926 -0.3182652
-0.42380595 -0.4078728 -0.19428545
0.7965993 0.71086735 0.36958
0.3403914 1.3250511 -0.022397362
0.16088021 0.88348603 -0.91364884
-0.7698698 -0.2560351 -0.5248785
-0.3607276 1.349164 -0.48560977
0.25778353 -0.4051292 -0.28225866
-0.6118243 0.4935398 0.1589162
-0.68790364 0.93963987 -0.2929298
0.43948412 1.0722076 0.5384257
0.106261976 -0.23586564 -0.75713575
0.25082716 -0.05667362 0.3246817
-0.12736693 0.93552816 0.31183767
-0.5868015 0.8564547 0.008388769
-0.8885913 -0.41406447 0.32165277
-0.85801876 -0.4052348 0.9044581
-0.7374855 1.2937315 0.3671465
0.34104866 -0.4175885 0.7714697
0.6828019 0.70310843 0.55096626
-0.57076925 -0.2531977 -0.7873768
0.23610169 -0.23056763 -0.20077926
-0.8930407 -0.4061308 -0.7326298
-0.44329113 1.2543664 -0.71404624
-0.2145099 0.78609085 0.36314762
0.61581385 1.611103 0.11209812
0.5467051 1.1056101 -0.19671336
-0.6134686 -0.22314414 -0.01735984
0.7280489 1.0572195 0.10988453
-0.8944612 -0.4102826 -0.32569742
0.8036092 0.86921144 -0.45001388
0.33728695 0.16455023 0.35156435
-0.6783464 1.5172477 0.09966985
-0.72870314 -0.4138377 0.208787
-0.37992814 0.70553666 0.77870154
-0.74300015 -0.089524336 -0.60670483
-0.21440068 -0.41369504 0.89771795
-0.67160606 1.2156571 0.5437639
0.87692404 1.1782484 0.06328265
-0.74550194 -0.23786542 0.11068223
0.01711624 0.49191612 0.32094562
-0.49031317 1.487897 -0.07110776
-0.52040505 0.4372297 -0.1916408
0.21392521 0.6534748 -0.69458693
0.19086108 0.841637 -0.7379728
0.26744968 1.2059481 -0.83538115
-0.54142857 -0.4150507 -0.5253037
-0.42342415 0.95877105 0.6000365
-0.25907496 -0.03947456 0.30670086
-0.9039793 -0.099094875 0.34621376
0.09487818 -0.057969242 0.6652531
-0.45370552 -0.22635151 -0.09726733
-0.70150787 1.3012726 -0.42613605
0.4833735 0.5999907 0.09650472
0.40583315 -0.041044306 0.01842276
0.1911993 0.21809113 0.5294026
0.7792748 -0.23515302 0.11603719
0.5111851 0.6997601 -0.08271109
0.19475639 -0.08273205 -0.8825901
-0.42780477 1.3012352 0.008353017
0.5961466 -0.23659629 0.42203832
0.32289857 0.7344537 0.40055966
0.4610225 1.5206332 0.16217896
0.118736625 -0.24373344 0.14836667
0.675201 1.2474389 0.069810346
0.5490549 1.120653 0.18718125
0.0062856656 0.9692203 -0.6085899
-0.020310761 0.7318803 0.26006475
-0.39704013 -0.4117065 -0.39151847
-0.7217258 -0.093205005 0.62283885
0.5445864 -0.4106912 0.32800278
-0.90027595 -0.09528336 0.5385433
-0.6503494 1.4595733 0.2961908
0.022199031 -0.41168892 0.18436329
-0.6785793 0.9566213 -0.6175467
0.7491118 -0.24708343 -0.28802276
0.41901365 0.5595195 0.4443271
0.0075420057 0.87891686 0.91327417
-0.9184859 -0.27391666 0.21867731
-0.22014445 -0.09658894 0.90015435
0.119380176 1.1285608 -0.5358734
-0.8485415 -0.4069968 -0.9131799
0.33924043 0.7497399 -0.17836368
0.26872003 0.5212281 0.30804956
-0.58619845 -0.40575558 0.09659602
0.48564288 0.6031374 -0.43940622
0.17893149 1.6308683 -0.054631185
-0.4092552 1.0847512 -0.3128832
-0.9247892 -0.24893703 -0.64603174
0.8947006 -0.091691494 -0.2870418
0.649353 0.5555432 0.003961525
-0.7165559 1.0747453 -0.13228455
-0.30247092 0.93121713 0.4394508
0.25125226 0.55246544 0.5476385
-0.51765066 1.2646675 0.66641486
-0.04112237 -0.07267222 -0.3268569
0.5230592 0.8039392 0.08790225
-0.5452098 1.2474103 0.18081403
0.14279819 0.6464316 0.37445146
-0.72465676 -0.4166816 -0.4256667
0.393049 -0.4112311 -0.39342886
-0.07537456 -0.07626222 0.7543247
0.16500655 1.0952716 0.8744841
-0.4987585 -0.030418882 0.021598967
0.54314256 -0.42122835 -0.6703658
-0.40038812 -0.075622514 0.6273531
-0.038276058 1.4640408 0.10470063
-0.68817115 0.3308101 0.0031456952
-0.4406929 -0.40797994 0.0016470535
0.2102831 0.4752701 -0.5803126
-0.66382784 0.33626664 -0.20379195
-0.15329488 1.6927931 -0.44399473
0.47059134 0.45256263 0.27314973
0.54947233 0.8887328 -0.14396521
-0.055722587 -0.24643974 0.098065734
0.58152074 -0.07825698 0.5313332
0.12435137 0.71336937 0.8572073
-0.6883438 -0.4137714 0.5936565
-0.21805283 0.7961594 0.8578944
0.50302935 1.2740581 -0.40313724
-0.88871133 -0.089758456 -0.7350122
0.89776313 0.95755136 0.12628548
-0.60777485 1.161097 0.35560775
0.16244945 1.3233817 -0.62224454
-0.08120738 -0.4078955 -0.32626438
-0.30712336 1.1042734 -0.6446841
-0.27155486 1.569061 -0.58158284
0.5868948 0.91665757 0.49781746
-0.4071141 -0.05278454 -0.42829752
0.25288075 -0.17978254 0.9273424
-0.7657067 -0.24435782 -0.7426483
0.68696284 1.182852 0.27711195
-0.47000435 1.1746793 -0.500448
-0.34666166 0.9386158 0.22494844
-0.33602673 1.4360616 0.40468186
-0.31065303 0.48638314 -0.7492795
0.07248804 0.76597214 -0.38163418
0.095156014 0.9500387 0.75808716
-0.6110269 1.1227646 -0.31733766
-0.04078432 1.5019538 0.67857003
-0.21972626 1.5835967 0.33773392
0.02293973 0.38359615 -0.0479391
-0.12417698 1.8148112 -0.13168645
-0.085752755 1.3209686 -0.04980118
0.019884009 0.5375489 -0.1733174
0.04252752 -0.08232576 0.05549835
-0.5251845 0.8192774 0.7149801
0.23170003 0.8235216 0.6977554
0.72542953 -0.41481003 0.22346157
0.4333363 -0.23487958 0.0811059
-0.87420124 0.6478442 -0.01518408
-0.49582884 0.39727768 0.017016156
0.20718084 0.44136006 -0.06199537
0.068395376 1.091595 0.08783971
-0.40970922 -0.08660932 0.88464826
0.25953034 1.2034359 -0.164954
-0.3763186 1.6724256 0.34304076
-0.50009716 0.7554965 -0.7543219
-0.22432876 0.48633033 -0.24313304
-0.9239059 -0.2553753 0.86986357
-0.29971042 0.6318717 0.60988927
0.3609582 -0.41327587 0.42626047
-0.24403721 1.093638 0.2618379
0.039626326 -0.41162422 -0.018229313
0.39417565 0.24414161 0.51152486
-0.45367134 0.79292727 0.12986314
0.19255501 -0.40948367 -0.45123315
-0.4485316 0.50913227 0.339069
0.16038659 1.4499221 0.044909313
0.016658988 0.6186701 0.5010277
0.8683083 0.67851794 -0.1607126
0.20691822 -0.07292426 -0.09653147
0.68968 0.31283337 -0.0535786
0.18545508 1.016122 -0.6908027
0.38770127 0.4453206 -0.66899335
0.10014405 0.9631387 0.5620049
-0.14891136 -0.41012216 0.06464924
-0.18820487 -0.05232209 -0.21100241
-0.51875937 0.6244159 0.6671325
-0.56645775 1.337237 -0.5833897
0.8970932 -0.40988332 0.11983601
0.8091372 1.2946976 0.20922408
0.56101894 -0.41288665 0.73686457
0.017496124 1.4583772 -0.74534345
-0.24802074 -0.23183897 -0.5859598
0.5186192 1.2409209 0.37327123
0.89532244 -0.40984252 0.53278357
0.24820644 1.609552 0.14234728
0.36305955 -0.089783825 -0.90557736
-0.10165201 1.3190507 -0.82727706
0.13943903 -0.079934865 0.8717654
-0.017820965 1.6563084 -0.0439794
-0.23433125 1.7629999 0.24749136
0.26507825 1.6335555 0.49559656
0.5994057 1.5396934 0.30513567
-0.5776988 0.989674 -0.4468033
-0.25386417 -0.08427772 -0.74679327
0.7175827 -0.08556345 0.8768983
-0.7216361 -0.072561346 -0.21945438
-0.44277632 -0.23506169 -0.63533163
-0.49970925 1.670179 -0.15416369
0.61270607 1.0864396 -0.66512644
-0.622681 0.81881607 0.25902808
-0.3412289 0.8991581 -0.6640458
0.35895252 0.63107747 -0.57284045
-0.093134254 0.65521264 0.68088293
-0.32642794 0.54995465 -0.5673356
0.43034023 0.15707251 -0.19652931
0.8763052 0.7469337 0.17701717
-0.3518383 -0.4115046 0.34954137
-0.37466228 1.4195449 -0.6788471
0.22803704 0.8912971 0.8817018
0.73804164 -0.08602014 0.4271676
0.3516891 1.5462071 -0.008716586
-0.92384064 -0.25673193 -0.4277684
0.41636086 1.502862 0.5492227
-0.14164707 0.24451101 0.5898261
-0.88011503 -0.41529644 0.5220437
0.5035243 0.95236766 -0.54307723
0.51089066 0.7297292 0.48661888
-0.3209292 0.20498466 0.4720945
0.50721604 0.70355636 0.7116345
-0.15071619 -0.2517904 -0.7612618
-0.70738643 -0.26366693 -0.9255749
0.39073563 1.218149 0.17211726
-0.087297544 -0.22575831 0.63323575
-0.15849695 -0.09502445 -0.91460085
-0.85679746 0.8655645 0.27973306
0.11211575 0.40821669 -0.25643015
0.57699966 -0.09195782 0.7466843
-0.030795015 0.80342 -0.5389402
0.14635953 1.7929416 0.21855587
0.23334083 -0.41278493 0.6055348
-0.46913534 0.4095313 -0.5919608
-0.2855621 0.49698934 0.06735523
-0.6210246 1.5403173 -0.2506773
0.032902736 -0.22702947 0.4689973
-0.63703704 0.9125681 0.60976434
-0.77103424 0.700597 0.37783855
0.74667317 -0.24317548 -0.08630432
-0.27178693 1.1615913 -0.4552905
-0.055500455 1.1042218 0.23983715
0.7128173 -0.08289238 -0.38524425
-0.6927711 1.1529899 -0.5323509
-0.79293597 0.49644768 0.08890425
0.57440853 -0.056823716 0.31768727
0.22561952 1.435869 -0.47578204
-0.13421972 1.396799 -0.22864592
-0.2953109 1.5963116 0.51592505
0.38633394 1.4601163 -0.3337321
-0.5144615 0.9585078 0.39235705
0.3293388 0.31155983 0.040709272
-0.18497229 0.27797452 0.2297039
-0.4069798 0.78476965 0.5391108
-0.078265674 0.65264046 -0.28427267
0.31978977 -0.23498806 -0.7746978
-0.12955597 0.59694695 0.35780638
0.6220254 -0.26190186 0.07554686
0.64920765 -0.23432909 0.24861816
-0.4305044 1.4552828 -0.30731255
-0.18459761 1.4536128 -0.73051697
0.10556537 -0.4095044 -0.61776364
-0.19118953 0.82162964 -0.89596117
0.6471324 -0.24634264 -0.9159255
-0.61544406 0.40568376 0.37847865
-0.5955746 -0.24783826 0.25755984
0.566502 -0.41307873 0.5189104
-0.15098432 1.0018489 0.08124238
0.28590143 1.1786716 -0.6505934
0.02853188 0.7922592 0.6476569
-0.6948853 0.9889023 0.28510866
-0.15260938 0.5052326 0.5515176
0.89670503 -0.09202384 0.7327045
-0.6018911 1.4596384 -0.41542947
-0.5932067 -0.07686629 0.3440841
0.4188687 0.18589798 -0.37740004
0.3162439 1.1739964 0.6453662
0.2630906 1.2694205 0.796296
0.6928029 0.9733656 0.299496
-0.1604991 0.6150188 -0.08075606
-0.12882018 0.6230731 0.1409826
-0.6226529 -0.24671328 0.4680788
0.15009983 0.6823405 -0.22928739
0.91849524 -0.25199777 0.6444018
0.12590626 1.0778561 -0.9049177
0.41466603 -0.23595515 -0.2903307
-0.5503019 0.20195067 0.11526414
-0.48623413 -0.25519937 0.5878675
-0.3277495 0.45968765 0.48577774
0.9254336 -0.25305545 0.43788737
0.59246063 -0.25036907 0.6416564
-0.56814706 1.1375794 0.0038722737
0.5328161 0.93600273 0.2196748
0.85575086 0.890677 0.31768242
0.17537853 0.33130515 0.34374893
-0.38106662 0.5505605 -0.33222854
-0.7723205 -0.25843108 0.5382048
0.18618102 1.7784624 -0.31902608
-0.042479366 1.5867378 0.30253953
0.54736656 -0.08867273 -0.90712154
0.24833953 0.35383636 0.65186787
0.093681216 -0.26263502 0.921973
0.65638214 -0.08536488 -0.7333772
-0.010114454 1.109272 -0.3115526
-0.054625355 0.0858163 0.017826572
0.45497996 1.1426258 -0.7687826
0.14624703 -0.07111953 -0.29955202
-0.7874971 -0.25513774 0.7315122
-0.74444413 -0.0871198 0.4342349
0.5160898 1.0021667 0.73153424
0.18687546 1.1066842 -0.32123592
0.08760717 1.1957343 0.29703933
-0.3571088 0.4970041 0.6991917
0.58256567 -0.22447966 -0.21314102
-0.20590198 0.9907578 0.86356974
0.7825844 1.0497099 0.44717664
-0.57371986 0.6378795 0.30039164
-0.20710447 1.6734253 -0.05261953
-0.6203736 -0.40526968 0.9028919
0.23801576 -0.22931203 -0.39232463
-0.5756366 0.34933016 -0.4174769
-0.4759791 1.6367077 -0.33596236
0.7801075 -0.25015172 0.33911842
0.91462255 -0.24512008 -0.5899756
-0.16843201 -0.08215222 0.00041765347
0.0299003 1.1417584 0.517034
0.3357879 -0.047919657 -0.36406708
0.6135559 0.8555838 0.66749483
0.5335171 1.4168658 0.023012366
-0.7083986 1.0190163 0.053020928
-0.42270428 1.075757 -0.8015696
0.8955268 -0.41030228 -0.085912086
0.7006924 0.5377183 0.44109666
-0.1508458 0.43850386 -0.5599799
-0.34505188 0.327937 0.33485758
-0.35000533 0.4195831 -0.45530528
0.06094341 -0.24858356 -0.36260802
0.71566606 0.6983997 -0.5521456
-0.50522804 0.8339281 -0.54668677
-0.049398735 1.0730737 0.6952081
-0.68864346 1.1572349 0.16917436
0.27651536 -0.073059805 -0.69768584
-0.8932141 -0.40859723 -0.5337461
0.02451938 0.54007685 -0.66294014
-0.26199818 0.824171 0.65894413
-0.041875914 0.624416 -0.49402672
0.8909108 -0.40880695 0.7327459
0.23149145 -0.06824726 0.10989535
-0.21922946 0.6028404 -0.42233002
0.034246504 1.46981 -0.10882105
-0.44829914 -0.22974005 -0.29275078
0.9000765 -0.091613404 0.5320395
0.88614285 -0.40163052 0.90575385
-0.06436 1.1325986 -0.06476575
-0.48082024 0.62336546 0.4836575
0.5475917 1.5689402 -0.38533252
0.30781612 -0.40600097 -0.9131215
-0.32516754 1.4003074 -0.13915223
-0.5218647 0.22803643 0.31120902
-0.3727823 0.7497909 -0.4051242
-0.13940947 -0.411817 -0.9062065
-0.19177914 1.4341147 0.2550543
0.44694573 0.6881827 0.25766367
0.26958996 1.4671209 0.6682355
-0.36372757 -0.41078025 0.54360235
0.575824 0.47876075 -0.32372487
0.20880577 -0.41213194 -0.75273
-0.16911118 1.6168306 0.13282149
-0.5394459 -0.046450436 -0.15819693
0.5365746 -0.10334888 0.9155762
0.7646247 0.42517385 0.09479954
0.54569924 -0.022348914 -0.11939593
-0.21013437 -0.25157893 0.7590664
-0.049410507 0.95337546 -0.9297718
0.116049215 -0.41658103 0.7447455
0.27259868 -0.2342503 0.010227935
-0.3423165 -0.41077566 0.15010238
0.27218342 0.2942776 -0.21755615
0.0048058936 0.74970424 -0.8987212
0.24992077 -0.24336359 -0.6058016
-0.1244161 1.3564694 0.77521306
-0.080490366 1.6271373 0.5466162
-0.24227905 1.0480201 -0.87646717
-0.45176032 -0.23815261 0.40504676
-0.19727656 1.8121364 0.0751022
-0.132368 -0.23961367 0.4759133
-0.35157922 0.71669555 -0.6355664
0.101687625 0.5939068 0.18007946
0.22587751 -0.25660622 0.7714093
0.9335395 -0.24814549 -0.7787336
0.44393918 -0.24622464 -0.6201779
-0.30338815 -0.24213997 0.024805788
0.2770455 1.2153851 -0.4616931
0.72427166 -0.40051842 -0.9168775
-0.7479181 1.3793335 -0.2497972
0.052942432 1.6346614 0.12884839
-0.34170085 0.32033733 0.1241696
0.14246807 1.5652981 -0.6357169
-0.923602 -0.2634188 0.4272136
0.4485072 -0.23555852 0.52519286
0.4046626 -0.23552981 0.35694852
-0.91224337 -0.1111226 0.16902655
-0.489999 0.5766562 -0.6967734
0.47302008 0.1777787 0.16320123
0.4207745 0.37082386 -0.3165576
-0.32434323 -0.058853958 0.11686682
0.0021764971 -0.047530733 -0.49956727
0.7033161 0.74673414 -0.026220743
-0.4050923 -0.23840642 0.7506945
-0.23262757 0.27382827 -0.20031458
-0.06851217 -0.23589209 0.29268038
-0.24811035 1.3940692 0.06954272
-0.42266533 0.8123299 -0.10886361
0.77873605 0.547757 -0.29974443
0.9021141 -0.08936988 -0.48502082
-0.31236732 1.10921 0.47225922
0.13980548 0.64844227 0.675135
-0.32294428 1.3205512 0.74276984
0.55371344 0.39336237 0.46349043
0.26866806 0.51381487 -0.23623832
-0.6463195 0.7227993 -0.62349725
-0.1668721 0.17314987 -0.5128393
0.38483667 -0.41297853 0.015644727
0.09020938 -0.40750048 -0.9069884
-0.16223364 1.1899931 -0.23416199
-0.72285604 0.7016679 -0.04549104
0.4232359 0.41134578 0.6025468
0.009402262 -0.41398925 0.9031116
-0.02719502 1.0647471 0.89045197
0.4562532 1.6898956 0.20368716
0.40934485 -0.04520281 0.22458744
-0.42718267 1.1236913 0.30459917
0.06848907 0.3582198 -0.73340744
-0.45124143 0.57868147 0.13033378
-0.20540784 0.8143774 0.17979187
-0.048530005 0.22336745 -0.10913201
0.26362163 -0.0814597 0.7228468
-0.90630215 0.8402001 0.06213034
0.47863966 1.1775934 0.7331705
-0.7388954 0.8488332 0.12121457
-0.042581305 1.7909598 0.24645786
-0.7300737 -0.08693625 -0.8998867
0.40351427 -0.4128545 -0.17941153
-0.07171698 0.35758984 -0.23563871
0.12675604 -0.23060462 0.6078362
0.89583373 -0.09301096 -0.088592134
0.88791937 -0.08371258 -0.7013329
0.5582048 -0.4095489 -0.2861007
-0.15931733 1.1962198 0.6292356
-0.4898215 0.8804992 -0.31254405
0.34466755 0.8712511 0.21511796
-0.2980837 -0.23230228 0.572963
-0.39107376 0.34937513 -0.29023957
-0.40597332 0.2388545 -0.48851436
0.39090216 0.615813 -0.77709377
-0.6348964 0.5246627 -0.53646016
0.5889083 0.5997982 0.34510902
-0.67559904 1.5306022 -0.08695209
-0.088507324 1.2606415 0.41847312
-0.61419666 -0.07790451 0.1425547
-0.7302549 -0.08534826 0.79775834
0.4974349 -0.22816814 0.22820038
0.018265266 0.073191315 -0.20010757
0.2098263 0.3391723 -0.41632807
0.19800198 0.67831355 -0.871326
-0.06442261 1.5993631 -0.6172247
0.7296085 1.2322292 0.45238444
0.3395493 0.47909868 -0.4431108
-0.37006295 -0.045278464 -0.26120478
-0.84071267 1.2018802 0.23333196
0.18351687 0.7789012 0.5163516
-0.090161316 0.2691113 -0.6547987
-0.3977302 0.14702703 -0.16850224
-0.83468914 0.8158723 -0.3310622
-0.54768825 0.5266434 -0.37404364
-0.42502013 1.4376097 0.59954345
-0.16230732 0.4328188 -0.06189148
-0.14400414 1.7222614 0.4080684
-0.92217207 -0.2613421 -0.21804625
0.5615778 -0.3991272 -0.075153396
-0.87484163 1.0010748 -0.24184829
0.8583342 -0.24984586 -0.9267703
0.45208892 1.1435208 -0.5457206
-0.20635498 0.3303781 -0.40060735
-0.37441403 0.5427294 -0.10673396
-0.3148237 0.66293263 0.22450422
-0.11909777 0.98106575 -0.16439685
0.09470646 0.23356551 -0.24978702
0.5786464 1.0766579 0.4090351
0.7518983 -0.25248367 0.5400358
0.8940942 -0.4087335 -0.684206
-0.05736421 0.9371834 -0.39146596
-0.36306366 0.3390035 -0.087682664
0.3307554 1.4954637 -0.63952154
0.41154397 -0.23714666 -0.10502258
0.37164205 1.7027721 -0.3443458
-0.17353791 0.15504862 0.393336
-0.2345576 -0.05329585 0.51127434
0.21730053 -0.40663198 -0.09715551
0.1384736 0.087222025 -0.05126773
0.66765046 0.6835866 0.16860394
0.31559992 1.7767633 -0.13630985
-0.8935056 0.8179675 -0.14132583
-0.029014207 -0.10209167 0.91303277
0.9061316 0.8140847 -0.02488596
0.009883203 0.55244184 0.027698256
-0.25451243 -0.08001788 0.71205187
0.4155789 0.3539124 -0.11979569
-0.35009825 1.5607643 0.025202159
0.38435078 0.54677314 -0.064231694
0.19915274 -0.25084284 -0.9230002
0.088398755 0.94348073 -0.24430634
-0.27709797 1.7594442 -0.25842088
0.55966467 -0.07997488 -0.5279683
-0.34854752 1.2943985 0.19647995
0.40126175 1.576551 -0.49276078
0.5797893 1.0782363 -0.4088382
0.9032153 -0.092118986 0.11222097
0.6262627 0.79437 0.3284033
0.6158237 0.49138296 0.17650759
-0.3108461 0.33618543 0.6146219
0.19122933 1.5596306 -0.35357863
-0.42535803 -0.4099049 0.8928431
0.11282916 1.3070841 0.43317106
-0.7315805 -0.250933 0.9174247
0.3599247 0.8100803 -0.8402038
0.57551897 -0.23712291 -0.4094545
0.6934979 0.9910587 -0.2615506
0.53736794 1.4493829 -0.5483837
0.33537564 1.3971791 0.1511005
-0.8270683 0.6472087 -0.2348578
-0.78762805 0.4885528 -0.12313775
0.39636058 -0.41094562 -0.75834215
-0.64500445 0.59805477 -0.21795075
0.6986688 1.385123 0.3429839
0.7226596 -0.41458532 -0.18194416
0.7157465 1.465368 0.14906844
0.7366034 -0.08745442 0.647118
-0.6139505 -0.25530803 -0.6136759
0.018065892 0.9292557 -0.030295245
-0.2537899 -0.40716478 -0.26363647
-0.36366856 0.14919111 0.25408846
0.19602102 -0.053848073 -0.50802267
0.18634999 0.49608022 0.7697993
0.055133767 1.6976037 -0.47425368
0.44127768 0.94610226 -0.3011758
-0.64479953 -0.08525231 -0.74108016
0.13944668 1.5859065 0.31549227
-0.5594984 0.2130855 -0.08784732
0.30981177 -0.23692057 0.61598885
-0.037880782 1.7822781 -0.30947548
-0.30491567 0.6333159 0.4180409
-0.36243713 1.5210979 0.21572597
0.89827836 -0.41078097 0.3256711
0.21678102 1.0524379 0.23981917
0.024853196 -0.23593865 0.763466
-0.7976221 1.1733668 -0.32991305
-0.5353533 0.9916987 -0.15918191
-0.51514953 1.096334 0.5153184
0.25544983 0.6961997 0.20437163
0.644438 0.6792694 -0.3768827
0.569306 -0.17369092 -0.04441543
-0.67510366 0.3394109 0.19564825
-0.60859275 0.7475276 -0.38622072
-0.3061334 0.6995554 0.019132689
-0.32860303 1.6558273 -0.4181971
-0.85354817 1.20705 -0.14998552
0.17952064 0.83088833 -0.096702434
0.6504123 1.546541 -0.23885757
-0.93179595 -0.2579769 0.63351893
0.47992545 -0.41645345 0.9030465
0.7031009 1.1202955 -0.0850489
0.15088743 1.4138825 0.23819193
-0.34459412 -0.05379639 -0.07519484
0.025684316 1.24242 0.83273983
-0.7929517 1.3778878 -0.044951357
0.063799866 1.0047624 0.37396806
-0.22158055 0.7787959 -0.52641577
0.072139114 -0.07250306 0.2576732
0.15181471 0.44049722 0.4787516
-0.125781 -0.41041958 -0.60903466
0.25276715 1.437422 0.45328075
0.89897215 -0.4081096 -0.48490268
0.18907213 1.3181398 0.596603
-0.44804493 0.9812182 0.0025127123
0.38237715 1.2774963 0.49935853
-0.16503775 0.37350404 0.40719724
0.13217437 0.4196974 0.14179367
0.43286532 1.2858055 -0.19732143
0.73019326 -0.41724133 0.020865865
0.044470582 0.48469543 0.63235474
0.057083793 1.4859743 0.4720451
-0.27157187 1.2637506 0.36654097
-0.067190886 1.141056 -0.88691115
-0.32624954 0.6756075 -0.82106006
0.119935915 1.5759124 0.6098821
0.58215797 0.30361885 -0.40907168
0.89439327 -0.41007352 -0.28599966
-0.57191324 -0.41094524 -0.3167777
-0.0012464235 0.29611832 0.30302525
0.0356372 -0.09488048 -0.9135456
0.5702869 0.99532247 0.01419919
0.07526248 1.7187922 0.42414105
-0.7267666 0.47280684 -0.33246574
-0.18587744 -0.40719748 0.60896593
0.5559508 1.3370693 0.19690686
0.22595587 1.1299795 0.46802324
-0.38386083 0.14995891 0.03178981
0.5361551 0.75637513 -0.53781074
0.01919892 0.9211523 0.18265627
0.76191866 -0.24379155 -0.73707664
-0.16149046 1.5006644 -0.059372608
-0.3188398 -0.41484553 0.7340901
-0.08711083 -0.41302264 0.7517588
-0.6153172 -0.25557366 0.72011495
-0.15427582 0.79454464 -0.71430296
-0.24872534 -0.2613924 -0.9212341
0.7294093 -0.41372347 -0.5780239
-0.5988548 -0.24112421 -0.42292625
0.7925477 0.5590924 0.24251394
-0.13505255 -0.056628816 -0.6026384
-0.032638818 1.299958 -0.62012136
0.68774915 0.5089195 -0.46936873
-0.36865035 1.117054 0.090878814
-0.18004003 0.81357086 -0.34948042
-0.5494956 -0.09328561 -0.91350305
0.2690824 0.9442811 0.43744934
-0.8426572 0.6794741 0.18748061
-0.27776802 -0.22273372 -0.37594065
0.5299777 -0.41270363 -0.89623207
0.39471036 -0.22595498 -0.46820915
-0.69809794 -0.4193761 -0.7977486
-0.32022193 -0.2564355 0.9211843
0.3795306 -0.40967757 0.2183267
0.012645802 0.71037006 -0.07784557
0.046337046 0.40590647 -0.5374
0.7880931 1.3821106 -0.0040457346
0.6982704 -0.4184749 0.8768782
0.5393826 0.19108503 -0.020431604
-0.56388193 -0.06186963 -0.3444289
0.65042543 0.62012434 -0.18505222
0.4998684 1.6633444 -0.2036641
-0.11914258 1.1342971 -0.6987915
0.67651963 0.38881773 0.30141944
0.042045105 1.4569793 -0.51279485
0.89660466 -0.40613353 -0.87905157
0.5611658 0.57839054 -0.63992876
-0.7492703 0.5245695 0.2863772
0.44703805 0.89294344 0.38076267
0.5468392 -0.25702232 -0.77330697
-0.35441935 -0.09152201 -0.9099199
-0.12436843 0.42651752 -0.76423657
-0.0072369208 0.36603624 0.49537814
-0.2189075 -0.22944029 0.1810112
-0.26629853 1.2395055 -0.08358586
-0.0010284705 0.5264156 0.80495834
0.16309491 0.84501517 0.29415452
0.34025094 0.37864828 0.42888904
-0.9222188 -0.2550844 0.0034966066
-0.010183703 0.28836772 -0.41869044
0.10266203 1.4013846 0.75707674
-0.8406535 1.1997489 0.03695707
0.3590383 0.9894718 -0.66318226
-0.09820621 0.796329 0.043082498
-0.6388788 0.78774405 -0.1924111
0.5758921 1.413002 0.49440077
0.008110428 0.1685816 0.48754096
-0.51470315 -0.41901502 0.7037804
0.7185042 0.86451447 0.13338351
-0.3231242 1.5798857 -0.19444525
-0.62785304 0.5153378 -0.03826409
-0.18784255 1.1854455 0.07545524
0.4959209 0.7569256 -0.2921197
0.90452266 -0.09269023 0.323281
0.24987602 -0.23114258 0.44500375
0.24734718 0.8664241 -0.32572943
-0.5125502 0.45532906 0.5719684
0.09235148 1.8205053 -0.14814924
0.047429845 0.3085075 0.6769029
0.071074426 0.20312348 -0.58007324
0.4968683 1.2016346 0.0006106321
0.35190558 0.69034195 0.604187
0.6241528 -0.24801245 -0.6035477
