0.62182236 1.2819082 0.50265884
0.5247633 0.38963526 0.04257372
0.48374987 1.4239743 0.24984968
0.742276 -0.2547192 0.756283
0.43472952 0.9057323 0.52062
-0.5527197 0.86388004 0.3749614
0.12819512 0.11288467 -0.39516503
0.6900132 1.1004912 0.53932416
0.29714596 1.6307439 -0.6064098
0.7607758 -0.24856368 0.93215895
0.46211097 -0.08666797 -0.72778463
0.0025211691 -0.40484452 -0.4726143
0.050795928 1.2908542 0.023376878
-0.7040508 0.9191363 -0.1766842
0.3276377 1.2835281 0.23552358
0.081976816 -0.17407969 -0.51663005
0.37697628 0.33275867 0.20347196
-0.32452524 -0.07195087 -0.58299065
0.16573519 0.5201066 -0.4260002
-0.9037597 -0.0956531 0.7233776
0.49301726 1.6260412 0.29288855
-0.5796188 1.3464673 -0.09855058
-0.46358436 -0.25365323 -0.92560863
0.41902888 -0.08456051 0.6374283
0.29559958 0.27122092 -0.6680963
0.89680696 1.2235394 -0.19410054
0.9209153 1.0555214 -0.28320435
-0.27115437 0.92534816 -0.035551064
-0.19189164 1.467004 -0.47829276
0.25988922 0.096116036 -0.24979231
-0.39982975 1.1828661 -0.24883127
-0.7157539 0.64167076 -0.4976586
0.032660738 -0.11896111 -0.17617881
-0.7145417 1.3910412 0.04665547
-0.72207737 -0.08670077 -0.42936108
0.3644992 0.97934926 -0.5375196
-0.58112633 -0.41370475 -0.10964646
-0.32199597 1.2115648 0.521014
0.13071412 1.2523135 -0.51665497
-0.23415427 0.68959284 -0.26773438
-0.035472058 1.1134343 -0.5846286
-0.2090317 1.0645099 0.5763995
-0.743827 -0.08102074 0.20391813
0.27751374 0.42955124 -0.8178896
-0.059965923 -0.08864175 -0.7666265
0.76210463 -0.25264445 -0.49267316
-0.518408 1.1227088 0.61509824
0.6346482 1.2378697 -0.6998093
-0.0959226 -0.21712022 -0.4640257
-0.11550957 0.92754865 -0.82522464
-0.09905362 -0.056619074 0.16521078
-0.74402213 0.9997189 -0.5296992
0.42483732 0.8866415 -0.1131551
0.1654123 1.2711498 -0.13378897
0.2629255 0.79979575 -0.6039874
0.92215514 -0.24899976 0.015277859
0.0955185 0.49157622 -0.8897493
0.87292576 0.67853147 -0.39754435
0.7157539 1.5381306 -0.16157669
-0.21160269 0.10639234 -0.11111781
-0.40328336 1.3042681 0.36934564
-0.10234739 -0.21830148 -0.2778197
0.89442813 1.1200393 0.2041428
-0.72465515 -0.42124325 0.77710915
0.36772186 1.110827 0.7468715
-0.49552983 -0.4191661 -0.7316202
-0.69783676 0.818592 -0.57906026
0.19893602 0.24064556 0.14955989
0.33384007 0.73874044 0.7616486
-0.5689757 -0.08817637 0.5056205
0.73947465 -0.088365294 -0.58133173
0.873274 1.0232165 -0.45246482
-0.097026065 1.4111851 -0.638069
0.34462172 0.13010989 -0.060014565
-0.016773352 -0.41447836 -0.76289904
0.7250954 -0.41973907 0.64976585
-0.091653675 0.56552947 -0.90867805
-0.4315967 0.60826373 -0.5630888
0.039050326 0.84084773 0.3571637
0.56747013 -0.050972708 0.11688198
0.19581434 -0.41136593 0.28191918
-0.34939834 -0.41438913 -0.5938386
-0.3443079 1.1802973 0.70320284
0.15117085 1.2375648 -0.9367447
-0.890296 -0.10018699 -0.9144052
-0.739174 0.9326917 0.37349844
0.080618635 -0.43390837 -0.26465288
0.4337783 1.0248287 0.038185555
0.538046 0.2725453 0.31119585
-0.07794531 -0.074298844 0.562295
0.12883717 1.6097465 -0.33761513
0.15535815 1.0639997 -0.19865817
-0.7615565 -0.24650812 0.3063624
-0.48571703 1.6435547 0.10560751
0.4491459 1.0703404 -0.17515022
-0.45813262 0.36747873 0.43276814
-0.8601565 -0.080666624 0.012478156
-0.47710568 0.6899385 -0.11461513
0.78828156 0.975127 -0.6016786
-0.17400834 1.2468 -0.7100192
-0.19131735 1.5365074 0.5423006
-0.33024612 1.7432632 0.0054890765
0.5977688 0.703426 -0.78133905
0.358023 1.5432165 0.19664142
0.7243582 0.82951045 -0.6893618
-0.3994553 -0.080279835 0.38937283
-0.6214823 -0.092130385 0.91170514
0.40756077 -0.07031843 0.43042475
0.5796218 -0.2713883 0.8986908
0.9215517 -0.24820112 -0.38723034
-0.89426744 -0.40731424 0.10059707
0.7892913 0.91372776 -0.12541255
0.91879046 -0.24881434 -0.18436062
0.58437276 0.38925642 -0.5707496
-0.5432446 -0.42163873 0.4890438
-0.09405777 0.13707586 -0.3330634
-0.7192316 -0.4167536 0.400975
-0.066368066 0.43237016 0.11532278
-0.29737055 0.92051077 -0.53501403
-0.8577529 1.0486479 -0.13315767
-0.00043197855 -0.4134162 0.56836593
0.18387981 0.25900948 -0.06898387
-0.6841041 -0.083569326 -0.04247325
-0.7124673 -0.41862285 -0.62519336
0.07491549 0.66558254 -0.77755743
-0.899769 -0.40469953 0.7162931
-0.9031884 -0.09389531 -0.5314839
-0.59659886 -0.24174085 -0.21137464
-0.3034243 0.8432164 -0.9235858
0.43002558 -0.25570226 -0.9242476
-0.5531113 1.4290383 0.3773251
-0.013270567 -0.40915686 0.36737412
-0.19069839 0.6434925 0.74834776
0.38064992 0.96190673 -0.92413056
0.43044293 1.3086286 -0.6181274
-0.48317996 1.3622952 -0.2849937
-0.5226326 -0.24735275 0.9145854
-0.42980874 -0.21700963 0.08667576
0.6659262 0.84787047 -0.4570771
0.0397366 1.4192368 0.19950362
0.012383013 0.24894047 0.08422465
0.16411197 0.13620888 0.34862182
-0.25362036 -0.42053065 -0.7534973
0.36678952 -0.2544878 0.9241798
-0.21105379 1.3726907 0.4554926
0.3655858 -0.066107966 -0.5585692
-0.13229159 0.93895006 -0.6267227
0.88831353 0.60128284 0.015936809
-0.45090228 1.3935926 0.20698026
0.40106958 -0.079839185 0.860149
-0.03379626 0.7568136 0.80830705
0.30922955 1.2967391 -0.40899724
0.333161 1.7427075 0.20237494
-0.35279983 -0.26014987 -0.7693317
0.7377161 -0.08416976 0.22366354
0.3220841 0.971444 -0.2554516
0.4395868 0.90997946 0.7366006
-0.45049533 1.5822425 0.29915857
0.54439485 -0.41696638 0.1283426
-0.67278856 1.0951955 0.43105742
-0.099022105 1.1159781 0.33903307
-0.027442923 -0.24728942 -0.63182503
-0.5321702 -0.08271812 0.7257836
0.81342185 1.3756704 -0.29885584
0.23020968 0.6149415 -0.085635036
0.9547611 1.0078337 -0.10923231
0.59037775 0.43329272 -0.15954429
0.6149063 1.367722 -0.37389398
-0.071593896 1.6003056 -0.3458649
0.44890863 0.26381394 -0.54955924
-0.09686722 -0.42169112 -0.14787808
-0.73737884 -0.41684094 -0.21518138
-0.2675678 -0.40963894 -0.07882742
-0.22883038 0.49924985 0.22129609
0.90415466 -0.08991639 -0.897839
-0.36770985 -0.4118573 -0.902421
0.1159948 -0.24210481 0.31657508
-0.89543945 -0.09391838 -0.33721972
0.010834118 0.8003589 -0.27812982
-0.12660286 0.45968074 0.6766261
-0.62144446 0.70911306 0.06080278
0.047939606 1.8361754 -0.07023525
-0.06874804 1.2863975 -0.4998034
0.92509794 -0.24892509 0.22769131
0.14897731 -0.4076285 0.45087445
-0.028739922 -0.25811294 -0.91726816
-0.9154159 -0.26100433 -0.87224436
-0.17864338 -0.4025241 0.25243956
-0.6411376 0.6132427 0.4204797
0.07283974 0.8789451 -0.83604276
-0.21312141 1.204717 -0.9082912
0.7502625 0.77557796 -0.27440554
-0.30919307 0.13437158 -0.36446765
0.6719659 1.3029512 -0.1968444
0.43776432 -0.24510354 0.75324
0.023134708 1.3529818 0.51320505
-0.38761386 1.4990993 -0.6350663
-0.10292397 -0.25717294 -0.08664015
0.78880644 0.89835453 0.45045874
-0.20079851 0.12448748 0.13754587
-0.19525889 -0.4164359 0.44026715
0.23806562 -0.076726586 0.528344
-0.2449022 1.0457909 -0.1999324
-0.26766405 1.2621589 -0.39572525
-0.4660377 1.275604 -0.45373553
-0.36100504 0.98304904 0.72265685
0.39574397 0.57889175 0.67544734
-0.54568076 -0.08547379 -0.5539619
0.08490851 -0.060684927 -0.67622566
0.24730086 0.9420425 -0.013617205
-0.77414876 1.1388899 0.27969757
0.42708787 0.75595 -0.70866394
-0.6409477 0.7818648 0.5040228
-0.40696597 0.9984528 -0.679899
-0.0630826 0.97840333 0.46198902
0.054033123 -0.3014149 -0.1850926
-0.76093185 -0.24949616 -0.109350294
0.0051647965 1.5224035 -0.49450517
-0.26666862 0.8923067 -0.3219039
0.31012368 1.0360632 0.5786333
-0.2572506 -0.22164986 0.36053973
-0.4405914 0.4332506 0.15765606
-0.49829555 1.0334704 0.08933413
0.30578342 0.107016 0.14455935
-0.09211284 1.2799113 0.1418655
-0.8965626 -0.40686706 -0.10640552
-0.5777947 -0.40535748 -0.91703546
0.58064026 0.58429945 0.55931497
0.1293236 1.1110909 -0.80704147
0.2784737 1.3626385 -0.8629075
0.46622387 1.2846395 -0.8048257
0.09761571 1.2471089 -0.30947447
0.38161758 -0.064446494 -0.18539055
-0.5333021 -0.41608837 0.29045585
0.080614 -0.019685617 0.4353006
0.10753238 0.08233337 0.1578605
0.9349438 0.8547072 -0.2805472
0.74450135 0.35819846 -0.2678886
0.7376077 -0.0871824 -0.9017384
-0.40952572 -0.24236578 -0.47749484
0.22807497 1.8091307 -0.097784534
0.09787722 -0.23831014 -0.036120787
-0.21511298 -0.40303707 -0.45738313
0.47702822 0.5593627 -0.2871861
0.42576796 1.0960258 0.25044513
0.33484972 -0.4154856 -0.5805118
-0.2470262 0.30059174 -0.6741471
-0.4805338 1.6665329 -0.097516365
0.41797057 -0.41299528 0.6103368
0.5357156 1.6847448 -0.1272298
-0.09467913 -0.03629568 0.38376296
0.4377098 0.78723997 -0.5072884
-0.29729396 1.7646978 -0.19391754
0.22949883 -0.40176433 0.9104494
-0.19521497 -0.019287448 -0.43348056
-0.0344229 0.10993591 0.2653523
0.1900126 0.62892187 -0.58243954
0.44021457 1.1088426 -0.3960023
-0.6066991 1.2412097 -0.26780885
-0.26263326 -0.21918893 -0.18847436
0.86163116 1.2149639 -0.40056133
0.54198146 -0.4111135 -0.49023432
-0.3833611 0.81549287 0.26384917
0.17042696 0.9376602 -0.5237297
-0.41855472 -0.24067676 0.26040018
-0.4116737 -0.040173613 0.19077599
-0.16106641 1.0208879 -0.4243552
0.8937099 -0.097302094 0.9089664
-0.02162237 0.45447809 -0.40940464
0.9266851 -0.2530553 0.8626468
0.12023715 1.406415 -0.40208286
0.20373759 -0.40947074 0.09616459
-0.06832726 0.93462527 0.6634505
0.38580388 1.7654338 -0.030511387
0.30628547 0.13572055 -0.4913938
0.7050376 1.1829958 -0.35739756
-0.43024832 0.6883277 -0.30276704
0.45767415 1.392719 0.5811095
0.7270775 -0.4174983 0.4285491
-0.5255223 1.1061984 -0.7765652
0.5439832 -0.0539752 -0.31008226
-0.4883507 0.8970947 -0.8262904
0.72195804 -0.41712362 -0.38757926
-0.8972343 -0.09533164 -0.15010086
0.83202493 0.47049224 -0.122909516
-0.86737883 -0.09344579 0.9090346
-0.83569455 1.0635996 0.07163365
-0.1460113 0.83176947 -0.16079637
0.33359832 0.49948487 0.07098313
-0.17575324 0.2712152 -0.00013745908
0.35838133 1.5861437 -0.3002863
0.28101858 -0.21886033 0.21835804
0.1650826 0.7688569 0.0360822
-0.12004088 0.7782386 0.45920295
-0.11187112 -0.2625233 0.91819394
0.56827354 0.89332974 -0.83058655
0.76249576 1.1683092 -0.57410806
-0.09355581 1.4869757 0.35979295
0.24192442 1.2534602 0.051799152
-0.1572254 1.2412529 0.7417245
0.30681437 1.1220167 -0.065246984
-0.10854375 0.57495344 -0.712591
-0.49539322 0.22426946 -0.3229767
-0.731271 -0.4154263 0.000808641
0.1638261 1.1929269 0.59571844
0.7182974 -0.083340205 -0.19041604
0.7272736 -0.0814407 0.014452705
0.5186477 1.4694674 -0.24060717
0.70153177 -0.41611224 -0.76183796
0.36545783 0.7357373 -0.015772942
0.28326535 1.4154878 -0.2579005
0.6104765 0.22646055 -0.22291684
-0.4539441 -0.08473459 -0.7405783
0.64950675 0.27795875 0.13766274
0.33125332 0.64093935 -0.428598
0.73580205 1.3585069 -0.50911236
-0.45212758 1.465231 0.011946602
-0.754633 -0.25200272 -0.32148677
-0.41906893 -0.40897197 -0.20072761
0.8305628 0.7215856 0.3348872
0.38627845 1.3204556 -0.11199482
0.22356921 0.8314853 -0.9747994
-0.769048 -0.25514892 -0.5257051
-0.30328667 1.3283553 -0.58958995
0.24972972 -0.39833194 -0.28498274
-0.58622515 0.535201 0.122194804
-0.64053464 0.9405942 -0.38217515
0.4726238 1.1049888 0.45819885
0.10288268 -0.23519555 -0.76194745
0.24963339 -0.03421682 0.32735008
-0.09420153 0.9482658 0.22678955
-0.5467106 0.87768424 -0.07284339
-0.89267135 -0.41144377 0.31373158
-0.86298996 -0.40333143 0.90512455
-0.6937702 1.3388873 0.25375623
0.3339879 -0.41672558 0.7688139
0.7097732 0.72995377 0.5089487
-0.5724259 -0.25156343 -0.7900256
0.23308574 -0.22440302 -0.20201525
-0.8933182 -0.40590394 -0.73221326
-0.38275045 1.2212042 -0.8132888
-0.15814248 0.78248364 0.271299
0.6483145 1.6080463 0.0001867653
0.5939795 1.0810823 -0.26157555
-0.5888679 -0.24561891 -0.009374376
0.7741389 1.0591049 0.039296668
-0.89443696 -0.4095186 -0.32401067
0.8565339 0.8337281 -0.48996937
0.35518074 0.1687688 0.3310504
-0.62204623 1.5394788 -0.026430642
-0.7253687 -0.41569954 0.20391461
-0.3536941 0.7645062 0.71516144
-0.7425699 -0.08681223 -0.61042845
-0.21293041 -0.41221583 0.9011524
-0.6348734 1.2636821 0.44252652
0.9228376 1.1736434 -0.0040609445
-0.7546996 -0.24189474 0.09494101
0.050413255 0.49762005 0.26862258
-0.4315235 1.4978354 -0.19267067
-0.49364814 0.44880435 -0.22512099
0.26468086 0.6035147 -0.74370015
0.24002126 0.7849305 -0.79246986
0.33254504 1.1632131 -0.9179642
-0.5402146 -0.41551793 -0.5291432
-0.39024645 1.0052133 0.51559424
-0.24883528 -0.010774197 0.29237628
-0.90108514 -0.09596531 0.3370762
0.081768975 -0.08762986 0.65161884
-0.4299147 -0.22540635 -0.105545595
-0.64232004 1.290902 -0.54173607
0.50480735 0.6098317 0.06337345
0.4051155 -0.025543489 0.018890861
0.20110594 0.2556613 0.5056211
0.7758003 -0.24786368 0.121024616
0.54661924 0.68788314 -0.13081563
0.18960135 -0.08128306 -0.89224005
-0.3735829 1.319916 -0.09407471
0.5969768 -0.24726564 0.42414916
0.35401493 0.75325763 0.3425395
0.5027256 1.5268302 0.06264433
0.106959246 -0.23985246 0.1420761
0.72184265 1.2461414 -0.010375047
0.59077966 1.1242439 0.11292255
0.050708976 0.96325696 -0.6796673
0.018379327 0.7408793 0.19233257
-0.3949597 -0.41326803 -0.397122
-0.7148052 -0.08892788 0.61697423
0.5380311 -0.4136647 0.32834288
-0.8936176 -0.092528336 0.52974033
-0.60371006 1.498017 0.17664108
0.013657253 -0.4115393 0.18232003
-0.6218157 0.9310697 -0.70316947
0.7550298 -0.25232908 -0.28699332
0.44898224 0.59005487 0.39623255
0.029144708 0.9359746 0.83380497
-0.92073035 -0.26753324 0.2128019
-0.23139477 -0.093618855 0.8996539
0.16994542 1.1008288 -0.6139358
-0.85022295 -0.40627623 -0.91454136
0.37281394 0.72472274 -0.23018049
0.28057772 0.52206653 0.26628983
-0.5564889 -0.4129097 0.10360889
0.53176177 0.57520235 -0.48317862
0.22922267 1.6262596 -0.16348067
-0.3577759 1.0715182 -0.4039286
-0.92484313 -0.24834242 -0.6459728
0.8967445 -0.088458315 -0.28737712
0.6715759 0.5468541 -0.029428381
-0.667601 1.0877423 -0.23082264
-0.24584073 0.9310392 0.3725143
0.27483028 0.58900297 0.49434584
-0.47555268 1.3176763 0.5613956
-0.0029037194 -0.05405546 -0.37604102
0.5628332 0.8086542 0.020226099
-0.5033506 1.2816498 0.07362883
0.16796502 0.6665969 0.314326
-0.7237662 -0.41788566 -0.42729563
0.38548887 -0.41027683 -0.39417946
-0.09945268 -0.08468269 0.74594903
0.18656003 1.1402442 0.791306
-0.47201002 -0.033301476 -0.0022276398
0.5404272 -0.42003095 -0.67051375
-0.41266948 -0.09304194 0.5856895
0.013996661 1.4728322 -0.0021935948
-0.67227834 0.36291453 -0.05012884
-0.42241138 -0.40601203 -0.008493463
0.2645774 0.44584376 -0.60856533
-0.638473 0.35073096 -0.25668293
-0.08837363 1.6745358 -0.5683421
0.4867754 0.48583013 0.23583716
0.5973878 0.8722871 -0.20054352
-0.071147054 -0.23883945 0.08984287
0.57987875 -0.08660193 0.53564143
0.14585067 0.75954354 0.801064
-0.70216453 -0.41337255 0.60181653
-0.19308801 0.85506785 0.7878423
0.55226386 1.2436724 -0.4893881
-0.88941824 -0.089509025 -0.737571
0.94177544 0.9578842 0.07922232
-0.564638 1.2039185 0.25952417
0.22606017 1.2848916 -0.71617424
-0.08629251 -0.40350658 -0.33069152
-0.24772552 1.0717504 -0.73751736
-0.20490098 1.5460272 -0.69650936
0.6167302 0.94925356 0.4310758
-0.39332423 -0.04588557 -0.43140385
0.24588254 -0.10809369 0.91809213
-0.766564 -0.242834 -0.74429667
0.72568643 1.2012206 0.1984634
-0.42129475 1.1589372 -0.59674853
-0.3163105 0.9729337 0.16208564
-0.29260123 1.4650694 0.29193187
-0.26597995 0.4579687 -0.80714226
0.11109723 0.7433529 -0.4448154
0.12290995 0.99938536 0.6771598
-0.55736184 1.1182898 -0.41741365
-0.0042303414 1.5442255 0.5664855
-0.17827167 1.609945 0.21886522
0.042342555 0.37702936 -0.0713341
-0.066303924 1.8119893 -0.2542029
-0.03719178 1.3163402 -0.15453689
0.0560532 0.51954395 -0.2074761
0.053612754 -0.072391436 0.0292323
-0.49903697 0.8797208 0.64009917
0.25875902 0.86485255 0.6329267
0.72382283 -0.41862148 0.22688387
0.41911048 -0.21842167 0.07758877
-0.8414177 0.6746471 -0.08791247
-0.47619492 0.4147018 -0.023796462
0.23488653 0.43040305 -0.095954
0.10618876 1.0994856 -0.00048943446
-0.41993392 -0.08801274 0.88929176
0.3021354 1.1934175 -0.2512496
-0.33278304 1.7101402 0.21060035
-0.442998 0.7260695 -0.8228147
-0.18461648 0.47481865 -0.2750572
-0.92524695 -0.25116438 0.86490846
-0.27441996 0.6804219 0.5531588
0.35545856 -0.4160491 0.42391828
-0.20405295 1.1115317 0.15979494
0.033866417 -0.4163047 -0.013478349
0.3990144 0.2829664 0.47928834
-0.42446274 0.81901526 0.06367129
0.18974261 -0.40534693 -0.4537748
-0.43063688 0.54775405 0.29028165
0.21094514 1.4495351 -0.056454178
0.047291704 0.6517593 0.44912773
0.9091822 0.6575841 -0.18887231
0.2186444 -0.057018198 -0.09650158
0.71040094 0.30598527 -0.061328255
0.23708367 0.9636965 -0.7557524
0.44816858 0.4033797 -0.70687056
0.13806598 0.99722135 0.48589355
-0.1578307 -0.41260132 0.066335954
-0.16346231 -0.030265145 -0.24197097
-0.49794024 0.6834059 0.6069945
-0.50378704 1.318449 -0.6923231
0.898217 -0.40864456 0.123989284
0.84962296 1.3051336 0.12777063
0.556111 -0.4152764 0.74080557
0.08074931 1.4203566 -0.8454321
-0.23820499 -0.24270996 -0.5929774
0.55457497 1.2608795 0.2884524
0.8951274 -0.4096381 0.5340036
0.29417384 1.6137197 0.035965882
0.36144456 -0.08909446 -0.9093667
-0.033756983 1.2703259 -0.91226995
0.09953682 -0.078078456 0.8494953
0.032296665 1.6545753 -0.15713835
-0.18333416 1.7806141 0.11556989
0.30364627 1.6608479 0.38394684
0.64415133 1.5553141 0.20079088
-0.5254308 0.97362006 -0.5356996
-0.25409088 -0.089112215 -0.75207937
0.7221478 -0.08365051 0.87300575
-0.7221181 -0.08439868 -0.23023713
-0.44485617 -0.2420269 -0.6346456
-0.4385592 1.6720797 -0.2848299
0.6716769 1.040662 -0.72919416
-0.58581454 0.8600049 0.1876863
-0.2846743 0.86372495 -0.7391391
0.4087885 0.5908364 -0.61703014
-0.06899828 0.7027296 0.6265856
-0.26667476 0.5179307 -0.6271703
0.45877784 0.12465694 -0.21191947
0.9085913 0.75018454 0.1421735
-0.35753912 -0.414443 0.35560948
-0.30769902 1.3857851 -0.7839616
0.24877429 0.9427015 0.8124906
0.7396978 -0.085414834 0.4348079
0.40232834 1.5420666 -0.108548164
-0.92350703 -0.25542647 -0.42823863
0.45190895 1.5310782 0.44766164
-0.12783329 0.29935598 0.5511119
-0.88539124 -0.41048762 0.5189445
0.5576227 0.91430044 -0.6088338
0.5441683 0.759622 0.4353341
-0.31134096 0.25221735 0.42530644
0.52953184 0.7464367 0.6615328
-0.14711425 -0.25773484 -0.7653895
-0.71018684 -0.26274508 -0.9288502
0.43212438 1.2211188 0.08673208
-0.091896355 -0.24094467 0.6263215
-0.16243076 -0.092373595 -0.91923904
-0.8200203 0.9150579 0.19733472
0.14140916 0.38172263 -0.29382515
0.5763749 -0.09125916 0.74453306
0.04584141 0.7832504 -0.6349776
0.19448024 1.8017592 0.09667826
0.23112115 -0.41937014 0.59930915
-0.43449602 0.38841343 -0.65094125
-0.26436427 0.49387717 0.029269688
-0.5577856 1.5336473 -0.3781723
0.043691892 -0.2051667 0.46483365
-0.6070094 0.97284544 0.5321625
-0.74440557 0.7539562 0.30920362
0.74357617 -0.2522243 -0.08437371
-0.22993252 1.1376973 -0.5517085
-0.011541775 1.1095738 0.14784002
0.72266173 -0.08519648 -0.3902858
-0.63903075 1.1333292 -0.63093495
-0.76810086 0.5326632 0.032278858
0.5727077 -0.07793779 0.32746658
0.28162336 1.4085916 -0.575529
-0.0779448 1.3879848 -0.3355047
-0.2560141 1.6381867 0.39043808
0.4389355 1.4358778 -0.4288392
-0.46232593 1.0024083 0.3034534
0.3513481 0.2948438 0.029487142
-0.1621727 0.28847155 0.20654038
-0.38521683 0.82821727 0.4779482
-0.03734242 0.6299572 -0.3271863
0.3123573 -0.2408165 -0.7803566
-0.0895223 0.6041918 0.31569356
0.60812795 -0.2607922 0.063565224
0.63851094 -0.2513259 0.24356923
-0.37109432 1.4407833 -0.42079854
-0.12046501 1.4099731 -0.83109826
0.1041126 -0.40635934 -0.614402
-0.12570837 0.7718754 -0.9682833
0.64630973 -0.2448639 -0.91919065
-0.60503477 0.45047516 0.3314482
-0.5964761 -0.25509775 0.20311633
0.566917 -0.4157789 0.5214592
-0.1089002 0.9984817 -0.0062780296
0.34142283 1.127871 -0.7356248
0.057011873 0.8336513 0.5848733
-0.6511146 1.0294049 0.209966
-0.13029587 0.5458925 0.5078631
0.8978629 -0.09321803 0.73546946
-0.5414419 1.4476314 -0.5375502
-0.57011837 -0.08995261 0.3078192
0.45810518 0.16555285 -0.3826894
0.35028493 1.2131884 0.5605585
0.2897676 1.3189015 0.70535237
0.7307191 0.99681044 0.22774798
-0.1233976 0.6152102 -0.12082659
-0.11204132 0.62203085 0.10258676
-0.60433805 -0.25735873 0.40001976
0.18267465 0.6643088 -0.28374895
0.91832364 -0.25240266 0.64830005
0.19080585 1.028789 -0.97590494
0.41027665 -0.22984874 -0.2933786
-0.5272953 0.23680711 0.078568935
-0.53870094 -0.2587796 0.5927915
-0.30449688 0.5090906 0.43089974
0.9244024 -0.25065905 0.44125682
0.5902215 -0.25467145 0.6451093
-0.52694035 1.1651945 -0.094610274
0.5707884 0.9380634 0.15631253
0.8878144 0.90685594 0.26745808
0.20354596 0.33216 0.31577146
-0.3393441 0.5442107 -0.357237
-0.74361753 -0.25034228 0.5281645
0.24420339 1.746703 -0.42632324
0.0029751696 1.609443 0.19269639
0.5471019 -0.08804471 -0.9108752
0.26580352 0.4023605 0.6193055
0.108799845 -0.24705377 0.9277115
0.6507576 -0.08348096 -0.7336725
0.043939106 1.0904493 -0.40626797
-0.05717746 0.08413417 0.022185192
0.5199075 1.0969418 -0.8413314
0.18223815 -0.066687405 -0.30931303
-0.7886375 -0.25251895 0.7236506
-0.7342019 -0.08530832 0.4133125
0.54131293 1.0444055 0.65834594
0.23645295 1.0862291 -0.40263578
0.12362972 1.212287 0.20974372
-0.33665448 0.5506542 0.6541326
0.5785343 -0.23551062 -0.2067512
-0.18225789 1.049254 0.7872617
0.81485486 1.0741231 0.38202372
-0.54576236 0.68667454 0.24145669
-0.15703523 1.6697462 -0.17582548
-0.6253108 -0.40435657 0.906724
0.25925946 -0.21057178 -0.4138276
-0.5471821 0.35031673 -0.46521837
-0.4101272 1.6162324 -0.4615317
0.77611864 -0.2506494 0.34051675
0.91723466 -0.24334663 -0.5941876
-0.12654665 -0.07845761 -0.051191263
0.0659488 1.170118 0.4268077
0.37151724 -0.024097648 -0.3818013
0.64161015 0.89489806 0.6083993
0.579301 1.4108756 -0.0692213
-0.6650071 1.0490406 -0.040494367
-0.3589614 1.0384526 -0.8943403
0.8957529 -0.40866977 -0.08075767
0.7260376 0.55210626 0.4138942
-0.10205746 0.40840077 -0.58990073
-0.32562593 0.36084932 0.28905097
-0.3354938 0.42234877 -0.4942901
0.08261338 -0.2522989 -0.35446525
0.7668673 0.66589415 -0.58972466
-0.45300597 0.80772305 -0.619869
-0.017044414 1.1305625 0.6131661
-0.6472644 1.1881431 0.07626508
0.26389605 -0.07986766 -0.71402174
-0.89343715 -0.4079855 -0.53266495
0.07491667 0.49397057 -0.6954433
-0.23258713 0.87160873 0.5910176
-0.003395523 0.60665566 -0.54023373
0.89100695 -0.40915054 0.73383296
0.236038 -0.064934544 0.1104777
-0.18223247 0.5725458 -0.46427643
0.08711777 1.4612448 -0.21176401
-0.42813292 -0.2318388 -0.29546887
0.9016931 -0.09096503 0.5373198
0.8822349 -0.40318042 0.9060005
-0.021112889 1.1250234 -0.15664354
-0.45906156 0.67620385 0.42046857
0.6033428 1.5396948 -0.48135868
0.306486 -0.4043739 -0.9161377
-0.2641045 1.3940978 -0.2474315
-0.50489056 0.28410766 0.26721886
-0.3184749 0.7285611 -0.47021976
-0.13958329 -0.41015506 -0.9098646
-0.1401431 1.4501727 0.15100536
0.5045599 0.7293408 0.21261421
0.3005462 1.5156226 0.5620689
-0.3785109 -0.41463634 0.56031233
0.6131141 0.46098226 -0.35852516
0.20549856 -0.41292846 -0.7530532
-0.115651146 1.6245489 0.014942786
-0.5245557 -0.056185037 -0.16742076
0.55023926 -0.10632208 0.9203744
0.794384 0.42082077 0.07733511
0.5534861 -0.0014300125 -0.106262974
-0.21314764 -0.25429064 0.7598534
0.015944622 0.9050299 -0.99550813
0.115302384 -0.4186939 0.7450311
0.26233152 -0.23052941 0.009856598
-0.34752643 -0.4080686 0.1558063
0.30138206 0.27273062 -0.24191147
0.0654656 0.69871104 -0.9650202
0.23087922 -0.24382484 -0.5997414
-0.09116564 1.403203 0.6655235
-0.04024422 1.6645195 0.42647517
-0.17999998 1.0045046 -0.9689705
-0.43056864 -0.25644 0.44255242
-0.13951173 1.8171642 -0.060520813
-0.12234368 -0.25321096 0.45835853
-0.29766694 0.68531466 -0.69389594
0.14171022 0.60188806 0.12492281
0.22200514 -0.2536605 0.7804234
0.93199956 -0.2472349 -0.782645
0.4241335 -0.25203687 -0.63517046
-0.26616365 -0.23595923 0.0090142125
0.32981974 1.1801937 -0.5488943
0.72355384 -0.39954916 -0.91895175
-0.684905 1.3779505 -0.36969793
0.10408842 1.6403642 0.018749535
-0.32653314 0.31174678 0.09301694
0.20377564 1.5319622 -0.74417794
-0.91758084 -0.25781032 0.4223578
0.44528106 -0.2463113 0.5225053
0.4033858 -0.24453938 0.35083187
-0.912246 -0.105024815 0.15867674
-0.44426918 0.5499721 -0.7567253
0.48825693 0.15894562 0.15103197
0.45481354 0.34985292 -0.32334736
-0.27278572 -0.03553147 0.074733466
-0.008323107 0.061619796 -0.5355598
0.7455074 0.73068786 -0.071980834
-0.41352785 -0.24503231 0.7415122
-0.2154498 0.2564582 -0.2263053
-0.06987968 -0.22303663 0.28027737
-0.18721402 1.396862 -0.033256426
-0.3747405 0.83677983 -0.18038495
0.8247537 0.5181985 -0.3213755
0.9033736 -0.088115945 -0.49129403
-0.28549445 1.1105368 0.36337587
0.16790551 0.6893631 0.6218771
-0.28852874 1.3707254 0.63785005
0.5795551 0.4149282 0.43635923
0.30101645 0.4927104 -0.2707301
-0.59509397 0.69938517 -0.69234085
-0.19046992 0.15586227 -0.54115707
0.38152164 -0.41112754 0.016270459
0.090317145 -0.4059822 -0.91023785
-0.111217886 1.1802237 -0.32999527
-0.68844163 0.7298873 -0.11485636
0.44665384 0.44674116 0.5695354
0.01322726 -0.40817496 0.90578234
-0.00597266 1.1198313 0.80414045
0.5006844 1.6980398 0.101583764
0.41375124 -0.02949606 0.23386729
-0.3899042 1.1703007 0.20019403
0.11581291 0.31724802 -0.7628036
-0.43212596 0.6094081 0.053343423
-0.19894946 0.8295014 0.10574441
-0.036221765 0.21061799 -0.120917425
0.25760317 -0.08530924 0.7256253
-0.8630407 0.8747174 -0.020006284
0.51038086 1.2206614 0.64537585
-0.6958351 0.88986176 0.04600498
0.0061417962 1.8086317 0.11816901
-0.73104477 -0.086468436 -0.9015207
0.39752272 -0.41396412 -0.18319944
-0.046747774 0.33879068 -0.26286337
0.12283505 -0.26195452 0.60810494
0.89675975 -0.08899194 -0.0857549
0.88525563 -0.08288117 -0.7058333
0.5536635 -0.41210026 -0.28772116
-0.13056323 1.2290988 0.5173391
-0.44216216 0.87404305 -0.3937255
0.37254575 0.8773509 0.14184171
-0.29425985 -0.25104827 0.57424355
-0.36110207 0.34848243 -0.3146724
-0.37855285 0.238202 -0.51230633
0.44545102 0.5709157 -0.8218964
-0.5950328 0.5110634 -0.59602785
0.6263893 0.62050664 0.3064834
-0.61471474 1.541372 -0.21479528
-0.041013032 1.3005121 0.3295591
-0.5908736 -0.08788268 0.11772121
-0.7294491 -0.08315644 0.7904544
0.4856609 -0.22444837 0.21944147
0.030250765 0.05010496 -0.18742135
0.2493453 0.30285347 -0.4351403
0.25691897 0.62320197 -0.9258072
-0.0022256996 1.5679458 -0.72769505
0.76722306 1.2582448 0.37140703
0.39069784 0.44465292 -0.46921206
-0.3592485 -0.03566757 -0.27124387
-0.80095375 1.2470099 0.12383908
0.21332179 0.80869186 0.4523635
-0.04885662 0.23091297 -0.6679349
-0.4035891 0.12716347 -0.18282911
-0.7891202 0.8196291 -0.41002685
-0.5117229 0.5268109 -0.41561425
-0.38381612 1.4870046 0.48022598
-0.13977243 0.42731467 -0.09629567
-0.09722563 1.7525291 0.28289938
-0.92125726 -0.25842094 -0.22070053
0.55632293 -0.4022634 -0.07595259
-0.8278687 1.0107931 -0.33453608
0.8554266 -0.25046557 -0.92928135
0.5069044 1.1068832 -0.62646824
-0.18766382 0.3204792 -0.42801535
-0.3392855 0.53991175 -0.14868492
-0.3042354 0.66713786 0.16659203
-0.06476471 0.9765781 -0.2642228
0.10602799 0.21561924 -0.25050196
0.61553514 1.1015146 0.33448404
0.75232863 -0.25361824 0.5442771
0.8927006 -0.40859425 -0.68634725
-0.009065153 0.9101523 -0.47758904
-0.34352326 0.32315743 -0.113502726
0.39130056 1.4611437 -0.7393285
0.40091074 -0.2419196 -0.1042154
0.43175757 1.6766461 -0.44454783
-0.16393918 0.17320505 0.37658572
-0.24279924 -0.08162071 0.50582874
0.21422353 -0.41024452 -0.09847767
0.14694852 0.09940384 -0.032118633
0.70410836 0.6896583 0.12425107
0.3709603 1.7683582 -0.25083578
-0.85219145 0.8358816 -0.22062282
-0.04554026 -0.099454574 0.91499627
0.9494752 0.8009443 -0.060679596
0.038519777 0.5577086 -0.00942065
-0.28908437 -0.08428119 0.7129961
0.43743265 0.32748532 -0.12998107
-0.29341954 1.5622443 -0.09292795
0.4211408 0.5322144 -0.10187737
0.19662435 -0.24932428 -0.9277046
0.13304535 0.92282903 -0.3235171
-0.21391045 1.7446405 -0.38593847
0.5493695 -0.07662788 -0.5206294
-0.2974778 1.3192477 0.09899957
0.45567423 1.5474098 -0.59212625
0.6279253 1.0451174 -0.47821614
0.90180993 -0.088578716 0.12006223
0.67927235 0.8184008 0.2810136
0.6446501 0.5026418 0.1469763
-0.29554302 0.39025646 0.5680659
0.25008264 1.5350249 -0.4546597
-0.42794088 -0.4090915 0.89574003
0.15953904 1.3296854 0.33832324
-0.7388551 -0.24854557 0.9195056
0.41682243 0.76213205 -0.9010651
0.59362173 -0.24087542 -0.39611846
0.74279714 0.9675545 -0.32201985
0.5835972 1.4097505 -0.6352607
0.381952 1.4005303 0.058617976
-0.7913737 0.6567012 -0.3022592
-0.75869775 0.50330126 -0.17873728
0.394962 -0.41327447 -0.7631258
-0.6079519 0.6094265 -0.27273047
0.734584 1.4030211 0.25351256
0.7215047 -0.4172793 -0.18303162
0.760336 1.4723258 0.0542344
0.7377826 -0.08599048 0.64965594
-0.61716723 -0.25650293 -0.6169039
0.051722847 0.91969156 -0.10314596
-0.25254765 -0.40121546 -0.27129102
-0.35883945 0.16571379 0.23458719
0.1914922 -0.019732304 -0.5217075
0.20779815 0.5489709 0.7347889
0.11662723 1.6657739 -0.5836296
0.48929536 0.92400026 -0.36128208
-0.644071 -0.08322331 -0.742589
0.1824739 1.6030085 0.21217805
-0.5407362 0.23333967 -0.118779294
0.30363214 -0.24777597 0.6151353
0.020836178 1.7611748 -0.42745686
-0.27171072 0.67829823 0.3626837
-0.309605 1.5408626 0.09936021
0.8986206 -0.40908027 0.32809603
0.2533034 1.0634485 0.15860401
0.015996657 -0.246382 0.7680613
-0.7446177 1.1707196 -0.43587005
-0.4896609 0.99849063 -0.25090945
-0.48586768 1.1386327 0.42417437
0.32303888 0.6765621 0.16154152
0.68759274 0.65119755 -0.41375363
0.5537332 -0.16054307 -0.05555466
-0.6544453 0.38031614 0.1466724
-0.56226444 0.7346029 -0.46079904
-0.2727816 0.7086898 -0.042241618
-0.25996688 1.6374227 -0.53947115
-0.80274206 1.2179779 -0.2594632
0.2179506 0.82423246 -0.16616218
0.71006334 1.5192671 -0.34247476
-0.9266551 -0.25273684 0.62174594
0.46477085 -0.41157907 0.9051586
0.7532118 1.1089954 -0.15760517
0.19979323 1.4279447 0.13881516
-0.31919104 -0.055105053 -0.09833221
0.0600127 1.2990866 0.73879445
-0.73681945 1.3927853 -0.16730532
0.10085856 1.0219253 0.29358354
-0.15298033 0.7443805 -0.5895405
0.07305984 -0.074726805 0.24967995
0.17407835 0.4660528 0.4384473
-0.1254346 -0.4154384 -0.6124062
0.2925132 1.4637966 0.35000086
0.8992597 -0.40769792 -0.4866159
0.2292543 1.3543489 0.5023263
-0.419302 1.0102478 -0.08486599
0.41984904 1.3081093 0.4107534
-0.14240709 0.39449424 0.36700448
0.15635279 0.41083252 0.1086551
0.4830177 1.268785 -0.27916613
0.7262757 -0.41931635 0.024301972
0.066195846 0.53143495 0.5895713
0.09826715 1.5085405 0.3744608
-0.22672832 1.2815158 0.28423053
-0.0038289488 1.094786 -0.97510546
-0.27297246 0.64098907 -0.88682956
0.15420774 1.6231617 0.49276215
0.6230038 0.28827018 -0.41779244
0.89617425 -0.40911222 -0.28402162
-0.569156 -0.41262323 -0.31812114
0.02333666 0.29581082 0.27706563
0.030529473 -0.091480695 -0.91635776
0.6127641 0.9962662 -0.052235328
0.11929289 1.7485816 0.30373004
-0.69474375 0.48314118 -0.38976404
-0.19016449 -0.4131713 0.61097616
0.5975609 1.3447179 0.107923776
0.26404184 1.1547058 0.3829692
-0.38108784 0.13649398 0.018110234
0.58734846 0.7197176 -0.5877927
0.06559415 0.9302274 0.10743907
0.7574574 -0.2431167 -0.73412
-0.10621393 1.498852 -0.1708798
-0.3195616 -0.41663924 0.7431445
-0.087960586 -0.41592723 0.7537062
-0.6195425 -0.25168344 0.7488301
-0.105785795 0.7517761 -0.78336954
-0.2497485 -0.25886896 -0.92431194
0.72541875 -0.41332063 -0.5812188
-0.5908257 -0.25001472 -0.4250446
0.8294759 0.563388 0.21728283
-0.12529935 -0.05865095 -0.6017611
0.030018415 1.2659082 -0.7112669
0.740187 0.47863644 -0.4960689
-0.32483977 1.1395423 -0.0053111217
-0.12764299 0.7888776 -0.41390577
-0.55204904 -0.09251587 -0.9165791
0.3011828 0.9663627 0.36113936
-0.8141947 0.724305 0.1166817
-0.25932074 -0.20416377 -0.38389772
0.5292195 -0.41137445 -0.8988172
0.42836255 -0.2304593 -0.47030383
-0.7001865 -0.41876978 -0.80030715
-0.32273906 -0.25503665 0.919145
0.37127423 -0.40737152 0.2143941
0.052776456 0.7083319 -0.12956199
0.098119676 0.37603068 -0.55615944
0.8359921 1.3776827 -0.08908458
0.6914837 -0.41826403 0.8793871
0.5574502 0.17975703 -0.02461356
-0.5530997 -0.079091206 -0.34615272
0.68891513 0.5979526 -0.22100168
0.5608301 1.651695 -0.30592957
-0.061850995 1.0994015 -0.78914833
0.7023828 0.4012395 0.2815358
0.1017873 1.4302443 -0.6168345
0.8959137 -0.40637475 -0.8809135
0.6173469 0.54282486 -0.67555064
-0.7330472 0.5740698 0.23017503
0.47795844 0.91551113 0.3158803
0.54739237 -0.25637567 -0.7750219
-0.3579617 -0.09001757 -0.914098
-0.077059105 0.38172817 -0.8045101
0.01504843 0.40244704 0.4528278
-0.24356565 -0.20786723 0.18284766
-0.21783417 1.2305113 -0.17831668
0.01829179 0.5712903 0.7628424
0.20245562 0.8501961 0.22464529
0.3658877 0.4140296 0.39180434
-0.92560446 -0.24641061 -0.0038319663
0.0074305264 0.25663838 -0.45205864
0.13741761 1.4517789 0.6498465
-0.79163885 1.2292771 -0.0697722
0.4119898 0.9402624 -0.72816116
-0.050576918 0.7830988 0.008900545
-0.5987711 0.7979258 -0.27218682
0.614436 1.4440117 0.40007275
0.014503483 0.20031658 0.46768332
-0.52379394 -0.41936305 0.7141677
0.7584566 0.8677715 0.07521235
-0.26705956 1.5719362 -0.31259972
-0.5968003 0.54861116 -0.080972716
-0.13466817 1.190764 -0.015051784
0.5339915 0.73661727 -0.3390108
0.90335625 -0.089464255 0.33010143
0.24696082 -0.23404615 0.43227988
0.2948082 0.83463556 -0.3867212
-0.49433586 0.51253664 0.52347875
0.14590731 1.8071752 -0.2675078
0.06422985 0.3592549 0.64261365
0.13913135 0.1820827 -0.60113657
0.5447346 1.1983626 -0.077140704
0.38007915 0.7249758 0.5506381
0.6095347 -0.24408156 -0.5980363
