0.60159844 1.2293297 0.5067576
0.5209012 0.34646598 0.044027105
0.45556584 1.371988 0.2576527
0.7446683 -0.25178245 0.75588965
0.42494625 0.85399115 0.5291749
-0.5643698 0.7810286 0.39481232
0.08701906 0.06344895 -0.40566814
0.67684436 1.053067 0.5420646
0.25465915 1.5775714 -0.59020615
0.77033544 -0.24777469 0.93461394
0.4636314 -0.0819322 -0.7284305
0.001783866 -0.41075224 -0.4740679
0.028200667 1.2316648 0.037439127
-0.7249766 0.8456242 -0.15402731
0.3028615 1.2312839 0.24581593
0.095777884 -0.22351536 -0.5353054
0.3729666 0.2919255 0.20698678
-0.3345443 -0.04742825 -0.5850895
0.1492805 0.47225934 -0.41928464
-0.9050282 -0.09483363 0.7318
0.46031335 1.5722666 0.3008268
-0.6088108 1.2715871 -0.07206859
-0.46578133 -0.2529717 -0.92284596
0.42774004 -0.07978716 0.64404964
0.26926827 0.21103728 -0.667168
0.86686426 1.1861438 -0.19616625
0.8923345 1.0233685 -0.28697038
-0.27215075 0.853683 -0.03906229
-0.22571869 1.4040645 -0.45852903
0.2547645 0.0643772 -0.25567555
-0.42959434 1.1195898 -0.2292273
-0.73542327 0.5669075 -0.4783621
0.014192874 -0.11060848 -0.13549839
-0.7444929 1.3134749 0.07634412
-0.72935563 -0.08236623 -0.42845213
0.33453584 0.93251455 -0.53397185
-0.59063137 -0.4101314 -0.111544386
-0.34311557 1.1453147 0.5524212
0.09897325 1.1972828 -0.5021689
-0.2587258 0.62887377 -0.2601632
-0.058669154 1.0542374 -0.570364
-0.222128 0.99959755 0.59381473
-0.75517 -0.07789627 0.22089785
0.2559672 0.38028672 -0.8165245
-0.060316287 -0.07841857 -0.768626
0.7642747 -0.24964568 -0.4906677
-0.534477 1.0479293 0.6381985
0.5974022 1.1954703 -0.69354606
-0.09975312 -0.22857097 -0.46661192
-0.1490899 0.87296957 -0.810154
-0.10678946 -0.07597031 0.1800937
-0.7713548 0.9313501 -0.5067484
0.40547132 0.84217113 -0.09737868
0.14007461 1.2177888 -0.12037262
0.22581139 0.75695074 -0.60349536
0.92354476 -0.24820527 0.013284709
0.073029466 0.44599056 -0.8868278
0.8543198 0.6425178 -0.40217894
0.6885987 1.4971943 -0.15269016
-0.19506842 0.065170296 -0.10840736
-0.427819 1.2362579 0.3920115
-0.119942576 -0.23993537 -0.2749499
0.87342143 1.0766801 0.20125459
-0.7189104 -0.42057985 0.7738681
0.36012328 1.0534599 0.75647306
-0.4970228 -0.4173234 -0.7302655
-0.72288287 0.7499957 -0.5569608
0.19819075 0.20859978 0.15909198
0.33290368 0.6847155 0.7707293
-0.5698403 -0.08649917 0.53501666
0.74680865 -0.08634615 -0.58367133
0.84629184 0.98673564 -0.45458972
-0.13357061 1.35177 -0.62179667
0.3475567 0.08896667 -0.04043462
-0.020082135 -0.41192263 -0.7630602
0.727359 -0.4181357 0.64710915
-0.11623988 0.51405764 -0.8945533
-0.4588465 0.55106163 -0.5498995
0.026319753 0.7838596 0.37175053
0.5769566 -0.045694154 0.113562934
0.20075476 -0.41261417 0.28702462
-0.35326344 -0.41093516 -0.5942495
-0.3572437 1.1086311 0.72677684
0.11154972 1.1881402 -0.9264418
-0.89134413 -0.098845914 -0.91254514
-0.7489431 0.858052 0.3963533
0.08145703 -0.4271918 -0.25632095
0.41311902 0.98028815 0.047982037
0.54294515 0.22643796 0.3170069
-0.06383145 -0.054547276 0.5651313
0.09449063 1.5548162 -0.3213349
0.13193387 1.0137191 -0.18305664
-0.7629665 -0.24389264 0.32104555
-0.5198102 1.570401 0.13136685
0.42835027 1.0216187 -0.16930714
-0.45706195 0.29611182 0.45198247
-0.86831737 -0.080771066 0.020717712
-0.4959715 0.6198642 -0.09215059
0.7597568 0.93855333 -0.6044792
-0.20807001 1.1886275 -0.69460166
-0.21280402 1.4632113 0.5593847
-0.36686227 1.6759286 0.031196821
0.5720973 0.6590345 -0.7771678
0.32755932 1.4881878 0.20634136
0.6994076 0.7883432 -0.688885
-0.4041093 -0.06442636 0.4210263
-0.61750084 -0.090980425 0.9161289
0.41399896 -0.05946728 0.42912853
0.592872 -0.26650792 0.9011275
0.9224231 -0.24737221 -0.3884523
-0.89551574 -0.40712032 0.10521509
0.76764035 0.8769305 -0.1269481
0.9197302 -0.2476867 -0.18663478
0.5641903 0.33881503 -0.57354677
-0.5346044 -0.4210434 0.48261446
-0.102784656 0.095707715 -0.32180923
-0.7111541 -0.4156919 0.39875108
-0.07539748 0.3806425 0.12499218
-0.32651958 0.86714435 -0.51769423
-0.88122886 0.9711002 -0.11050622
0.0029545613 -0.41093403 0.5739436
0.1792758 0.21212785 -0.056053877
-0.69434154 -0.06822431 -0.033648707
-0.7141819 -0.41752598 -0.6257503
0.054860547 0.63093376 -0.76198596
-0.8965033 -0.40692648 0.7185792
-0.905101 -0.09275478 -0.53113794
-0.6077845 -0.23483369 -0.21268883
-0.3374994 0.7816278 -0.9058888
0.4294987 -0.25432062 -0.9221356
-0.5760865 1.3542264 0.39988667
-0.0072341627 -0.4117771 0.3691339
-0.19003467 0.57701087 0.7593957
0.34596366 0.9144132 -0.9166125
0.39625663 1.2635632 -0.60594773
-0.51627946 1.2955213 -0.26475227
-0.52288353 -0.24486673 0.9133196
-0.46389467 -0.22609006 0.096440144
0.64283407 0.806738 -0.45740017
0.009375183 1.3575537 0.21455996
0.009079794 0.21276122 0.089556806
0.16405854 0.09387645 0.34010774
-0.25545895 -0.4183847 -0.7513599
0.39353028 -0.2665189 0.92396545
-0.23581004 1.2975626 0.4696042
0.38207275 -0.04737731 -0.55079854
-0.15879774 0.884725 -0.60929906
0.87919235 0.565416 0.007908186
-0.4773468 1.3203648 0.22909817
0.38169658 -0.07448144 0.87412715
-0.034607776 0.69017947 0.82058036
0.27637246 1.2479103 -0.39551473
0.29998818 1.6856781 0.21388492
-0.3541598 -0.25556785 -0.7684492
0.7392715 -0.076849006 0.22057131
0.30065107 0.9214255 -0.24160829
0.43735236 0.85486186 0.7464032
-0.47912186 1.5087788 0.32082397
0.55007 -0.4180081 0.12835823
-0.68795276 1.0227381 0.45807955
-0.117546864 1.0545684 0.36832878
-0.038539357 -0.2347715 -0.6386555
-0.5443139 -0.082589135 0.73891616
0.7816922 1.3397574 -0.2988732
0.2171045 0.5684719 -0.07647014
0.93147874 0.974754 -0.114407584
0.58533114 0.39435735 -0.15883169
0.58389163 1.3258973 -0.36864167
-0.1059252 1.53774 -0.3256016
0.42815363 0.20716098 -0.5540937
-0.09866322 -0.41938043 -0.14662166
-0.74225414 -0.41441903 -0.21687016
-0.27504098 -0.41405708 -0.07310361
-0.23430541 0.4407199 0.23152131
0.9037767 -0.08852242 -0.8956525
-0.36897358 -0.41159683 -0.9003087
0.1226481 -0.24269918 0.31831896
-0.8982091 -0.09267925 -0.33541292
0.0027985983 0.75313157 -0.26850122
-0.12390382 0.39418796 0.686686
-0.6346439 0.6343527 0.079369634
0.009103037 1.7737541 -0.049398012
-0.09931286 1.2284296 -0.48352695
0.92588866 -0.24752861 0.2269218
0.15427905 -0.40958977 0.45690998
-0.030703982 -0.25634295 -0.91421735
-0.9154272 -0.260473 -0.8723743
-0.17667031 -0.40954065 0.25279653
-0.6466491 0.5409719 0.44184393
0.0426696 0.8348762 -0.8291823
-0.24923453 1.1464305 -0.8892111
0.73012525 0.7374289 -0.27602166
-0.29549527 0.093916625 -0.35266513
0.6425489 1.2623351 -0.19257884
0.4427914 -0.23949713 0.75662696
0.0019902245 1.2942504 0.52382565
-0.4229633 1.4345437 -0.6119261
-0.116132945 -0.2537465 -0.08025116
0.7807139 0.85431665 0.44975093
-0.19294688 0.072725095 0.13353518
-0.1847117 -0.41549608 0.43943262
0.25801337 -0.057399563 0.5355409
-0.27191883 0.9946698 -0.18276328
-0.29882503 1.2016279 -0.37662327
-0.49699676 1.2094402 -0.43449515
-0.36701417 0.9113674 0.7392484
0.39630073 0.5268517 0.68212986
-0.55431473 -0.07759805 -0.55393493
0.08628883 -0.053940646 -0.68023705
0.22614448 0.8878519 0.0033245152
-0.794239 1.0578312 0.30817086
0.39923373 0.7140317 -0.7029411
-0.6502228 0.70902216 0.52632284
-0.4431145 0.93719196 -0.66476977
-0.08238076 0.9088439 0.4764259
0.048157714 -0.27463615 -0.19208603
-0.7667552 -0.24258873 -0.106518485
-0.030889384 1.463857 -0.47697246
-0.29369414 0.8370879 -0.2988102
0.29569048 0.9802034 0.58967733
-0.2627956 -0.23081735 0.3732761
-0.45081735 0.35972625 0.17527816
-0.51937544 0.9624688 0.111858234
0.30777323 0.07762565 0.15501261
-0.11844247 1.2256715 0.14849955
-0.8989046 -0.405859 -0.10760243
-0.5779624 -0.40554994 -0.9152775
0.5814518 0.5389482 0.56050396
0.09271312 1.0629797 -0.7930616
0.23731859 1.310665 -0.85150486
0.42555198 1.2395207 -0.7937089
0.06933909 1.1950612 -0.29351217
0.3798741 -0.07048047 -0.18740949
-0.527985 -0.41273373 0.28249168
0.10131301 -0.042337842 0.4633358
0.11678441 0.06098132 0.13417059
0.9114215 0.8215369 -0.28822654
0.73575544 0.31555432 -0.27706623
0.73716503 -0.0855542 -0.90105635
-0.42120445 -0.2385742 -0.4820584
0.19119884 1.7557054 -0.08169658
0.10022341 -0.24788168 -0.033835143
-0.21838346 -0.4066757 -0.46063918
0.4629742 0.5155862 -0.28474337
0.4067477 1.0465984 0.26021802
0.3368829 -0.4148884 -0.5806447
-0.2602412 0.23099592 -0.66274166
-0.5207522 1.5964335 -0.07244529
0.4211937 -0.4108531 0.61381376
0.50507885 1.6343817 -0.115321934
-0.078964606 -0.056664113 0.38147205
0.4086698 0.7411735 -0.5059917
-0.3343616 1.6976656 -0.1698436
0.233079 -0.3986755 0.91345346
-0.20398219 -0.05256574 -0.42486128
-0.026604673 0.078145504 0.25631562
0.1745997 0.58068377 -0.5726229
0.41132802 1.0608122 -0.38953662
-0.6357228 1.1725209 -0.2413459
-0.28228906 -0.23756385 -0.18104234
0.83235943 1.1826016 -0.40469104
0.5432803 -0.40996575 -0.4927106
-0.40034664 0.7486459 0.27695453
0.14084503 0.8910586 -0.5079167
-0.3912164 -0.2319004 0.24576417
-0.457161 -0.037323225 0.2255166
-0.18809965 0.96316886 -0.4045524
0.8937099 -0.09444371 0.9086944
-0.03768666 0.407592 -0.4014409
0.92789704 -0.24958418 0.8593875
0.08513674 1.3520143 -0.38716036
0.2077641 -0.4141989 0.097227484
-0.078231476 0.86630446 0.679265
0.35076636 1.711889 -0.019246135
0.27197757 0.09923257 -0.48097947
0.6807023 1.1433693 -0.35402977
-0.45454976 0.6197048 -0.2877586
0.43935195 1.337575 0.5846109
0.7282624 -0.4157147 0.42690656
-0.5618473 1.0437372 -0.75962836
0.5459912 -0.047314107 -0.32438076
-0.52384925 0.83070314 -0.80614614
0.72276986 -0.41595036 -0.38694525
-0.8995007 -0.09393561 -0.14629704
0.8244928 0.43204665 -0.13125005
-0.8685704 -0.09422965 0.9124746
-0.8608117 0.98386693 0.09344744
-0.1593824 0.7590027 -0.16423675
0.3268916 0.45802885 0.079628974
-0.17637016 0.21804473 0.0027005766
0.32183588 1.5366073 -0.29026145
0.28788596 -0.23565233 0.2119902
0.13750315 0.7170743 0.045414347
-0.13454074 0.71441615 0.47583276
-0.11228255 -0.25905403 0.9186227
0.53829217 0.8489547 -0.8238901
0.7291211 1.1317233 -0.57318354
-0.119592085 1.4189916 0.37578896
0.21932459 1.2001934 0.062368263
-0.16853778 1.1742227 0.7618588
0.2841197 1.0685866 -0.054950245
-0.13342279 0.526579 -0.7017672
-0.50356567 0.1455326 -0.3092493
-0.7401204 -0.41290805 -0.00021865474
0.1442078 1.1338537 0.610185
0.7241375 -0.07392453 -0.19562998
0.729109 -0.069350004 0.009393943
0.486358 1.4230022 -0.23251332
0.70284176 -0.415384 -0.7605349
0.35001922 0.6898192 -0.009260021
0.25122935 1.3647028 -0.24517399
0.6055126 0.1820347 -0.22985883
-0.45878536 -0.080045 -0.74206716
0.65493906 0.23535648 0.1378839
0.31454143 0.5968667 -0.42152965
0.70319545 1.3253074 -0.5055862
-0.48368552 1.3935912 0.03455712
-0.7597178 -0.24757443 -0.3218938
-0.42693454 -0.40830755 -0.20114541
0.82481337 0.6841606 0.33129352
0.35863546 1.2712817 -0.10256692
0.18991378 0.783865 -0.9674623
-0.7713978 -0.25302178 -0.52682877
-0.33671993 1.2661116 -0.57094157
0.25307018 -0.4047312 -0.28455046
-0.59678924 0.46086544 0.13588399
-0.6650711 0.8719398 -0.35910726
0.456106 1.0521606 0.46620563
0.10407942 -0.23349719 -0.7600969
0.25221765 -0.06219083 0.32790416
-0.11027011 0.89617884 0.2458609
-0.5671431 0.8089137 -0.050101817
-0.8913311 -0.41163665 0.3203069
-0.8585261 -0.40426254 0.9061254
-0.72163916 1.2597753 0.28407383
0.34100127 -0.41647315 0.7744634
0.70719445 0.6872431 0.5079193
-0.57496613 -0.24949983 -0.7897785
0.23724714 -0.23421973 -0.20354915
-0.8936649 -0.40540004 -0.7346376
-0.42099404 1.1601307 -0.7960212
-0.18401389 0.74137866 0.30183637
0.62238896 1.5604305 0.015233384
0.5687612 1.0406625 -0.2601447
-0.6056602 -0.2344978 -0.009349534
0.7504595 1.0170727 0.04158501
-0.8957109 -0.40873763 -0.32702962
0.83144784 0.79522765 -0.49705115
0.36006635 0.12581763 0.34424597
-0.6580291 1.465476 0.003020682
-0.7280545 -0.41321695 0.20757863
-0.36021987 0.69369465 0.7295629
-0.74658424 -0.084721215 -0.610103
-0.21534148 -0.4108864 0.90014577
-0.6540377 1.1905067 0.47021914
0.8947847 1.1351581 -0.0070971726
-0.7517555 -0.23842698 0.10716005
0.03859494 0.44833645 0.284018
-0.46687216 1.4284232 -0.167198
-0.50482166 0.3798359 -0.21856734
0.24036542 0.56142956 -0.7401807
0.21705514 0.74653983 -0.7906796
0.29366702 1.1138477 -0.9079479
-0.5440428 -0.41312364 -0.52917904
-0.4042647 0.9368743 0.53606725
-0.25880286 -0.04373055 0.30183053
-0.9036529 -0.095548384 0.34798437
0.094346754 -0.07719815 0.6705705
-0.44867176 -0.22522381 -0.10169079
-0.6738321 1.2257613 -0.51430124
0.49486667 0.56286895 0.06653177
0.4106145 -0.058195658 0.014582941
0.20814186 0.1952917 0.5125991
0.7825166 -0.24034615 0.12028817
0.53315777 0.6458992 -0.12751982
0.18982224 -0.078823835 -0.88675624
-0.40465936 1.2498742 -0.07430218
0.5961787 -0.24018323 0.4235106
0.34170693 0.7015565 0.35091272
0.47226655 1.4783249 0.06940724
0.113205634 -0.2482034 0.14644676
0.6939286 1.2049825 -0.0064666457
0.56899846 1.0795605 0.118063465
0.028664675 0.89477754 -0.66860604
-0.0035301943 0.69537234 0.20645371
-0.40015632 -0.4115435 -0.39796144
-0.7249632 -0.08635116 0.62709045
0.5435511 -0.4114066 0.32956114
-0.89955246 -0.09272838 0.5400985
-0.63142586 1.419363 0.2024205
0.018947948 -0.41559988 0.18208277
-0.6543906 0.8673599 -0.6816665
0.7578984 -0.24838519 -0.28946918
0.4450392 0.53931177 0.40703213
0.02477239 0.8688592 0.8486172
-0.9198078 -0.2679556 0.21951783
-0.22181228 -0.091246426 0.9015323
0.1409013 1.047855 -0.60314137
-0.84919137 -0.40658098 -0.9143741
0.35913098 0.685912 -0.22516006
0.28294286 0.48415068 0.27404454
-0.5732119 -0.4075964 0.10213973
0.5150274 0.5300559 -0.4828184
0.19445679 1.5732819 -0.14971898
-0.38634396 1.0114152 -0.38493794
-0.92535 -0.2473741 -0.6470429
0.89892817 -0.08676095 -0.28847915
0.66621125 0.5075153 -0.030226333
-0.69283986 1.0168818 -0.20573741
-0.27276486 0.88757384 0.38293448
0.2706756 0.5371103 0.5056094
-0.49684545 1.2475145 0.5907767
-0.029475436 -0.087520674 -0.33089352
0.5469125 0.7615373 0.030512702
-0.52730095 1.2067536 0.098596424
0.15499915 0.6161166 0.32332814
-0.7263998 -0.41594648 -0.42863762
0.38998106 -0.4114275 -0.3948753
-0.082397155 -0.08097798 0.75411046
0.17795423 1.0780768 0.8033465
-0.4994154 -0.02968874 0.018108357
0.54203284 -0.41958195 -0.67240524
-0.40637344 -0.08165704 0.6231857
-0.018498275 1.4126966 0.01455767
-0.6778734 0.28522497 -0.026669864
-0.4382216 -0.40730834 -0.008673439
0.24383229 0.39754906 -0.61183566
-0.6462352 0.27366748 -0.23527457
-0.1274851 1.6092138 -0.5436244
0.48704353 0.4344792 0.24219882
0.5726893 0.8302351 -0.19847673
-0.06256862 -0.2516467 0.0912527
0.5825329 -0.0820034 0.5350568
0.14538874 0.6987059 0.81647193
-0.69253385 -0.4118974 0.59773517
-0.19949684 0.7841247 0.80157244
0.522118 1.2000165 -0.48107815
-0.8901311 -0.08827926 -0.73720956
0.92134464 0.92070234 0.07337017
-0.5890987 1.1280396 0.28223377
0.18627617 1.2356052 -0.7016971
-0.085122235 -0.40979654 -0.3316885
-0.28172597 1.0140026 -0.71826035
-0.2429359 1.4838994 -0.6753134
0.60491526 0.8999288 0.43607968
-0.41323948 -0.039164282 -0.43264514
0.25513625 -0.16771422 0.9288726
-0.7679353 -0.24167237 -0.744411
0.70363486 1.1550949 0.20187297
-0.44879776 1.0945263 -0.5775595
-0.33261696 0.90741026 0.16801915
-0.32096866 1.4003437 0.31212586
-0.286627 0.39380902 -0.7910156
0.09481038 0.6944783 -0.4330288
0.112748764 0.9367659 0.6916057
-0.5867572 1.0522637 -0.39326048
-0.026065946 1.4781206 0.57873
-0.20647535 1.5461109 0.23834163
0.041372843 0.33100244 -0.06603852
-0.1033382 1.7477511 -0.2329086
-0.06522374 1.2605246 -0.13481104
0.04361224 0.47340098 -0.20305854
0.045408703 -0.094643414 0.0524384
-0.50553745 0.8078896 0.6576139
0.25055256 0.8078444 0.64341927
0.7264044 -0.41554344 0.2251437
0.43332 -0.23994535 0.078105524
-0.8570541 0.5964516 -0.06354128
-0.4832504 0.3513817 -0.010192813
0.2292557 0.38538346 -0.086015746
0.08432028 1.0441368 0.016189877
-0.41173714 -0.08315818 0.88554704
0.27697974 1.1422188 -0.23950121
-0.3652566 1.6399887 0.23420644
-0.47429672 0.6612339 -0.8070574
-0.19853497 0.42205298 -0.26802927
-0.9250771 -0.25475994 0.8710996
-0.2813943 0.61044216 0.5681846
0.36106867 -0.41484636 0.42847824
-0.22530022 1.0531768 0.18798712
0.03746172 -0.41814232 -0.019888226
0.40802997 0.2337369 0.4903189
-0.4356828 0.7520301 0.07879698
0.18972915 -0.41096985 -0.45362723
-0.4326215 0.4815187 0.30152
0.17986503 1.3960705 -0.043541543
0.038823135 0.59426713 0.461188
0.89455235 0.621174 -0.19704792
0.21830897 -0.08651924 -0.08963309
0.7090045 0.26477203 -0.067048304
0.20938563 0.92419946 -0.75085294
0.42103738 0.35091472 -0.7038798
0.12090021 0.9392719 0.49855644
-0.15335025 -0.4152174 0.06404062
-0.17909175 -0.06930967 -0.21577933
-0.5037488 0.6122234 0.6250203
-0.54059756 1.2540339 -0.6714513
0.89882326 -0.40760666 0.121187136
0.8222259 1.2604898 0.12863398
0.5623567 -0.41257986 0.7399725
0.041428477 1.3661656 -0.8334882
-0.24653405 -0.23318908 -0.5918126
0.5329678 1.21184 0.29501677
0.8958069 -0.40850517 0.53346837
0.26209158 1.5599418 0.046930514
0.35957175 -0.08686593 -0.9071313
-0.074694894 1.2158084 -0.8963693
0.13634935 -0.07428972 0.8731425
-0.0025672603 1.5947031 -0.13990887
-0.21880817 1.7214181 0.13794646
0.27346563 1.6020222 0.39502
0.61254215 1.5055561 0.21021195
-0.5538858 0.91046464 -0.5142563
-0.25921077 -0.07847331 -0.7535793
0.7199855 -0.08263774 0.8767636
-0.72806215 -0.07666503 -0.22701207
-0.4486968 -0.23334828 -0.6379484
-0.47402233 1.6031091 -0.2575184
0.6375886 0.99985164 -0.72635037
-0.60236657 0.786914 0.20632918
-0.31523517 0.80842805 -0.72171783
0.38829705 0.5455034 -0.6164836
-0.07506889 0.63574684 0.63786983
-0.29500067 0.468344 -0.6113219
0.4450622 0.103213914 -0.19662255
0.89762175 0.7121967 0.13636708
-0.35432076 -0.41330892 0.35111475
-0.34500873 1.3246193 -0.7653775
0.24513198 0.88416857 0.8216126
0.7384211 -0.08197918 0.43022227
0.36943305 1.4940066 -0.10041259
-0.9243444 -0.25451848 -0.429458
0.42457664 1.4771663 0.45539767
-0.12341125 0.23121385 0.5620413
-0.88197505 -0.41245896 0.522652
0.52998054 0.87121844 -0.60327756
0.534989 0.7104474 0.44074664
-0.3073774 0.17765194 0.4436981
0.52937746 0.69600034 0.66920114
-0.15262857 -0.25118577 -0.76630706
-0.71049166 -0.261992 -0.92683005
0.40889317 1.1741827 0.095761865
-0.091030866 -0.23132157 0.63035667
-0.16380692 -0.0911029 -0.9184342
-0.8369523 0.83472794 0.22104138
0.13553855 0.34115142 -0.27965987
0.5773927 -0.08720443 0.74826235
0.0045718458 0.7260573 -0.6070703
0.15796633 1.7407953 0.11138654
0.23352411 -0.41571587 0.6058078
-0.44993606 0.32113507 -0.6323583
-0.27319333 0.4469322 0.03944108
-0.59068775 1.4676902 -0.34982848
0.036056533 -0.22595312 0.4654817
-0.61915195 0.89791095 0.551413
-0.7553946 0.6764349 0.33146986
0.75046825 -0.24769655 -0.085676506
-0.25341123 1.0806458 -0.53239274
-0.035558775 1.0591338 0.168089
0.7246038 -0.080453455 -0.39162105
-0.6681514 1.0686979 -0.60673
-0.77960247 0.45267692 0.053658307
0.5674406 -0.05817694 0.32084078
0.24492572 1.3573501 -0.5610937
-0.11175666 1.3281306 -0.31644928
-0.2818087 1.5657897 0.41001397
0.40497386 1.3894398 -0.4185624
-0.48676926 0.93169224 0.32730293
0.35037202 0.25376233 0.026985377
-0.16539046 0.23131728 0.2142989
-0.3896772 0.7600399 0.48900485
-0.053558342 0.5842288 -0.31705606
0.315305 -0.2338448 -0.77911663
-0.10253258 0.5576695 0.32279566
0.6240716 -0.26186356 0.07605547
0.64697146 -0.24095142 0.24987587
-0.40445912 1.3769503 -0.39947104
-0.15766674 1.3567672 -0.81760395
0.10397048 -0.4086253 -0.6203388
-0.15929338 0.7167622 -0.9524781
0.6460436 -0.24382266 -0.9172857
-0.60517156 0.3794478 0.35178566
-0.5947739 -0.2467649 0.2391243
0.56865776 -0.41314733 0.5215004
-0.13200428 0.94737864 0.013555268
0.3086229 1.0875245 -0.7234491
0.047690284 0.7722353 0.5977175
-0.67464256 0.95539343 0.22565912
-0.1313195 0.48058218 0.5156368
0.897005 -0.08982852 0.7343757
-0.57433605 1.3812326 -0.5100144
-0.5876833 -0.0841997 0.33936548
0.44750646 0.11379776 -0.3864066
0.3307413 1.1570272 0.5697713
0.2727183 1.2585344 0.7152251
0.7128854 0.95008606 0.23250753
-0.13880002 0.5566323 -0.11288241
-0.11177157 0.5690004 0.10794364
-0.62326324 -0.25228357 0.4488349
0.17051089 0.6172692 -0.27354345
0.9180087 -0.2502514 0.6468489
0.15304226 0.980903 -0.96800137
0.41958305 -0.23742357 -0.2905774
-0.52722996 0.16561371 0.09745029
-0.5014268 -0.25940782 0.59117997
-0.3076817 0.4394131 0.44585454
0.92505753 -0.24897774 0.4408905
0.5924756 -0.2504995 0.64517224
-0.54792655 1.0877197 -0.07173738
0.5531728 0.893935 0.16151889
0.87492776 0.8670079 0.26392654
0.19965434 0.2908712 0.3247544
-0.35741845 0.48476887 -0.35426468
-0.76288927 -0.25165066 0.5439879
0.20670125 1.6989311 -0.4094267
-0.027551541 1.547853 0.20672221
0.5456422 -0.08636828 -0.9087653
0.26886955 0.3443199 0.62758505
0.0944549 -0.25564146 0.9260459
0.6542043 -0.08138068 -0.734793
0.015233265 1.0393397 -0.3856665
-0.040645152 0.053696215 0.015058642
0.48213667 1.0541828 -0.8344463
0.16069525 -0.084881485 -0.29841226
-0.79037905 -0.25234848 0.73617876
-0.74284124 -0.0823595 0.43293357
0.5322194 0.99308574 0.6647917
0.21045142 1.0364561 -0.39025375
0.10389693 1.1567692 0.22221935
-0.337044 0.48146892 0.66963136
0.5882281 -0.22983372 -0.21163902
-0.18791556 0.979185 0.8025571
0.7978109 1.031007 0.38113344
-0.5584904 0.6121497 0.2593841
-0.19198133 1.6068807 -0.15515125
-0.6211269 -0.4032086 0.9056188
0.2554572 -0.23062496 -0.40570456
-0.55626845 0.27406716 -0.44799793
-0.44406825 1.552671 -0.43478903
0.78024393 -0.24789448 0.3416211
0.91634125 -0.24311869 -0.59473073
-0.15605365 -0.092816874 -0.0100083
0.04870551 1.1132116 0.44223878
0.3514879 -0.05654329 -0.36950383
0.63498676 0.8455431 0.6129651
0.549335 1.3665209 -0.062185675
-0.6889608 0.97394186 -0.015578769
-0.395435 0.97458816 -0.8761553
0.89674056 -0.4080041 -0.08429987
0.72913253 0.51340675 0.41193244
-0.123839006 0.3634488 -0.5870786
-0.32579982 0.2967065 0.30428448
-0.33968368 0.35757232 -0.48385578
0.0738579 -0.2517919 -0.36317694
0.7454761 0.62058145 -0.59337425
-0.4812233 0.7478392 -0.6022891
-0.03143639 1.0587571 0.62682605
-0.67061734 1.1165807 0.09533189
0.26757085 -0.064857714 -0.7023151
-0.89416885 -0.4074272 -0.53616023
0.05371037 0.4506901 -0.69607973
-0.24378729 0.80529606 0.6054584
-0.020317119 0.5526712 -0.5304243
0.8907156 -0.4081639 0.7341678
0.23326169 -0.0811781 0.11344893
-0.1972152 0.5239614 -0.4535534
0.054612935 1.4055135 -0.19635104
-0.445831 -0.22947371 -0.29632455
0.90056753 -0.088370144 0.53510857
0.8861264 -0.40037367 0.9078567
-0.044900198 1.0723832 -0.13932744
-0.46613416 0.6022607 0.43833923
0.56814086 1.4995697 -0.4763348
0.3058449 -0.40383726 -0.91449153
-0.29972875 1.3330181 -0.227461
-0.5038405 0.21105985 0.28864557
-0.3445686 0.673319 -0.45475787
-0.14225653 -0.40947366 -0.90833
-0.1717843 1.3900168 0.16711947
0.48409027 0.6708894 0.2190156
0.27882954 1.4518877 0.573717
-0.36833975 -0.41173738 0.54766643
0.59814405 0.41503626 -0.3591234
0.20681325 -0.41082805 -0.7541208
-0.15029709 1.5632751 0.03403894
-0.54294014 -0.038782805 -0.15987691
0.54214275 -0.10226691 0.917995
0.79267013 0.38182878 0.07213934
0.5668393 -0.0179175 -0.12241894
-0.21243924 -0.25406134 0.7609737
-0.0187104 0.85151196 -0.98316586
0.11610208 -0.41762698 0.7477644
0.27041805 -0.24165198 0.009642174
-0.35055757 -0.41177663 0.15027925
0.29460698 0.23318529 -0.22989288
0.034233324 0.64951736 -0.953794
0.25057507 -0.2420271 -0.6043072
-0.10800266 1.3387481 0.6836576
-0.06657663 1.5970161 0.4406968
-0.21594901 0.9459144 -0.95378304
-0.45212024 -0.24792492 0.41058677
-0.17766917 1.7524686 -0.037880786
-0.12928951 -0.24359247 0.4674303
-0.32668263 0.6297445 -0.6864991
0.1215263 0.5524759 0.1371956
0.22323105 -0.2581368 0.7763504
0.93238485 -0.24725348 -0.7821175
0.43683198 -0.24664906 -0.6332074
-0.29021922 -0.24590096 0.018998206
0.29894572 1.1339326 -0.536445
0.72248906 -0.39958605 -0.91742325
-0.71706986 1.311201 -0.34194767
0.070016384 1.5814941 0.032719947
-0.3210339 0.2674998 0.10103464
0.16176966 1.4784855 -0.7297479
-0.92114085 -0.25959885 0.4293966
0.44697195 -0.23974457 0.52382654
0.40099502 -0.24065259 0.35274753
-0.91404223 -0.10510144 0.16830815
-0.46597338 0.48495966 -0.73917294
0.4951429 0.12336436 0.16100907
0.44129992 0.30396628 -0.33073243
-0.31500685 -0.06574568 0.10849036
-0.001131325 -0.044895187 -0.50644875
0.72852474 0.69407916 -0.07334706
-0.40942377 -0.23942341 0.7521899
-0.21311787 0.21689162 -0.21410614
-0.065769665 -0.23740265 0.28513193
-0.22276947 1.3381554 -0.016238663
-0.39991766 0.76483744 -0.16410288
0.8097422 0.4810748 -0.32801116
0.9047187 -0.08659585 -0.49099946
-0.3009109 1.066125 0.39285314
0.16137457 0.6322892 0.6348461
-0.3061568 1.3020395 0.6608509
0.5832108 0.3712144 0.43926454
0.289824 0.4495994 -0.2653344
-0.6233152 0.6338506 -0.67398506
-0.15764046 0.103360504 -0.53048587
0.38492042 -0.41593784 0.015010679
0.08839591 -0.40551144 -0.90874624
-0.13930339 1.1235157 -0.31251505
-0.7051095 0.653805 -0.09624654
0.44780746 0.3982407 0.57566357
0.009071922 -0.41019773 0.90594816
-0.01314811 1.0549147 0.8230332
0.46808684 1.6471065 0.112140946
0.40914088 -0.051943116 0.22083065
-0.41104499 1.0960689 0.22657984
0.09936248 0.26693845 -0.7653531
-0.44012308 0.5446451 0.08016285
-0.20527853 0.7720157 0.12437152
-0.027723316 0.17775294 -0.11869172
0.26839623 -0.08478227 0.73275626
-0.8820406 0.79509443 0.004205807
0.49273074 1.1670612 0.64918464
-0.71693766 0.8108053 0.0662449
-0.030808263 1.7488999 0.13673535
-0.7326236 -0.08513477 -0.90000445
0.40322566 -0.41516328 -0.18239707
-0.051518098 0.29516175 -0.25476414
0.12577787 -0.24470408 0.60617757
0.8986634 -0.08746965 -0.08722617
0.8873571 -0.0814694 -0.70599914
0.5579068 -0.41117474 -0.28847092
-0.14327036 1.170779 0.54682827
-0.46698558 0.8111433 -0.37386274
0.3596962 0.82960486 0.15279281
-0.30034173 -0.23788494 0.5714202
-0.3677044 0.28848982 -0.308317
-0.37661162 0.16479397 -0.50477004
0.41827846 0.5247921 -0.8194636
-0.61504096 0.43927312 -0.5771611
0.620204 0.5739828 0.30944365
-0.6507259 1.4695096 -0.18668862
-0.06815375 1.2319915 0.34093636
-0.6129309 -0.07576388 0.13567139
-0.73185515 -0.08157513 0.80175984
0.49490193 -0.22903028 0.2248641
0.028571185 0.036311716 -0.19653872
0.23807421 0.2685119 -0.43621588
0.22856301 0.5790254 -0.9205377
-0.043454137 1.5110247 -0.71003836
0.7454157 1.2133913 0.37348473
0.37479934 0.40317017 -0.47262156
-0.3653458 -0.057188544 -0.2646773
-0.82563436 1.1635613 0.15415823
0.20303228 0.7535329 0.46364194
-0.064738214 0.18837985 -0.6694898
-0.38002157 0.0961851 -0.17047858
-0.81060386 0.7459811 -0.386284
-0.5271443 0.45684895 -0.40764004
-0.40563986 1.4125745 0.50284016
-0.14666253 0.3766083 -0.08275166
-0.12776768 1.6905046 0.30065823
-0.92252916 -0.25746065 -0.21984431
0.56205213 -0.40083498 -0.07545251
-0.8514168 0.93706954 -0.3109957
0.85600233 -0.24942742 -0.9276043
0.47608608 1.0631452 -0.6179694
-0.18907875 0.26536098 -0.4247292
-0.3557157 0.48444253 -0.13874847
-0.2999484 0.61221725 0.181745
-0.09411956 0.92131484 -0.23892777
0.11369872 0.17753544 -0.265473
0.5969507 1.0530481 0.3394927
0.7524938 -0.25034335 0.54273176
0.8927028 -0.40846503 -0.6863029
-0.033214472 0.8628347 -0.45689005
-0.34810418 0.28090847 -0.105482556
0.3464469 1.4114504 -0.72673273
0.41070923 -0.24208622 -0.10773371
0.39144036 1.6300645 -0.4325692
-0.1583192 0.11365574 0.38720757
-0.23517989 -0.056711175 0.5070733
0.2173279 -0.41102067 -0.09952212
0.1540825 0.057497706 -0.054866325
0.69371 0.64644897 0.1255363
0.33472264 1.7204481 -0.23638992
-0.8714756 0.760343 -0.19719765
-0.030010503 -0.095872894 0.91314197
0.9284192 0.7676004 -0.06866902
0.03144686 0.49976242 -0.0059891827
-0.26225507 -0.082139984 0.71412617
0.43626347 0.29719672 -0.13236755
-0.32968166 1.5002193 -0.07231304
0.4095794 0.49395192 -0.09798521
0.19625375 -0.24735111 -0.9249315
0.1115863 0.87825 -0.3079834
-0.25110877 1.6775236 -0.36098224
0.56098104 -0.07516621 -0.5291157
-0.32713336 1.2519733 0.115521416
0.41561157 1.4986768 -0.5803444
0.6018715 1.0042385 -0.4746624
0.9034662 -0.08624303 0.11715849
0.6616111 0.77074873 0.28103995
0.640309 0.4586445 0.14590493
-0.29311585 0.320271 0.583556
0.2118046 1.483109 -0.44092777
-0.42549288 -0.40733284 0.89597535
0.13252077 1.2739754 0.34993082
-0.73327076 -0.2488035 0.9212353
0.3899001 0.7157378 -0.89583135
0.59475935 -0.23979443 -0.40254092
0.71691644 0.9276756 -0.3215219
0.5464586 1.3676078 -0.62597543
0.35251784 1.3511488 0.06723356
-0.81010556 0.5806297 -0.28159034
-0.7697069 0.42952305 -0.15867873
0.39460737 -0.4107843 -0.76113
-0.62599385 0.53736955 -0.2591858
0.71029526 1.356497 0.2586867
0.723769 -0.41506627 -0.18339431
0.73126364 1.4276369 0.061415862
0.7377167 -0.082830004 0.64918864
-0.6194168 -0.25378305 -0.61705697
0.030458108 0.8685206 -0.08957732
-0.25723344 -0.40930343 -0.27041388
-0.35185373 0.10944402 0.24861625
0.19464943 -0.057511196 -0.5087565
0.21120824 0.4902014 0.741353
0.07578926 1.6093011 -0.5658155
0.46523115 0.8792368 -0.3597789
-0.6477792 -0.080695346 -0.7422062
0.15253508 1.5466506 0.22185491
-0.54540384 0.1611518 -0.10181749
0.30987528 -0.24373575 0.6199595
-0.016568305 1.6988931 -0.40500075
-0.28334326 0.6092193 0.3772117
-0.3421123 1.4745703 0.120354876
0.89897496 -0.40851465 0.32650054
0.23439184 1.0119331 0.17093676
0.021175915 -0.24245602 0.76710355
-0.7724381 1.1024463 -0.41077614
-0.51273954 0.9318877 -0.22691834
-0.5005182 1.0704529 0.44731152
0.29625756 0.6383418 0.16032246
0.6709931 0.60889745 -0.41629094
0.57073146 -0.17749369 -0.047159553
-0.6599992 0.30451286 0.17017803
-0.58693314 0.67040545 -0.44099367
-0.28637052 0.6494038 -0.028407125
-0.29751444 1.5714457 -0.51642966
-0.8272722 1.144887 -0.23306341
0.19889474 0.77512693 -0.15354672
0.6757375 1.4826708 -0.33636218
-0.93036115 -0.25553304 0.6331457
0.47955334 -0.4137755 0.9054562
0.7256658 1.0695803 -0.15414497
0.16965908 1.372606 0.15133177
-0.33925074 -0.06902517 -0.08097322
0.042759232 1.233891 0.75584495
-0.7670962 1.3191245 -0.13676459
0.08288173 0.968112 0.30746228
-0.18978688 0.69004077 -0.5773667
0.07488824 -0.07881262 0.2568306
0.17243385 0.4174127 0.4460113
-0.12665015 -0.41102636 -0.613877
0.26581642 1.407039 0.36120594
0.8994466 -0.4070886 -0.48627806
0.205789 1.2948104 0.5123267
-0.43072972 0.9343368 -0.06003333
0.3970678 1.2535026 0.41848058
-0.1436427 0.33570307 0.37785572
0.1516146 0.3701393 0.11961613
0.4537103 1.2226971 -0.2726745
0.73080814 -0.41774723 0.022372365
0.06622699 0.4701172 0.6001991
0.07167467 1.4513409 0.38170666
-0.25226748 1.2247689 0.29171044
-0.04084764 1.0402393 -0.9604716
-0.30138445 0.57718384 -0.8732041
0.13014072 1.5544083 0.5066565
0.6105139 0.23801953 -0.42494816
0.8960145 -0.40838152 -0.28560692
-0.57482827 -0.40971875 -0.32018137
0.020010564 0.25174677 0.28638
0.031162282 -0.09076196 -0.9158306
0.59138805 0.9498909 -0.04766915
0.087237045 1.687088 0.3188882
-0.7081381 0.40459397 -0.37264657
-0.18835077 -0.40800822 0.6096074
0.57074004 1.2988774 0.11519723
0.244482 1.0998827 0.39428514
-0.3624503 0.100360006 0.024060626
0.56406623 0.67649925 -0.58555806
0.0418427 0.8784308 0.121121235
0.75999737 -0.24163628 -0.7369063
-0.140209 1.437826 -0.15180096
-0.3206553 -0.41460526 0.73687416
-0.08910558 -0.41381747 0.75371945
-0.6192073 -0.2508343 0.7283393
-0.13153197 0.7009478 -0.7701312
-0.25319147 -0.2572731 -0.9225042
0.72755194 -0.41308022 -0.5796819
-0.59845746 -0.23949493 -0.42514962
0.82576007 0.5247088 0.2115095
-0.13829431 -0.04414069 -0.6183497
-0.0073581515 1.2122632 -0.69654083
0.72080594 0.43360224 -0.5004656
-0.34737387 1.0719357 0.015987348
-0.1500431 0.73795336 -0.40186423
-0.55431765 -0.091077894 -0.91487855
0.2864077 0.9132733 0.37281016
-0.82684684 0.64427185 0.13990445
-0.27492356 -0.22278655 -0.3825816
0.52834535 -0.411017 -0.89730644
0.42528325 -0.22771525 -0.47047687
-0.7005402 -0.41824389 -0.7994518
-0.32099646 -0.2511065 0.92344856
0.37826103 -0.41171125 0.21905293
0.03511157 0.65361345 -0.11821824
0.07828379 0.32936382 -0.5602732
0.8054596 1.3388324 -0.08833675
0.69882864 -0.41696268 0.87912834
0.56366694 0.13781059 -0.023222674
-0.565741 -0.05644153 -0.3401214
0.6756812 0.5583075 -0.22376668
0.5245922 1.6061926 -0.29566312
-0.0946417 1.0413495 -0.7714895
0.70504194 0.35980576 0.28176653
0.064153835 1.3754404 -0.6010909
0.8956568 -0.40605348 -0.8808104
0.59188193 0.49503076 -0.6751381
-0.74144304 0.49559575 0.25256854
0.4642523 0.8636662 0.32270887
0.5482035 -0.2536683 -0.77559686
-0.36056197 -0.08865827 -0.91318244
-0.09645516 0.33259833 -0.8043233
0.017600179 0.33977157 0.4670577
-0.2238417 -0.23162417 0.18176737
-0.24450569 1.1756712 -0.16126241
0.020548817 0.5068058 0.7742831
0.18533325 0.80222267 0.23437122
0.36296225 0.3620845 0.399232
-0.92459655 -0.2486133 0.002169581
0.009662171 0.22076441 -0.44066617
0.116407014 1.3855164 0.66500676
-0.8187653 1.1513219 -0.04303512
0.38371563 0.89911336 -0.7224384
-0.072979234 0.733699 0.011124706
-0.6192787 0.72800124 -0.25045508
0.58764446 1.3914516 0.40595543
0.021302566 0.137854 0.4778883
-0.5180753 -0.41828886 0.7103451
0.7419251 0.8260428 0.07700172
-0.3012509 1.5068576 -0.29057264
-0.6086582 0.47385228 -0.06745548
-0.16323286 1.1330395 0.001407292
0.51703596 0.69226325 -0.3399703
0.90374184 -0.08722917 0.32775927
0.24809584 -0.23609196 0.44264907
0.27211666 0.7915313 -0.3805567
-0.49590468 0.43980116 0.54360723
0.11001236 1.7517523 -0.2500999
0.06928086 0.29561508 0.6538795
0.10306509 0.12159853 -0.598274
0.5185348 1.1521899 -0.071651414
0.37489438 0.6740398 0.560757
0.6191801 -0.24586672 -0.60198534
