0.5975716 1.7107193 0.60903203
0.44673276 0.86895835 0.0702959
0.4589198 1.8889401 0.3714466
0.7483479 -0.25177974 0.75643814
0.3891971 1.3489027 0.5971438
-0.6003483 1.3319447 0.45518965
-0.008709757 0.5987958 -0.38174033
0.6598587 1.5255653 0.62408495
0.27736092 2.1633756 -0.47903353
0.7755327 -0.24915648 0.9340757
0.46474993 -0.086007655 -0.72670305
0.005918471 -0.4166536 -0.46853447
0.02520153 1.7870173 0.13410333
-0.7515514 1.4557021 -0.081821784
0.29561055 1.7629361 0.34620184
0.10229059 -0.24604532 -0.52806646
0.29459977 0.80808115 0.22076419
-0.3350786 -0.08633922 -0.5808488
0.094717205 1.0445831 -0.36757457
-0.90521884 -0.096444674 0.7360014
0.47188333 2.0962915 0.42271897
-0.61001307 1.8736002 0.034428325
-0.46618116 -0.2525518 -0.9242673
0.42831457 -0.08307786 0.64499474
0.1936292 0.79845595 -0.6186366
0.85990834 1.7075161 -0.09894161
0.871634 1.5509102 -0.20592444
-0.2899819 1.4242117 0.026615348
-0.21959278 2.0200005 -0.34916624
0.17446652 0.5692235 -0.23193283
-0.44313192 1.7248688 -0.13844013
-0.7694421 1.2063799 -0.42848995
0.0033620975 -0.086330876 -0.12821047
-0.74505484 1.9130838 0.18212008
-0.7250813 -0.08517751 -0.42197332
0.30870378 1.5075406 -0.46047848
-0.593999 -0.41533285 -0.10607655
-0.35728037 1.6876484 0.65247065
0.09043832 1.7852198 -0.40774328
-0.30388808 1.2063677 -0.21651128
-0.06669295 1.655385 -0.48445064
-0.24394476 1.5287892 0.6744147
-0.75208783 -0.07989401 0.2249361
0.19591513 0.98281527 -0.7680292
-0.05388655 -0.0892285 -0.76126516
0.7581448 -0.25094318 -0.48995453
-0.5491383 1.589577 0.7206799
0.5862812 1.7619734 -0.6140866
-0.10237118 -0.24682346 -0.45987892
-0.17608926 1.499968 -0.73673713
-0.113133684 -0.08238493 0.18921842
-0.79360664 1.5782714 -0.4269002
0.3745954 1.3761904 -0.014457622
0.13408276 1.7816274 -0.02417706
0.18621376 1.3452265 -0.53403187
0.92364097 -0.24780524 0.010759274
0.0188949 1.0668848 -0.83213997
0.81048536 1.1825716 -0.34745666
0.6903372 2.0202804 -0.02807333
-0.2620539 0.56597084 -0.10238099
-0.43347836 1.7992718 0.48821628
-0.12713279 -0.246333 -0.26436114
0.86054087 1.5680563 0.28659153
-0.71756303 -0.42068973 0.7751862
0.34292784 1.534955 0.8386662
-0.4978535 -0.4190228 -0.73092115
-0.75521207 1.3979704 -0.4924895
0.121946976 0.7091485 0.1716871
0.28510743 1.1645571 0.8227913
-0.5639554 -0.08627965 0.550057
0.7521631 -0.088967934 -0.5871583
0.8179154 1.5323088 -0.37693003
-0.13234803 1.9681022 -0.51498157
0.2833888 0.5750879 -0.020727815
-0.02360794 -0.4145888 -0.7657663
0.73176414 -0.4181373 0.6494893
-0.16307852 1.1439724 -0.84207106
-0.5082837 1.1916802 -0.50377333
-0.011961158 1.3172328 0.43044966
0.56377625 -0.08531658 0.110215664
0.20639074 -0.41640323 0.29402155
-0.3541106 -0.41687304 -0.5887891
-0.36722058 1.6321144 0.816391
0.10363446 1.8023205 -0.82776785
-0.89120704 -0.09884985 -0.91233814
-0.776548 1.4306266 0.46559456
0.08918355 -0.421645 -0.2504877
0.38910404 1.5152212 0.1305925
0.4630822 0.7326232 0.33154258
-0.06037959 -0.082863286 0.57296324
0.11011417 2.1355166 -0.20562366
0.11018455 1.5884726 -0.10093191
-0.76400816 -0.24249622 0.33000934
-0.5015712 2.1518562 0.25524527
0.4109634 1.5554597 -0.0861136
-0.513024 0.84882903 0.46291408
-0.87016535 -0.08343986 0.024447609
-0.53329897 1.2050605 -0.03042508
0.7287852 1.5034657 -0.52755237
-0.21668446 1.8116943 -0.596085
-0.20494574 2.0021863 0.6816853
-0.34362093 2.258741 0.16034696
0.5291586 1.233056 -0.71656376
0.33427453 2.0158331 0.32749486
0.6626913 1.3535483 -0.61879873
-0.40339684 -0.08936413 0.4472188
-0.61805654 -0.09264372 0.9178746
0.4125741 -0.0837601 0.4336052
0.5985334 -0.26494098 0.9014107
0.9218041 -0.24740814 -0.38891584
-0.89835525 -0.40661603 0.110994846
0.7416241 1.400741 -0.051998258
0.91909283 -0.24738285 -0.18927133
0.49112523 0.9033848 -0.5312449
-0.5345634 -0.4206083 0.4764765
-0.18512101 0.6089914 -0.29421887
-0.706313 -0.4151007 0.40101534
-0.13614911 0.91002536 0.1476377
-0.35263774 1.4905505 -0.43887204
-0.8996157 1.5875582 -0.030570917
0.005575614 -0.4161914 0.5823263
0.10691133 0.7047049 -0.033379454
-0.69311416 -0.07947181 -0.0151044205
-0.7150928 -0.41760525 -0.6242138
0.016148802 1.2499219 -0.6922088
-0.89594877 -0.4076891 0.7224082
-0.90377676 -0.09294245 -0.5284358
-0.6131161 -0.2508368 -0.21127112
-0.364572 1.4308057 -0.8349236
0.42972064 -0.25409222 -0.9246863
-0.5754661 1.927341 0.51103973
-0.0016142798 -0.41729075 0.37608027
-0.24405283 1.0866075 0.807458
0.32455006 1.5089622 -0.8446869
0.39759395 1.8412676 -0.51382816
-0.5187051 1.9087759 -0.16052696
-0.52278984 -0.24521993 0.9141692
-0.48645154 -0.25600594 0.11673793
0.60818696 1.3602855 -0.38796845
0.0077874865 1.9042283 0.32361615
-0.06322422 0.7137679 0.100964285
0.08315694 0.5955035 0.33849624
-0.2598493 -0.41945785 -0.75004756
0.40149015 -0.2694623 0.92443144
-0.2392834 1.842383 0.5736282
0.39720845 -0.08466244 -0.53540325
-0.18171352 1.505178 -0.5320802
0.8282268 1.075348 0.051978394
-0.47294116 1.9001849 0.33458215
0.3777308 -0.07720789 0.87696457
-0.08137435 1.1899762 0.86547375
0.26256162 1.8185863 -0.29310572
0.31982273 2.2214475 0.34414345
-0.35475373 -0.2562306 -0.7706531
0.73613083 -0.0825944 0.21738783
0.2673412 1.4757943 -0.15008363
0.39873755 1.3306159 0.80653167
-0.46720496 2.0786943 0.4478738
0.5552025 -0.42318732 0.13062745
-0.7019842 1.5889693 0.5429919
-0.13411462 1.5957887 0.4573292
-0.032220922 -0.25034034 -0.63383985
-0.5463325 -0.08544848 0.74666035
0.7824675 1.8712804 -0.18032022
0.16275322 1.1062324 -0.030264769
0.9095191 1.4881291 -0.039026204
0.5181813 0.93954015 -0.115582466
0.58033764 1.8684667 -0.2590741
-0.09003312 2.1363997 -0.20996866
0.34662935 0.773848 -0.508798
-0.09301604 -0.4172982 -0.13843656
-0.7462285 -0.4158305 -0.21409544
-0.27335876 -0.41685548 -0.060825832
-0.28323787 0.9989537 0.25549462
0.9029115 -0.089160435 -0.8970444
-0.3706072 -0.41098362 -0.90166855
0.11901277 -0.25438362 0.32067218
-0.8963481 -0.09244625 -0.33173084
-0.030525345 1.3272244 -0.19272783
-0.18904072 0.90808594 0.7107768
-0.6694609 1.2231985 0.13355565
0.034960836 2.341698 0.079035275
-0.10361163 1.8321826 -0.38486487
0.92631865 -0.24707326 0.22427183
0.15915251 -0.4144954 0.46572694
-0.03298323 -0.25719655 -0.9151293
-0.9155584 -0.26025313 -0.8725381
-0.16686584 -0.41492772 0.26028907
-0.6951076 1.1003531 0.48186678
0.0155943055 1.4576716 -0.76424986
-0.2623915 1.7903188 -0.7972298
0.69362766 1.2754898 -0.21278155
-0.3569363 0.6698204 -0.34362084
0.63615113 1.7943475 -0.087279335
0.4460795 -0.24013335 0.7586744
-0.0017144391 1.8242424 0.62698156
-0.41764152 2.0719275 -0.49648607
-0.11945163 -0.25174397 -0.063713804
0.74658036 1.3346884 0.5143893
-0.26501244 0.57392716 0.13186288
-0.1806291 -0.4213522 0.447505
0.25669754 -0.08497539 0.5425494
-0.29017484 1.5921257 -0.09513998
-0.30758506 1.8161058 -0.27962518
-0.5061052 1.836751 -0.3365032
-0.39692974 1.4346576 0.8162518
0.34129035 1.0086842 0.72615266
-0.54971516 -0.08515836 -0.54804575
0.09457083 -0.083340876 -0.6659369
0.1995034 1.4206064 0.086619124
-0.80608714 1.6365854 0.39297414
0.3589435 1.3059485 -0.6351064
-0.68932956 1.2644236 0.5823748
-0.4623481 1.5759531 -0.58265173
-0.11693829 1.4361014 0.54715323
0.04092423 -0.26182902 -0.18397614
-0.77112234 -0.24333292 -0.10274026
-0.022149459 2.0697613 -0.36815834
-0.32810783 1.4407299 -0.21827704
0.2677764 1.4817996 0.66872895
-0.26239258 -0.25395048 0.3827108
-0.5046662 0.928414 0.19648221
-0.53353834 1.5385954 0.19235045
0.22721753 0.56656146 0.16071208
-0.12530547 1.7908399 0.23621204
-0.9034749 -0.40405723 -0.10695234
-0.57959616 -0.40539974 -0.91581076
0.53168494 1.0195348 0.60115707
0.077306546 1.6679083 -0.7011098
0.2426548 1.9106674 -0.74570835
0.42595583 1.830874 -0.7034719
0.057982504 1.776171 -0.19812083
0.3546412 -0.08534176 -0.18489054
-0.5192785 -0.42112988 0.26645535
0.09861788 -0.08413713 0.4561444
0.043599784 0.5385425 0.14210324
0.8796579 1.350692 -0.22264993
0.66283226 0.8557278 -0.24378002
0.73639673 -0.086434595 -0.9052844
-0.4296353 -0.25702113 -0.47762153
0.2150045 2.3146849 0.047559172
0.09333609 -0.24230963 -0.029400801
-0.21537453 -0.41410303 -0.453309
0.3998968 1.0692856 -0.23609135
0.3885433 1.570586 0.34692916
0.3390756 -0.42127216 -0.5876985
-0.31302214 0.8533994 -0.624841
-0.5002669 2.19495 0.056595005
0.42821744 -0.41310725 0.620334
0.52715147 2.1719494 0.012029756
-0.08256155 -0.08680477 0.38336504
0.37101507 1.3097317 -0.43554732
-0.30885202 2.3008723 -0.039862182
0.23790167 -0.4006789 0.91371214
-0.20358291 -0.08243661 -0.4081949
-0.10322176 0.56958854 0.25421363
0.13353902 1.1697634 -0.5120715
0.38849854 1.6161516 -0.30228758
-0.64742815 1.7902648 -0.13947865
-0.28394324 -0.25240016 -0.1686453
0.8216964 1.7215002 -0.31073692
0.5474733 -0.41298866 -0.500585
-0.44041294 1.3143747 0.33441892
0.10915235 1.4782066 -0.4281066
-0.3782203 -0.25822777 0.24208096
-0.44363928 -0.087788254 0.24911264
-0.2077073 1.559448 -0.3172013
0.89406633 -0.0954175 0.9081223
-0.1019162 0.98260397 -0.35798237
0.929585 -0.24951462 0.85675347
0.08253479 1.9391348 -0.28326082
0.21188822 -0.41579485 0.10162598
-0.112773225 1.3784497 0.74597406
0.37349468 2.259561 0.10865628
0.17794329 0.65600336 -0.4285589
0.67254895 1.6852231 -0.2593791
-0.4942234 1.2180243 -0.23128808
0.44315317 1.831857 0.6921834
0.7337047 -0.41657817 0.43084317
-0.57558525 1.6961778 -0.66484267
0.5268848 -0.08340149 -0.33120108
-0.5475168 1.4838221 -0.7292881
0.7239438 -0.41672724 -0.39151907
-0.898422 -0.094084665 -0.14239466
0.7639091 0.95187664 -0.09551122
-0.8670788 -0.09563996 0.91413176
-0.8776978 1.5842311 0.17717537
-0.20549858 1.3179452 -0.11896691
0.27078664 0.99039614 0.11627807
-0.24234779 0.73857826 0.011293468
0.33175385 2.0928907 -0.17764363
0.2885747 -0.25043553 0.21704945
0.07708606 1.2549516 0.09759398
-0.17453803 1.2418944 0.5309714
-0.109066635 -0.26056147 0.91938734
0.51008743 1.4278008 -0.7550825
0.7117808 1.6989603 -0.48727667
-0.11089824 1.9625945 0.49334642
0.2130152 1.7455491 0.15763809
-0.17480634 1.6867383 0.8508332
0.26598614 1.611393 0.032662127
-0.17958954 1.1505914 -0.64244974
-0.54547274 0.7634733 -0.28644234
-0.75386095 -0.41344512 -0.00091285666
0.12807679 1.645473 0.6979312
0.7157041 -0.085562125 -0.19700414
0.7229899 -0.08372422 0.0061776154
0.48606265 1.9650905 -0.120746374
0.7062998 -0.41535375 -0.76373184
0.30428758 1.2149516 0.052746005
0.2511664 1.9282182 -0.13790455
0.5214602 0.72736514 -0.20285897
-0.45737714 -0.08441578 -0.73709214
0.5738932 0.7509737 0.15697172
0.267085 1.1683588 -0.3623102
0.70224434 1.8760173 -0.38974935
-0.47367156 1.9822509 0.14378351
-0.76375204 -0.24907318 -0.31907356
-0.4266281 -0.4164883 -0.18748792
0.7764338 1.1775558 0.37908357
0.35305703 1.8185666 -0.00029731946
0.15811907 1.3934989 -0.90160966
-0.7722211 -0.25432974 -0.5263902
-0.33862966 1.8939157 -0.4669618
0.2628315 -0.41108778 -0.27934432
-0.6396691 1.0445304 0.15267558
-0.69087344 1.5000217 -0.28252158
0.4367774 1.5530084 0.55276453
0.103094175 -0.2421082 -0.7642231
0.24678476 -0.08762063 0.33009762
-0.1343355 1.4507314 0.32171983
-0.5941545 1.4033849 0.018698156
-0.89164424 -0.4114169 0.32766396
-0.8566953 -0.40524536 0.907037
-0.71354914 1.8449421 0.37922046
0.34844184 -0.4176992 0.77979124
0.6624607 1.1666262 0.5592803
-0.57440424 -0.2510404 -0.7890307
0.22972253 -0.24243209 -0.18918088
-0.8944167 -0.40507355 -0.733148
-0.42804024 1.8059857 -0.6948161
-0.23135903 1.3072963 0.37437385
0.6313617 2.0840745 0.14191687
0.54841626 1.5896037 -0.17718345
-0.6123538 -0.2447781 -0.011664158
0.72997355 1.5248086 0.13037464
-0.89758664 -0.40787014 -0.32569724
0.79401284 1.3441902 -0.43011504
0.27327037 0.64412344 0.34379923
-0.6470703 2.066206 0.12316833
-0.7354698 -0.4148749 0.21636069
-0.40114197 1.216705 0.78567517
-0.7423862 -0.086593315 -0.6049113
-0.21363959 -0.41177493 0.9012334
-0.65378416 1.7565008 0.5562165
0.8834351 1.6428185 0.087840304
-0.7477926 -0.24257332 0.116616815
-0.024334181 0.9822118 0.3121736
-0.4572599 2.031549 -0.052499678
-0.5435603 0.9803425 -0.20166036
0.19529176 1.1613088 -0.68343973
0.18359037 1.3507428 -0.72657907
0.28242308 1.7129828 -0.81829834
-0.5471406 -0.4171031 -0.527521
-0.42713517 1.4802848 0.6139866
-0.2607488 -0.086256236 0.31335598
-0.9029012 -0.0958297 0.35377288
0.098213315 -0.08483589 0.67349774
-0.44904202 -0.25091934 -0.08911389
-0.6832651 1.8715589 -0.41081023
0.45151028 1.0778391 0.09927294
0.38805997 -0.08335718 0.011155172
0.1321154 0.7063415 0.5164432
0.7837392 -0.24379075 0.11846309
0.4858938 1.1810795 -0.070170134
0.1875926 -0.07903482 -0.87863636
-0.41013688 1.8367615 0.024737746
0.6026132 -0.24774048 0.42663577
0.30534297 1.2251849 0.40803832
0.48258922 2.002891 0.19353531
0.11962436 -0.25209093 0.14762169
0.6866195 1.7220933 0.09265535
0.55297613 1.6019083 0.20403378
0.0036076522 1.4803538 -0.5937336
-0.027742198 1.2259538 0.26740986
-0.39998648 -0.41851735 -0.39061838
-0.725848 -0.09035159 0.62783813
0.5502869 -0.41607505 0.33446467
-0.9005841 -0.09389914 0.54533845
-0.6275863 2.0095172 0.31757283
0.026785549 -0.416713 0.18705545
-0.67824274 1.5234019 -0.60210323
0.7514986 -0.25211585 -0.29630494
0.38036284 1.0413426 0.4485792
-0.011142127 1.3650943 0.91339254
-0.9191713 -0.26794466 0.22445706
-0.21793166 -0.093290314 0.9022343
0.12919274 1.6368003 -0.51669765
-0.8494704 -0.40618956 -0.9140651
0.3201503 1.2454937 -0.16490656
0.22672695 1.0017369 0.30137563
-0.6014401 -0.41068852 0.100466445
0.46213967 1.0913049 -0.4317128
0.21119383 2.1333094 -0.02912429
-0.40194425 1.627892 -0.2971356
-0.9259527 -0.24689195 -0.6459571
0.89476687 -0.08788109 -0.29047078
0.6227226 1.0323234 0.0130610615
-0.71165097 1.633898 -0.11987191
-0.3117798 1.4585223 0.44843006
0.21489373 1.0379095 0.55318093
-0.4990562 1.7939715 0.6828722
-0.03606558 -0.087103486 -0.3111205
0.5072159 1.279386 0.10722841
-0.53178155 1.7926394 0.20096196
0.1253565 1.1354508 0.3784202
-0.72976667 -0.41727284 -0.42578435
0.3981951 -0.4186325 -0.39599603
-0.073081404 -0.08504768 0.75927377
0.1659511 1.5779291 0.884708
-0.4804442 -0.085489064 0.036114156
0.54540336 -0.42158735 -0.67996883
-0.39912808 -0.08361053 0.64450634
-0.014091839 1.9754493 0.1256581
-0.72392565 0.88288563 -0.0050243055
-0.4451768 -0.4166049 0.017428014
0.1806508 0.98512405 -0.56576586
-0.696574 0.885898 -0.20739728
-0.10864724 2.2304049 -0.4271649
0.42602175 0.9352925 0.2744534
0.5393504 1.3683178 -0.12668082
-0.049689308 -0.25044188 0.10271545
0.58321863 -0.08558479 0.53422415
0.09908727 1.1892579 0.865286
-0.69221604 -0.41274226 0.599036
-0.23880556 1.2952545 0.86821496
0.51242685 1.7587147 -0.38423494
-0.8891227 -0.088929206 -0.7350536
0.89844704 1.4189085 0.14272583
-0.59662235 1.699311 0.36991984
0.17852674 1.8308891 -0.6033648
-0.08128753 -0.41345048 -0.32167345
-0.2974065 1.6447165 -0.63080966
-0.23198415 2.1129436 -0.5626893
0.57274675 1.3867891 0.5108533
-0.4009428 -0.08578961 -0.42239603
0.25874645 -0.18226045 0.9290074
-0.7677752 -0.24221799 -0.7429881
0.69458437 1.6520323 0.29589194
-0.45622304 1.7265764 -0.48300147
-0.34458175 1.4622804 0.2313304
-0.31364346 1.9657489 0.42901683
-0.335786 1.0272765 -0.73998976
0.060696155 1.2775403 -0.3617289
0.08289093 1.4415066 0.7638345
-0.6040374 1.6815329 -0.30220667
-0.016527759 2.0064144 0.702814
-0.18708226 2.1028771 0.36634016
-0.021368653 0.84866714 -0.040614516
-0.07553291 2.3430939 -0.10405676
-0.07078767 1.8389883 -0.031636577
-0.01138306 1.022413 -0.1644989
0.039679404 -0.08224103 0.058908083
-0.53954566 1.3458549 0.723207
0.21018466 1.3054389 0.70589983
0.73215044 -0.41775265 0.2276099
0.4322128 -0.25597337 0.08113386
-0.893831 1.2141706 -0.017101629
-0.5261818 0.9383515 0.009432332
0.163356 0.91011477 -0.050058052
0.07055312 1.5962481 0.10432665
-0.40799797 -0.084909946 0.88733125
0.26885688 1.6990485 -0.14426436
-0.33943227 2.204502 0.3697194
-0.50608826 1.3090432 -0.74348336
-0.25028622 0.9980712 -0.2335237
-0.9229981 -0.2560305 0.87207353
-0.3256132 1.1382885 0.612817
0.36717805 -0.41915566 0.43587542
-0.24035138 1.6176386 0.27679932
0.04477103 -0.41587597 -0.016711995
0.3349184 0.7372681 0.5027559
-0.46393186 1.3274553 0.13740514
0.19681433 -0.41406006 -0.45198175
-0.47680938 1.039911 0.33526134
0.18403819 1.9523358 0.066657566
-0.01004532 1.1188397 0.49697173
0.84416306 1.1433184 -0.1456077
0.19506101 -0.082113475 -0.078731
0.6337287 0.79413396 -0.039286762
0.19029862 1.5222335 -0.67162716
0.35708284 0.9300519 -0.6610533
0.0908772 1.4574499 0.57062536
-0.139871 -0.41483217 0.067753166
-0.1828108 -0.08407933 -0.19432712
-0.5460659 1.1524537 0.668329
-0.5429258 1.8992438 -0.562693
0.90080595 -0.40719992 0.122839406
0.82412714 1.764711 0.2357823
0.5687821 -0.41293156 0.7430792
0.044784248 1.9774185 -0.7243074
-0.24795344 -0.25223088 -0.58675003
0.5274813 1.7200769 0.39484066
0.8973763 -0.40767944 0.534639
0.2790172 2.105518 0.16876528
0.35621962 -0.08732742 -0.9079083
-0.08249059 1.8395262 -0.80448264
0.1447004 -0.07754508 0.8768263
0.016515214 2.1700194 -0.020956315
-0.19320452 2.2815142 0.27229637
0.28894717 2.1238303 0.52129817
0.61814475 2.014584 0.33931434
-0.5759338 1.5483758 -0.4327906
-0.25384748 -0.087948166 -0.74744344
0.7198744 -0.084967494 0.87812513
-0.72347677 -0.08320342 -0.21603909
-0.44657618 -0.24751243 -0.6375592
-0.45219433 2.21633 -0.13037111
0.6165377 1.5679331 -0.6520039
-0.63540494 1.3629173 0.26903412
-0.34368235 1.440496 -0.6496975
0.33983794 1.126153 -0.56475383
-0.12447322 1.146982 0.6831497
-0.35349056 1.0910947 -0.55417573
0.3631248 0.62381357 -0.16824368
0.85962236 1.209403 0.18792902
-0.3525141 -0.42029515 0.3549562
-0.34580117 1.9657234 -0.65733457
0.20802614 1.3716466 0.89006895
0.7387186 -0.08413741 0.4295449
0.38288593 2.0420942 0.017545667
-0.9247279 -0.2533571 -0.42809767
0.4419474 1.9865615 0.56849086
-0.19324633 0.75362176 0.56603086
-0.88184637 -0.4139952 0.5270674
0.5000193 1.4404757 -0.52767926
0.48824173 1.2013332 0.4993079
-0.3689544 0.72784954 0.4415775
0.48508206 1.1658652 0.7218151
-0.15260705 -0.25625968 -0.76242954
-0.7101893 -0.26156646 -0.9268985
0.3990382 1.7076178 0.19104914
-0.08427258 -0.24383342 0.6428647
-0.16179493 -0.090802915 -0.9158753
-0.8658618 1.4236333 0.29066044
0.070203006 0.88557285 -0.246623
0.57787085 -0.0881927 0.74804366
-0.043989357 1.3146524 -0.5190259
0.18612146 2.2944803 0.24201371
0.24021779 -0.41878772 0.6143322
-0.4959417 0.9538579 -0.5862751
-0.31735525 1.0113482 0.06942315
-0.58079004 2.094513 -0.22887062
0.035991453 -0.24726391 0.47411644
-0.64449346 1.4482303 0.6217135
-0.79403627 1.2506425 0.38299954
0.751438 -0.2536726 -0.089790575
-0.25993046 1.6965792 -0.43772998
-0.0516107 1.6159855 0.25364769
0.71658933 -0.08562541 -0.39198536
-0.683015 1.7215402 -0.51396537
-0.8210561 1.0544839 0.08383332
0.5688033 -0.08401503 0.32210708
0.2492817 1.9387034 -0.46058214
-0.113667205 1.9228354 -0.21157406
-0.265063 2.122659 0.54324174
0.4044497 1.9460895 -0.31515476
-0.52088445 1.4915347 0.40638697
0.27411437 0.7651853 0.03930821
-0.2315076 0.7559804 0.21530968
-0.4220546 1.3081901 0.5448875
-0.09425631 1.1637778 -0.26822585
0.32010126 -0.23791112 -0.7801955
-0.1576138 1.1103997 0.35621846
0.62756264 -0.27546957 0.07733665
0.65115774 -0.25027233 0.24994642
-0.4016032 2.0000825 -0.28896153
-0.1578657 1.9842253 -0.71018845
0.10404423 -0.41475654 -0.62242234
-0.19580677 1.3538747 -0.88862526
0.64647174 -0.24441528 -0.9184791
-0.65639687 0.94642377 0.37404752
-0.5982208 -0.26223946 0.27146178
0.5749389 -0.41497225 0.52632827
-0.15169454 1.5189307 0.095424265
0.29757407 1.6836227 -0.63484097
0.0066182506 1.2854795 0.6541383
-0.6958238 1.5363985 0.29815918
-0.1801018 1.0050803 0.5381936
0.8972031 -0.09106642 0.73364973
-0.5726262 2.021512 -0.396415
-0.58528376 -0.08921559 0.35579354
0.35327005 0.6716249 -0.3432154
0.31741166 1.6586306 0.66432834
0.2726869 1.755445 0.8163941
0.68634284 1.4365363 0.32019266
-0.18594822 1.1136787 -0.07240391
-0.14285412 1.1232617 0.13959627
-0.624066 -0.24891827 0.48345813
0.13018066 1.1764017 -0.21498555
0.91951126 -0.2496677 0.6449083
0.13672668 1.5917187 -0.8837803
0.41319323 -0.2515912 -0.28885442
-0.57993037 0.7474091 0.1030062
-0.48278528 -0.2622142 0.59496856
-0.35544565 0.9802295 0.4717353
0.92586833 -0.24801585 0.4387976
0.59710276 -0.2516023 0.6496748
-0.55759966 1.6820841 0.019184433
0.5274901 1.4209987 0.23303862
0.84766924 1.3570296 0.32843935
0.12546545 0.80726856 0.33849066
-0.4088358 1.0805123 -0.33310944
-0.7771133 -0.25556564 0.53842175
0.22734708 2.2705896 -0.2908849
-0.012488913 2.0974553 0.32758415
0.5432681 -0.0868759 -0.909835
0.20072941 0.84135354 0.6468817
0.09753469 -0.2588396 0.92680335
0.6568723 -0.08387777 -0.7396661
-0.006908505 1.6253089 -0.29524988
-0.10700378 0.5319562 0.022900734
0.4654426 1.6385485 -0.75652546
0.15198435 -0.08419581 -0.28471476
-0.7864132 -0.2545064 0.7310612
-0.7408811 -0.083217345 0.43794197
0.5080648 1.471921 0.7385486
0.19013888 1.6102612 -0.30339912
0.09565817 1.7005359 0.314911
-0.39173794 1.0059779 0.70503294
0.5866004 -0.2460872 -0.21877575
-0.20980866 1.4900674 0.8820642
0.7823787 1.5163181 0.462976
-0.59715986 1.1762686 0.30508855
-0.16909674 2.199523 -0.034733757
-0.6187188 -0.40392345 0.904674
0.22846842 -0.24474704 -0.3763076
-0.59761417 0.9018941 -0.41469026
-0.4305313 2.1839395 -0.31292987
0.78249764 -0.24894449 0.3415842
0.91543126 -0.24317369 -0.5938864
-0.15349191 -0.08803463 0.003981589
0.032478046 1.6438253 0.53137684
0.336594 -0.08489004 -0.360193
0.59824216 1.3167089 0.6796891
0.5475311 1.8946648 0.049857862
-0.70562625 1.5723028 0.06507188
-0.41234368 1.6259058 -0.7882648
0.89873767 -0.40776628 -0.08420463
0.6805363 1.0037062 0.44817048
-0.17616352 0.976429 -0.54897964
-0.3793655 0.8503262 0.30933052
-0.3518994 0.9583621 -0.44255728
0.056323305 -0.25698036 -0.35591537
0.69707143 1.1736989 -0.5373297
-0.51151145 1.3879509 -0.53365946
-0.05145195 1.5729079 0.70762384
-0.6773848 1.7074163 0.18170372
0.2773897 -0.08269897 -0.6972048
-0.8950189 -0.40677702 -0.5347301
0.0036321443 1.0583713 -0.6460353
-0.27943432 1.3320787 0.6672863
-0.05583392 1.1364188 -0.47418758
0.8927548 -0.40756607 0.7338046
0.22527336 -0.08447403 0.124531776
-0.23480156 1.1416157 -0.41086864
0.05854429 1.9802665 -0.08704029
-0.4481945 -0.25133 -0.2866017
0.9008411 -0.08911213 0.53255093
0.8880832 -0.40072024 0.90646625
-0.060367934 1.6488521 -0.050198704
-0.5080416 1.1535414 0.48389393
0.570802 2.0502775 -0.35159642
0.30607033 -0.40297768 -0.9171211
-0.30055624 1.9367077 -0.1211325
-0.55926895 0.77482253 0.2959441
-0.38587725 1.289027 -0.39087194
-0.14636956 -0.40956366 -0.9087892
-0.16970322 1.9534094 0.2776625
0.41539866 1.1602776 0.26355433
0.2926476 1.9577718 0.69049174
-0.3666002 -0.41538996 0.548628
0.53515446 0.9703057 -0.3118332
0.2054706 -0.4135043 -0.7605092
-0.13273835 2.1346989 0.1543028
-0.5328441 -0.08505085 -0.14474201
0.5402833 -0.10241403 0.91674256
0.72974634 0.89117795 0.10559398
0.53749335 -0.07337387 -0.12514651
-0.21101762 -0.25757915 0.76658094
-0.048862137 1.4775004 -0.9184041
0.120138094 -0.4192525 0.7528542
0.2664197 -0.2457721 0.013303462
-0.3305037 -0.418406 0.15410075
0.21983552 0.76168877 -0.19975534
-0.0079898825 1.2713346 -0.88950187
0.247171 -0.25666025 -0.6132178
-0.10582611 1.8616452 0.79486895
-0.048978783 2.1376867 0.5730263
-0.23307903 1.5950133 -0.8707156
-0.45256233 -0.25814354 0.4086893
-0.15221491 2.3324537 0.095265135
-0.1284016 -0.25853217 0.48068872
-0.36178386 1.2573116 -0.6246122
0.07594612 1.0734717 0.17303133
0.23043883 -0.2625541 0.7764975
0.93355924 -0.24796039 -0.782776
0.4469413 -0.25436807 -0.62261903
-0.3008021 -0.25384957 0.031082176
0.29118145 1.7165034 -0.44176477
0.7236961 -0.3996024 -0.91936356
-0.7197813 1.9428093 -0.23231605
0.087375686 2.1395602 0.15237612
-0.37593955 0.8254547 0.107259214
0.17347576 2.0794787 -0.6189809
-0.92595124 -0.26031572 0.43252444
0.4560351 -0.24813026 0.5297172
0.40725064 -0.25454986 0.3585605
-0.9127581 -0.10554309 0.17385718
-0.5115614 1.1254442 -0.6918782
0.4028406 0.641261 0.1641187
0.37075016 0.8623218 -0.2953204
-0.30747896 -0.0862151 0.12375685
0.019655477 -0.08358945 -0.47752362
0.6825541 1.2221892 -0.01172062
-0.40755802 -0.24117844 0.7600652
-0.26753375 0.76272494 -0.19258809
-0.06579836 -0.25107318 0.29451525
-0.22819948 1.9216399 0.08814724
-0.43282187 1.3470709 -0.09925423
0.75732243 1.0154623 -0.2894788
0.90361696 -0.087855846 -0.48952186
-0.3070398 1.635587 0.49223173
0.108621754 1.1352024 0.6808275
-0.30639982 1.8334651 0.76451623
0.518975 0.8652595 0.46751007
0.2260701 0.9945245 -0.22221556
-0.65751964 1.2839973 -0.614832
-0.20197581 0.68470067 -0.4907221
0.38798535 -0.4196483 0.01683006
0.08603726 -0.40514192 -0.91142666
-0.15508005 1.715308 -0.22076513
-0.73710424 1.2532337 -0.039395694
0.38752663 0.8899169 0.60595834
0.012728052 -0.4109977 0.90791214
-0.024795964 1.5559384 0.90307796
0.4830845 2.1743832 0.2351853
0.4005666 -0.08445749 0.21756114
-0.41972864 1.6528976 0.32062083
0.033960275 0.8740921 -0.71635044
-0.47090986 1.1180255 0.13272575
-0.20065968 1.3235635 0.19007292
-0.097521916 0.68600667 -0.10051125
0.270527 -0.08894642 0.73327297
-0.9111664 1.4061038 0.06855637
0.47955903 1.6527171 0.7489039
-0.7470007 1.4033153 0.13123977
-0.0011321793 2.2990189 0.27178383
-0.73134935 -0.08605698 -0.90151966
0.41025287 -0.41915953 -0.18034394
-0.11481098 0.8422662 -0.22057536
0.13013172 -0.25456566 0.61232007
0.89543307 -0.08808774 -0.09177263
0.88941693 -0.08320887 -0.707382
0.56337106 -0.4147703 -0.29315424
-0.151445 1.7058966 0.645046
-0.49528977 1.4281564 -0.30060706
0.33634692 1.3551329 0.22620337
-0.2953452 -0.24678934 0.58224404
-0.40366825 0.878195 -0.28389052
-0.42792588 0.7847564 -0.47669592
0.36959112 1.1098347 -0.7666253
-0.6556245 1.0766034 -0.53676605
0.5595042 1.0684317 0.35753214
-0.6410742 2.0781882 -0.06435807
-0.07949372 1.7718258 0.43499988
-0.60471594 -0.094997324 0.15558109
-0.73194414 -0.08521874 0.8013048
0.49784184 -0.24953775 0.22874442
-0.041606516 0.53529596 -0.18171835
0.17361945 0.8376633 -0.39926168
0.18253458 1.1864619 -0.86149883
-0.030165758 2.1264868 -0.5952064
0.7401279 1.7004321 0.47061443
0.31025863 0.97603923 -0.43073
-0.36139056 -0.08595312 -0.25298095
-0.82771415 1.75438 0.24854293
0.16285104 1.2687888 0.5222256
-0.12800896 0.79869986 -0.62700415
-0.42680824 0.6524049 -0.16669908
-0.8421953 1.3826814 -0.32442397
-0.5763882 1.0893037 -0.37373954
-0.40053034 1.9686327 0.6205342
-0.20421442 0.9205471 -0.053195387
-0.106306665 2.2405696 0.43650448
-0.9236194 -0.25543502 -0.21789607
0.56725895 -0.40758735 -0.07578634
-0.8722054 1.5723314 -0.2329801
0.8574817 -0.25033873 -0.929478
0.46252528 1.6364748 -0.5307584
-0.2290265 0.8326465 -0.39558125
-0.4002877 1.0675884 -0.10231529
-0.32931656 1.1900892 0.22792083
-0.12366836 1.4953958 -0.14594023
0.040960237 0.70579636 -0.23227522
0.5799386 1.5521965 0.42614597
0.7550029 -0.25080782 0.54413474
0.8947488 -0.40751988 -0.68610823
-0.062361285 1.4550734 -0.3761706
-0.4003841 0.84973943 -0.09053939
0.3604809 1.999885 -0.62119436
0.40842783 -0.2550131 -0.10643293
0.40889272 2.1876802 -0.31653875
-0.23088014 0.639333 0.36884218
-0.23262775 -0.08494519 0.5162458
0.22002956 -0.41217184 -0.09437382
0.095672816 0.52860934 -0.04161983
0.64788246 1.1510425 0.18229878
0.35660678 2.2688093 -0.107472785
-0.9019842 1.385134 -0.1365012
-0.024346635 -0.09777603 0.91517186
0.8937056 1.2768466 -0.010167781
-0.021834131 1.0241592 0.02812063
-0.24807161 -0.08601506 0.7159921
0.3651095 0.83439875 -0.107230306
-0.31504947 2.0971987 0.043211766
0.34260142 1.0324261 -0.0600906
0.19620422 -0.24563068 -0.9266864
0.08046661 1.4536285 -0.2269161
-0.22697097 2.2917192 -0.23694229
0.57234067 -0.085841805 -0.5387212
-0.33309373 1.8229871 0.21371326
0.4357201 2.0682898 -0.47278547
0.5808131 1.5616364 -0.3905756
0.90090585 -0.087184705 0.111348465
0.59786797 1.2617632 0.3377471
0.5798392 0.96738565 0.18112183
-0.35508478 0.85261804 0.6001059
0.21985638 2.060371 -0.33521634
-0.42538044 -0.4080587 0.8960763
0.12363692 1.8091421 0.45397872
-0.7318992 -0.2511155 0.91946614
0.35254663 1.307112 -0.8306206
0.5714667 -0.24684054 -0.42008078
0.68856966 1.4672015 -0.24153075
0.5619875 1.9261503 -0.5226363
0.35207647 1.8897971 0.17571637
-0.8479201 1.2105185 -0.23281808
-0.81645215 1.0417159 -0.124521896
0.39613524 -0.4112497 -0.7655237
-0.6688655 1.1543782 -0.21631512
0.71269995 1.8551551 0.36688584
0.7280766 -0.41727877 -0.18623629
0.7330073 1.9351969 0.17726901
0.7381259 -0.084596954 0.6498357
-0.61748874 -0.254753 -0.61595464
0.017701391 1.4388397 -0.015453461
-0.2550614 -0.41497618 -0.25964326
-0.41195002 0.65789735 0.23650014
0.20684767 -0.08615391 -0.49697852
0.15081379 0.9807706 0.77939975
0.096092 2.2127552 -0.45236892
0.4355127 1.4341457 -0.28281516
-0.64761055 -0.08287567 -0.7408492
0.16647151 2.0911174 0.3400088
-0.585558 0.75454533 -0.090566464
0.31663442 -0.2509002 0.62020934
0.007273095 2.300643 -0.28497952
-0.33088022 1.1564931 0.41888276
-0.3290146 2.0524664 0.23789833
0.90097845 -0.4076485 0.32872516
0.21614033 1.5481094 0.25459233
0.029410616 -0.24427396 0.77305686
-0.79040134 1.745241 -0.31841967
-0.53542274 1.539361 -0.1466385
-0.5080019 1.6265996 0.53076804
0.22341034 1.1872547 0.211913
0.62679803 1.1584873 -0.3639968
0.5708252 -0.20589319 -0.04638697
-0.71166426 0.8876029 0.19058965
-0.62334096 1.3076534 -0.377741
-0.31903642 1.2205955 0.025891189
-0.28224367 2.1972609 -0.3977485
-0.8437135 1.7726253 -0.13881317
0.16213769 1.3209374 -0.08372329
0.6743227 2.0176463 -0.20800751
-0.93191797 -0.25711247 0.63899267
0.48763323 -0.4142545 0.90607315
0.7070854 1.5947224 -0.06320594
0.16910487 1.9174478 0.26109225
-0.3322664 -0.08561626 -0.070946075
0.038189888 1.7378831 0.85054255
-0.76921713 1.9340036 -0.027953811
0.059109673 1.5084598 0.38520396
-0.23338158 1.3182869 -0.5121519
0.0676281 -0.086529 0.2532174
0.11040433 0.93432015 0.46718523
-0.12655672 -0.41603786 -0.61194134
0.27112556 1.929409 0.47785562
0.8997758 -0.40654045 -0.48645425
0.20225942 1.8118379 0.61753356
-0.4456784 1.5170579 0.013554992
0.39296308 1.7622334 0.5216849
-0.20189744 0.8694484 0.38612616
0.08683105 0.8842634 0.14473335
0.44170403 1.7717769 -0.1760547
0.7360851 -0.41987377 0.021708943
0.0076759416 0.97989476 0.6275052
0.08158828 1.9912736 0.4962954
-0.26085562 1.788197 0.3835033
-0.050986595 1.6674097 -0.87591636
-0.34017763 1.2203732 -0.81294405
0.146118 2.07616 0.6360232
0.5276808 0.7929223 -0.38849118
0.8966545 -0.4079879 -0.28643635
-0.5760894 -0.4152562 -0.31631333
-0.050813496 0.7681182 0.29221267
0.03147214 -0.09121786 -0.91622853
0.56765324 1.4713984 0.031788442
0.11091204 2.2240038 0.45323646
-0.7515391 1.0280597 -0.33291256
-0.18735582 -0.412427 0.61986816
0.5695956 1.8150886 0.22239998
0.22767124 1.6242777 0.48386747
-0.4301896 0.63896614 0.024980236
0.5206287 1.2412277 -0.5257815
0.0117703285 1.4216752 0.19490364
0.7635256 -0.24181089 -0.7428588
-0.13249141 2.0242352 -0.039999694
-0.3227713 -0.41544783 0.7396796
-0.084959865 -0.4148848 0.7609162
-0.6150565 -0.25314867 0.7252525
-0.16210218 1.3270932 -0.7038454
-0.25243443 -0.2566151 -0.9230654
0.7322093 -0.4143191 -0.58370537
-0.60446674 -0.25041693 -0.42284137
0.7715071 1.0214543 0.25414246
-0.13170046 -0.08566931 -0.59062004
-0.016535636 1.8220482 -0.600669
0.6561543 0.9832276 -0.4571261
-0.3638812 1.6485686 0.106687486
-0.18870524 1.3378098 -0.33039856
-0.5520904 -0.09096168 -0.9142586
0.260275 1.4365243 0.450358
-0.8646778 1.2387098 0.18919301
-0.27885166 -0.24660826 -0.3749841
0.5301074 -0.4105968 -0.90021455
0.37768885 -0.25377768 -0.46862677
-0.70141923 -0.41826555 -0.7982095
-0.319032 -0.25292057 0.92536557
0.38272545 -0.41732347 0.22367689
-0.01196631 1.1971623 -0.06431839
0.012401465 0.9140457 -0.50978065
0.8116062 1.8529456 0.025760766
0.7036648 -0.41686532 0.87958086
0.47749132 0.668663 -0.011863966
-0.5603656 -0.08636923 -0.33334965
0.6260905 1.0973213 -0.17438501
0.53413767 2.1523683 -0.16918257
-0.11041288 1.6614115 -0.6854211
0.63813496 0.85881734 0.31020606
0.06764344 1.9748874 -0.4947483
0.8958316 -0.40652895 -0.88042986
0.53667855 1.0585175 -0.63096535
-0.78512925 1.0748459 0.2857464
0.43514538 1.3775163 0.39174777
0.5460116 -0.25442725 -0.77806056
-0.3581427 -0.08844673 -0.91168404
-0.15166423 0.9557835 -0.756481
-0.044696115 0.8561349 0.48184973
-0.21010631 -0.24742115 0.18022166
-0.25391668 1.7714639 -0.069773614
-0.03788971 1.0040642 0.8068886
0.15222552 1.3436058 0.3065557
0.29362783 0.869516 0.42256224
-0.9242773 -0.24938534 0.0076691257
-0.04447668 0.7805234 -0.3917666
0.12207441 1.8966029 0.77682775
-0.8300211 1.7614055 0.05204024
0.36449984 1.4934547 -0.65158224
-0.11154151 1.3104606 0.042116493
-0.64868194 1.3419465 -0.18363631
0.5959711 1.8854787 0.52223843
-0.054139197 0.65826577 0.4693443
-0.51821434 -0.41941345 0.7078191
0.70916116 1.332387 0.15154375
-0.28627354 2.1163049 -0.17495972
-0.64749026 1.0639899 -0.04688269
-0.18048367 1.706216 0.08991945
0.4804796 1.2405213 -0.2780397
0.90294445 -0.0880287 0.32205692
0.2515564 -0.25145316 0.44494802
0.23779902 1.3687989 -0.30874538
-0.5460163 0.98562074 0.5699936
0.1343756 2.325811 -0.12210025
-0.002406355 0.80279607 0.66691935
0.02712111 0.7117398 -0.5544073
0.50254494 1.6827873 0.019169275
0.32605493 1.1672621 0.613875
0.6290399 -0.25204557 -0.61377764
