0.58614457 1.4073277 0.57030773
0.48765635 0.52804863 0.07543654
0.4415849 1.5614654 0.32211477
0.74479127 -0.25176418 0.7554506
0.40038955 1.0321535 0.5749973
-0.5858946 0.9592439 0.42905694
0.05174178 0.21413885 -0.37461153
0.65705603 1.225168 0.59580964
0.25000638 1.7894351 -0.534939
0.7708286 -0.24780636 0.9329245
0.4635874 -0.08636123 -0.7237166
0.0032380512 -0.41553453 -0.46496755
0.014904922 1.4280896 0.09141983
-0.7403238 1.0453259 -0.115657695
0.28570357 1.4245094 0.3046744
0.09685867 -0.23999229 -0.5272887
0.33498812 0.46721244 0.23076504
-0.33508682 -0.083923385 -0.5759543
0.12712611 0.6647005 -0.37456238
-0.9039087 -0.09401719 0.73331815
0.4498579 1.7668386 0.36869645
-0.62247705 1.4745867 -0.022832412
-0.4648827 -0.25182387 -0.9226103
0.42615646 -0.08327211 0.64387405
0.23826537 0.41263074 -0.6138676
0.8574475 1.3767828 -0.13404673
0.877658 1.2147776 -0.22974896
-0.2826134 1.0470564 -0.00048998446
-0.23648453 1.6215745 -0.40481234
0.232609 0.19676901 -0.22056705
-0.4452747 1.327346 -0.18228796
-0.74373853 0.77676165 -0.44368365
-0.0005439587 -0.056838043 -0.121187106
-0.7578999 1.5146196 0.12543544
-0.7245705 -0.085374005 -0.42044818
0.31798214 1.1347512 -0.48621476
-0.58876514 -0.41532522 -0.106668666
-0.36287072 1.3347943 0.60292566
0.08703643 1.4035149 -0.44863683
-0.27563804 0.8215122 -0.22762194
-0.06610748 1.2620833 -0.5199928
-0.24441424 1.1841313 0.6389569
-0.74857163 -0.07836438 0.22285955
0.23599884 0.5900795 -0.76953995
-0.057500523 -0.08959248 -0.75840086
0.75989795 -0.25122827 -0.485779
-0.5546082 1.2302177 0.67890406
0.5891259 1.3981407 -0.6440632
-0.100785 -0.24179912 -0.4538354
-0.15893541 1.086373 -0.7630337
-0.10482626 -0.04981249 0.18189028
-0.785594 1.144551 -0.46713966
0.38572395 1.0308018 -0.042867225
0.12652665 1.4183655 -0.06594642
0.20743445 0.9622159 -0.5554739
0.92247766 -0.24959098 0.012032894
0.056450147 0.66033584 -0.83972496
0.83357763 0.8359215 -0.3553553
0.672177 1.6827247 -0.08214989
-0.2163791 0.1851005 -0.09190291
-0.4445547 1.4325943 0.440353
-0.12052935 -0.2297417 -0.25954145
0.86107373 1.2568538 0.26081246
-0.7184782 -0.42040068 0.77412444
0.33719197 1.230899 0.80721176
-0.49722403 -0.41918683 -0.72981185
-0.73645234 0.9629078 -0.51986825
0.16773167 0.35842115 0.18166757
0.303266 0.8526058 0.809669
-0.56032497 -0.08688776 0.5373221
0.74497116 -0.08773908 -0.58087826
0.82819784 1.1818998 -0.3991273
-0.14293692 1.5686257 -0.56621385
0.3280629 0.22310543 -0.013543788
-0.021589367 -0.41485527 -0.76256126
0.72807175 -0.41852105 0.6482387
-0.1284133 0.7282982 -0.8542485
-0.47457153 0.7648877 -0.5135042
0.002499045 0.96829224 0.41255048
0.56313145 -0.08459308 0.114032045
0.2000037 -0.41491747 0.28594822
-0.35221612 -0.4171381 -0.5894803
-0.3777594 1.2894654 0.77256745
0.10115062 1.3998911 -0.87093496
-0.8911644 -0.09797624 -0.9112743
-0.76943105 1.0445472 0.43321037
0.08309601 -0.41985595 -0.24471232
0.39409485 1.1720834 0.1012364
0.5052957 0.4054615 0.3411755
-0.06412124 -0.08166775 0.56859255
0.08403587 1.7649665 -0.2636633
0.11577307 1.2151632 -0.13268155
-0.762499 -0.24368657 0.32646677
-0.5320486 1.7699673 0.18751214
0.41374618 1.2115283 -0.11600877
-0.47207883 0.47798586 0.4647099
-0.8678112 -0.082702786 0.025296971
-0.5086845 0.8085479 -0.052467868
0.73991406 1.1409786 -0.54952407
-0.21826744 1.4051178 -0.6430203
-0.23018646 1.6598275 0.6236079
-0.37714294 1.8787704 0.090799704
0.5553384 0.85947347 -0.7298783
0.31450427 1.6820531 0.27138734
0.6797485 0.9895419 -0.63719463
-0.3995148 -0.08736912 0.42759696
-0.6166874 -0.09020963 0.91625106
0.41366345 -0.08317427 0.4278852
0.5934603 -0.26434457 0.9002255
0.9212595 -0.24648958 -0.3875604
-0.89710474 -0.40700787 0.109979495
0.7513054 1.065795 -0.07238431
0.91841424 -0.24753079 -0.18742296
0.53146285 0.53885996 -0.5259309
-0.5321673 -0.4221818 0.48041028
-0.12500767 0.22608428 -0.28881973
-0.7071575 -0.41548276 0.40101582
-0.09344741 0.5502398 0.15106791
-0.34046292 1.0812218 -0.47223914
-0.89583606 1.1705556 -0.07100086
0.0053409757 -0.4157628 0.5772254
0.1546124 0.34648398 -0.023861492
-0.69162184 -0.07866877 -0.019627146
-0.7151642 -0.41797036 -0.62383044
0.04209339 0.84840816 -0.7106981
-0.8967532 -0.40641958 0.7207202
-0.9030534 -0.09114886 -0.5253888
-0.6070636 -0.25085557 -0.21049613
-0.3475501 0.99845 -0.8609539
0.42930692 -0.2541475 -0.9229305
-0.5958433 1.553427 0.45490426
-0.004633194 -0.41588408 0.36864758
-0.22128901 0.7517316 0.79700404
0.33766052 1.1208549 -0.87178135
0.3903472 1.4695816 -0.5507066
-0.5321119 1.5058964 -0.21700042
-0.52259696 -0.24429658 0.9119157
-0.47096086 -0.25114563 0.107617065
0.6238286 1.0035424 -0.40554523
-0.007641073 1.5529372 0.2735116
-0.014765294 0.3505494 0.11077033
0.13349092 0.2494424 0.3532818
-0.25655037 -0.420981 -0.750605
0.39597848 -0.26634145 0.9231925
-0.25278023 1.4920311 0.5232324
0.38074416 -0.08098863 -0.5380477
-0.16990769 1.0980954 -0.56062394
0.8534794 0.75007373 0.050518114
-0.49300444 1.5190816 0.2810982
0.37461928 -0.07501275 0.87234056
-0.06532514 0.870036 0.8529924
0.2615533 1.4504027 -0.33805287
0.2901798 1.8845649 0.2808181
-0.35359943 -0.2601724 -0.7672566
0.73653203 -0.08249657 0.21847147
0.28178114 1.1161708 -0.1860733
0.4060088 1.0263913 0.7855717
-0.49559093 1.7070305 0.3834469
0.54863656 -0.42415786 0.12892106
-0.705426 1.210841 0.49821725
-0.13468693 1.243519 0.42030334
-0.035673723 -0.2494197 -0.6312829
-0.5418627 -0.08438681 0.73921263
0.7701044 1.5316445 -0.22680497
0.19297132 0.7498585 -0.035111763
0.91668504 1.1604066 -0.060212888
0.5555197 0.585104 -0.11531407
0.5707332 1.5184124 -0.30497026
-0.116151415 1.7529191 -0.27045733
0.3924582 0.4064145 -0.5051173
-0.091132104 -0.41295657 -0.13716948
-0.7438948 -0.4161718 -0.2132788
-0.26702887 -0.41344464 -0.06481238
-0.25624928 0.62173086 0.2516375
0.9035269 -0.08806595 -0.8949487
-0.36933714 -0.41118455 -0.9013374
0.11904429 -0.24708489 0.31721234
-0.8949525 -0.091105655 -0.3275138
-0.015081974 0.94954395 -0.2224809
-0.15234149 0.5702385 0.7140162
-0.64639145 0.8249388 0.11110261
-0.0020260538 1.9786248 0.0070024393
-0.109851494 1.4396548 -0.43006742
0.9248611 -0.24819797 0.22518143
0.1556327 -0.41403478 0.45795763
-0.030744962 -0.2563879 -0.9134512
-0.9156827 -0.2589137 -0.871387
-0.16930774 -0.41100383 0.25280514
-0.66929746 0.72182727 0.4689453
0.031116791 1.0517504 -0.7898599
-0.25995934 1.3678865 -0.8433291
0.7105282 0.92985743 -0.22587478
-0.30392817 0.26597667 -0.3255928
0.62829626 1.451553 -0.12859698
0.44237506 -0.24112198 0.7561384
-0.01594782 1.4878085 0.57972336
-0.43768656 1.6544547 -0.5587723
-0.11513533 -0.23583123 -0.06710056
0.7560422 1.0291746 0.49744925
-0.215496 0.20212759 0.14678603
-0.18093264 -0.42091566 0.44021255
0.26036417 -0.082614005 0.5336299
-0.28692704 1.2020953 -0.13464382
-0.3119893 1.4152148 -0.32585174
-0.51044637 1.4231292 -0.3868195
-0.39571473 1.0912154 0.78555816
0.368374 0.69679403 0.72034156
-0.5490581 -0.08554967 -0.5474161
0.09326075 -0.081867434 -0.67111474
0.20783499 1.0720894 0.05817634
-0.8108175 1.2442225 0.34670076
0.3830107 0.92050326 -0.6540082
-0.67224026 0.8907337 0.56026286
-0.45613378 1.153516 -0.61902153
-0.10878359 1.0904992 0.5201744
0.045069292 -0.24612045 -0.18250065
-0.766783 -0.24435498 -0.10148874
-0.04036145 1.6807163 -0.42204762
-0.3125506 1.0441937 -0.25142968
0.2707538 1.1619732 0.63830817
-0.2593084 -0.24438086 0.37503025
-0.4690778 0.5383505 0.20077255
-0.53240657 1.1541352 0.15414786
0.284438 0.22053495 0.17338912
-0.13475862 1.4261754 0.1958178
-0.901428 -0.40485793 -0.10442911
-0.578845 -0.40487918 -0.9156009
0.5535372 0.709219 0.6014727
0.08259417 1.2746799 -0.7410461
0.2353997 1.5184119 -0.79258627
0.42368904 1.4506266 -0.7430156
0.054804638 1.400355 -0.23992011
0.35894638 -0.07310456 -0.18175592
-0.52049416 -0.4199893 0.2767286
0.099934414 -0.07966123 0.4553182
0.09836532 0.17881784 0.16118103
0.89431167 1.013022 -0.23729867
0.703256 0.5096028 -0.23822469
0.73697424 -0.08543755 -0.9019232
-0.4216069 -0.25806603 -0.47543493
0.18073633 1.9582076 -0.016695272
0.09705965 -0.22203495 -0.030042263
-0.21533746 -0.41287974 -0.45031962
0.43697053 0.7063879 -0.23854521
0.38811588 1.2358854 0.31566393
0.3371593 -0.4204682 -0.580991
-0.2712969 0.4399501 -0.61927223
-0.5282867 1.8018432 -0.012132634
0.42146078 -0.41362548 0.61557287
0.4988534 1.8263893 -0.048832037
-0.07868864 -0.076483 0.37917548
0.3901407 0.9409181 -0.45556206
-0.34513807 1.9110658 -0.11004056
0.23521884 -0.39920652 0.91399074
-0.20246781 -0.07355608 -0.40573698
-0.053573214 0.21148628 0.27256745
0.15842429 0.78271556 -0.5258894
0.39425367 1.2574446 -0.3363046
-0.6525024 1.3797959 -0.19363248
-0.27628294 -0.23485312 -0.1674141
0.8192251 1.3765242 -0.34532288
0.5448838 -0.41362768 -0.49427596
-0.42253777 0.9370531 0.31248313
0.122784644 1.0964783 -0.45695722
-0.3775619 -0.25068262 0.2435385
-0.44252068 -0.08389513 0.23593105
-0.20101461 1.1687667 -0.3532111
0.89265615 -0.09412754 0.90802073
-0.057523973 0.5948543 -0.3605348
0.92784387 -0.24875768 0.85824215
0.072686255 1.5606208 -0.33127886
0.20485261 -0.4103843 0.09727098
-0.10293202 1.0457662 0.7231213
0.343395 1.9141119 0.046269324
0.23267518 0.28168297 -0.42201072
0.67014706 1.3369188 -0.29378432
-0.46850717 0.8159791 -0.24982792
0.4259117 1.52017 0.6487976
0.7298453 -0.4171701 0.4292603
-0.57006943 1.2639692 -0.71041954
0.5226388 -0.08319671 -0.32670158
-0.5304493 1.0501697 -0.7610488
0.7229847 -0.41774595 -0.38857967
-0.8963931 -0.0930462 -0.14013234
0.79554546 0.6184864 -0.0916329
-0.86769354 -0.09366758 0.9128536
-0.8753499 1.1785505 0.13539547
-0.18097007 0.9462465 -0.13229182
0.30190474 0.6437273 0.11877721
-0.19213659 0.36894786 0.023492854
0.30934438 1.734556 -0.23062238
0.28356028 -0.2397303 0.2119416
0.10368107 0.8989508 0.084801346
-0.15875202 0.89454496 0.5118518
-0.11035562 -0.25993645 0.9185736
0.52653897 1.0528603 -0.7762282
0.7174311 1.333885 -0.51877916
-0.1335018 1.6152159 0.4374832
0.20507553 1.3948689 0.11727388
-0.18917 1.3546624 0.8064922
0.26721257 1.2595568 -0.0017180825
-0.1501723 0.7378576 -0.6555507
-0.5020451 0.3557646 -0.28053987
-0.7454102 -0.4144994 0.0008190684
0.12341863 1.3189588 0.6619011
0.7137491 -0.085114 -0.19419539
0.7209407 -0.08256536 0.009054679
0.4710709 1.6150603 -0.16704074
0.70423913 -0.41557315 -0.7618669
0.32759607 0.8715769 0.038242996
0.23731682 1.565774 -0.18607876
0.5677179 0.37801042 -0.19221751
-0.4551125 -0.08419135 -0.73651147
0.61673486 0.42033887 0.16567829
0.29320982 0.79569775 -0.3734557
0.6886674 1.5174265 -0.4408648
-0.49708682 1.594621 0.088729635
-0.76099426 -0.24956897 -0.3157806
-0.4205215 -0.4146083 -0.191082
0.7948166 0.85981894 0.37427646
0.343838 1.466367 -0.043179907
0.178967 0.99324524 -0.92387724
-0.77117074 -0.25448337 -0.52322555
-0.34683782 1.4839513 -0.5186429
0.25282925 -0.4077673 -0.27692506
-0.6079739 0.6481812 0.15264921
-0.679965 1.0797746 -0.3177702
0.43615127 1.2344403 0.52138937
0.104111105 -0.24279726 -0.75899386
0.24549033 -0.077915564 0.32177997
-0.12796399 1.0881976 0.29317793
-0.58094275 1.0047238 -0.011527233
-0.8914815 -0.4111116 0.32590014
-0.8584024 -0.40417552 0.9063412
-0.7292947 1.4557364 0.32735318
0.34308133 -0.41771108 0.77663296
0.6780063 0.8599626 0.55274224
-0.5737836 -0.25130737 -0.7874886
0.23000363 -0.22764727 -0.19486232
-0.8947704 -0.40405342 -0.7320647
-0.4268437 1.3801113 -0.7427075
-0.21316418 0.93715477 0.34718263
0.6099014 1.7530077 0.08320849
0.5525105 1.2374408 -0.20649719
-0.6062654 -0.24420927 -0.01048452
0.73436606 1.2023582 0.101417154
-0.89736915 -0.40745264 -0.32305187
0.81048656 0.99158454 -0.4453442
0.31970638 0.3072548 0.35533857
-0.6707874 1.6697915 0.05771064
-0.7307315 -0.4155336 0.21332401
-0.38610876 0.8719524 0.76918185
-0.7422 -0.08551368 -0.60397077
-0.21454945 -0.4105906 0.9022237
-0.6644938 1.3801446 0.5093961
0.8831023 1.3219962 0.056262482
-0.7465946 -0.2441271 0.11462703
0.012956005 0.6258879 0.3140163
-0.47858632 1.6354201 -0.112519965
-0.50969326 0.5763205 -0.19248569
0.22538716 0.76992416 -0.6937306
0.20476253 0.95745313 -0.74567926
0.28573918 1.3215617 -0.8548459
-0.54439306 -0.41788888 -0.52599955
-0.42527765 1.1222942 0.5796093
-0.25180003 -0.071658045 0.30274677
-0.9017379 -0.094327085 0.3513547
0.09516517 -0.0825876 0.66694397
-0.4413438 -0.24278657 -0.092188
-0.6913066 1.442216 -0.46602905
0.47449186 0.74240434 0.10098659
0.38848776 -0.06657095 0.013367271
0.17632118 0.3740084 0.526166
0.779708 -0.24344315 0.118070245
0.50873893 0.83548236 -0.08087206
0.19121529 -0.0793069 -0.8814567
-0.4198497 1.4510903 -0.024844032
0.59640133 -0.24786133 0.4245453
0.31750605 0.8859693 0.39292765
0.46127012 1.6695399 0.1363637
0.11532931 -0.23338863 0.14654918
0.68148136 1.3922783 0.056319833
0.5522711 1.2690324 0.17488271
0.018496815 1.0933377 -0.6227235
-0.023205966 0.87744415 0.24775296
-0.3965186 -0.41879594 -0.3892156
-0.72008765 -0.08873993 0.6261093
0.5447763 -0.41649383 0.33098763
-0.898306 -0.09156883 0.54319006
-0.65088606 1.6236753 0.25732556
0.022374654 -0.41180956 0.18121594
-0.6651464 1.0856993 -0.63822913
0.75149953 -0.2526359 -0.28980416
0.41370368 0.7139857 0.4440629
-0.002311192 1.0505092 0.8908565
-0.9196733 -0.26819882 0.22347233
-0.21948925 -0.091342784 0.90063304
0.13074678 1.2535727 -0.5536777
-0.8504436 -0.40561986 -0.91353285
0.33896422 0.8794391 -0.17872664
0.25838357 0.6644975 0.30542544
-0.5824356 -0.41248733 0.10249946
0.4897182 0.72591484 -0.43448615
0.18358433 1.7738165 -0.08737323
-0.39940575 1.2226188 -0.33730483
-0.9255382 -0.24513406 -0.6434548
0.8931598 -0.086355574 -0.28739876
0.64423585 0.6954031 0.011416825
-0.7095036 1.221916 -0.1630315
-0.30111152 1.08783 0.4207958
0.2425888 0.7112926 0.5420151
-0.51311994 1.4340489 0.6337791
-0.03254781 -0.06618258 -0.31269687
0.52337694 0.94703645 0.08408719
-0.54034245 1.4032328 0.14779592
0.13486883 0.7958659 0.36427453
-0.7280272 -0.41725388 -0.42482263
0.390574 -0.4169487 -0.39218253
-0.07578665 -0.083678715 0.754776
0.15591532 1.2632508 0.8530906
-0.4790911 -0.07925883 0.027424462
0.54406583 -0.42174608 -0.67427075
-0.3991939 -0.08338055 0.62718755
-0.032834686 1.6140413 0.07272309
-0.683457 0.47974497 -0.0043080044
-0.43473595 -0.4149959 0.0028169807
0.21896057 0.5978612 -0.5675007
-0.6577908 0.4755116 -0.20734924
-0.1387985 1.8338478 -0.49068874
0.45849562 0.60450727 0.27610177
0.55265343 1.0228668 -0.14731267
-0.053536594 -0.23216718 0.09619522
0.5798594 -0.08472709 0.53273255
0.11603354 0.8757051 0.8492256
-0.69067484 -0.4129374 0.5988239
-0.22881849 0.9644358 0.84765214
0.5100142 1.3982205 -0.42312217
-0.8885555 -0.087246224 -0.73354185
0.90647495 1.1021421 0.12662613
-0.60405135 1.3196158 0.32455716
0.17684272 1.4459426 -0.645813
-0.08111982 -0.40910533 -0.31884617
-0.29158032 1.2297907 -0.6679199
-0.25344247 1.7040648 -0.62235045
0.5822131 1.0756934 0.48679572
-0.40089756 -0.08586178 -0.4192589
0.25417936 -0.1740787 0.92897725
-0.76731443 -0.24156055 -0.7417078
0.6909083 1.3371687 0.2633915
-0.45736903 1.3085073 -0.5278158
-0.34539515 1.0937235 0.20549257
-0.3356072 1.6005359 0.37129498
-0.2984838 0.6051489 -0.7463793
0.0800188 0.8934581 -0.38463613
0.08869101 1.1172042 0.7381802
-0.60240436 1.2639174 -0.34775957
-0.04206008 1.6727338 0.64614743
-0.21714689 1.7433386 0.30200565
0.021196263 0.48534024 -0.035544604
-0.11372548 1.9633164 -0.17575617
-0.07936773 1.4657768 -0.07901627
0.023042174 0.65315545 -0.16640157
0.045791484 -0.042826183 0.059206873
-0.5310279 0.9886583 0.69712365
0.22398746 0.98563987 0.68486655
0.72820675 -0.4180882 0.22609094
0.42635047 -0.24813694 0.079108626
-0.8693197 0.7967893 -0.033463445
-0.48755231 0.54103124 0.012927411
0.20258811 0.55441356 -0.050094023
0.07010531 1.2376992 0.06891213
-0.4092601 -0.08268118 0.8850716
0.26390404 1.3396285 -0.18381326
-0.37302768 1.8355885 0.30174208
-0.48390493 0.8769176 -0.7647357
-0.2136288 0.6067958 -0.23534854
-0.9247031 -0.25374797 0.8720368
-0.30502245 0.79269886 0.60144436
0.3610303 -0.41975617 0.42929763
-0.24186337 1.2482829 0.23796672
0.040360525 -0.40910137 -0.01573429
0.37534 0.40977925 0.509856
-0.44929725 0.9413668 0.11427931
0.19037475 -0.41441792 -0.44709516
-0.44799435 0.6654102 0.32672107
0.16491827 1.5960186 0.016916536
0.011266945 0.77336794 0.49183476
0.8687686 0.8098055 -0.15089884
0.19885999 -0.049003057 -0.091281615
0.673972 0.454086 -0.031511184
0.1994319 1.1346693 -0.70428586
0.39910346 0.55278015 -0.66100657
0.0962651 1.1239285 0.5442265
-0.14353077 -0.4104311 0.06643809
-0.17684 -0.047323704 -0.19828221
-0.52560556 0.7908279 0.6542916
-0.5502522 1.4718797 -0.6161225
0.8995842 -0.40771973 0.12147701
0.8165656 1.4483865 0.19671199
0.5629802 -0.4126265 0.74139225
0.03506524 1.5782949 -0.77324057
-0.24680953 -0.25014675 -0.583022
0.518751 1.3981605 0.3564371
0.89591265 -0.40777385 0.5345613
0.25156295 1.7601931 0.111050054
0.3598512 -0.08657018 -0.90535307
-0.08416547 1.4334207 -0.8477607
0.13961303 -0.07527031 0.87158906
-0.012286481 1.8009094 -0.08181541
-0.22957802 1.9170874 0.20306742
0.26173198 1.7959136 0.4611035
0.59796584 1.6927485 0.28043634
-0.5668645 1.1239812 -0.46903294
-0.25592202 -0.08894878 -0.7448473
0.7177236 -0.0828476 0.8771839
-0.719931 -0.08307825 -0.21586202
-0.44649756 -0.24400468 -0.63442767
-0.4833758 1.8153545 -0.20147602
0.62679535 1.2025579 -0.67804635
-0.6215969 0.9753722 0.24096262
-0.32581532 1.0234305 -0.67758876
0.36817104 0.747831 -0.5700557
-0.10177176 0.81528723 0.6727575
-0.31358734 0.6766463 -0.5666461
0.41705295 0.26954293 -0.16159335
0.87582624 0.89239323 0.18126741
-0.34979546 -0.41881567 0.35337913
-0.35692465 1.5458701 -0.7124566
0.21735743 1.0606642 0.8660466
0.73594403 -0.08460261 0.42842576
0.35655743 1.690613 -0.0359768
-0.9245167 -0.2520978 -0.42403805
0.41442114 1.6669867 0.52109087
-0.14707102 0.40721083 0.5779079
-0.8820811 -0.41285366 0.5259323
0.5134759 1.0730108 -0.55172503
0.5069994 0.88479805 0.483486
-0.32110408 0.36527514 0.45680505
0.5035229 0.8641055 0.7106999
-0.15256913 -0.25787428 -0.7616521
-0.70997673 -0.26077467 -0.9259881
0.39274776 1.3668535 0.15455568
-0.08735119 -0.24201277 0.63466334
-0.16071469 -0.09003453 -0.9138403
-0.8564288 1.0246739 0.2579407
0.11220995 0.51413083 -0.23880419
0.57621384 -0.088018045 0.746789
-0.017690135 0.92871046 -0.5480753
0.15063152 1.9467278 0.17784765
0.23403198 -0.41857022 0.60884094
-0.45872274 0.5322849 -0.59225917
-0.28129894 0.6271261 0.06317258
-0.60504556 1.6809341 -0.29578906
0.033580415 -0.24311405 0.4665528
-0.6412729 1.0794032 0.5888183
-0.7754545 0.86162007 0.36269796
0.74754775 -0.25336593 -0.08632924
-0.26077014 1.2944059 -0.4803489
-0.05356361 1.2559643 0.21835276
0.7126623 -0.08500378 -0.3883574
-0.6813922 1.2873248 -0.562154
-0.78974235 0.64807534 0.0771442
0.56848824 -0.08306751 0.32051468
0.23691571 1.5641085 -0.5056226
-0.12515163 1.5381603 -0.26209044
-0.29724532 1.767308 0.4789229
0.39205408 1.5882058 -0.35925418
-0.5124414 1.1179931 0.3700807
0.31706455 0.42119563 0.052585404
-0.18406606 0.39307287 0.22665513
-0.41027462 0.9461589 0.5237927
-0.07004286 0.7782085 -0.28070834
0.31798822 -0.23885916 -0.7767492
-0.12932065 0.74193287 0.34829998
0.62049556 -0.27747446 0.07548414
0.64719397 -0.24939758 0.24905027
-0.41750434 1.5947611 -0.34717423
-0.16929099 1.5755512 -0.7617561
0.103683844 -0.4143486 -0.61765623
-0.17324305 0.93358475 -0.91164947
0.64620507 -0.24379906 -0.9173956
-0.62070525 0.5633445 0.3718593
-0.59278697 -0.2603476 0.25872588
0.56948406 -0.41566095 0.52369666
-0.14794612 1.1469259 0.06166468
0.3008775 1.2989492 -0.67069876
0.021774877 0.9533608 0.63482
-0.69201523 1.1460543 0.26116306
-0.1563211 0.66104347 0.54255664
0.8957057 -0.08926215 0.73360777
-0.5899501 1.5996132 -0.4579406
-0.5842633 -0.089894116 0.34566393
0.4023788 0.30938017 -0.33736682
0.31202298 1.3410869 0.62545806
0.25740469 1.4415874 0.77484083
0.6937165 1.1278486 0.29057056
-0.15543544 0.7412288 -0.08148451
-0.12673542 0.7550169 0.13481727
-0.6228771 -0.2519052 0.4696679
0.1521529 0.80820715 -0.22823562
0.9175854 -0.24855545 0.64585924
0.14306489 1.1909171 -0.9172635
0.4105856 -0.2493611 -0.28541833
-0.53438854 0.35526156 0.11216832
-0.4889338 -0.26267266 0.59341705
-0.32831544 0.6198441 0.4720299
0.92454016 -0.24810764 0.44006038
0.5931462 -0.25221485 0.6450996
-0.5616448 1.2871823 -0.026406972
0.5333291 1.0837841 0.211763
0.8543239 1.0436182 0.31406477
0.16539106 0.46459132 0.34345
-0.36915147 0.68273264 -0.32790375
-0.77139205 -0.255493 0.54348016
0.19466946 1.8980738 -0.35263836
-0.03930801 1.7448694 0.26860625
0.54534334 -0.086080685 -0.907683
0.23695952 0.5185039 0.6510389
0.09495102 -0.2576103 0.9251752
0.65482295 -0.082064584 -0.7344686
-0.00075159327 1.243274 -0.33139446
-0.059872 0.15323544 0.036076855
0.47307914 1.2591529 -0.7866851
0.14763436 -0.06423179 -0.28697667
-0.7885714 -0.25230056 0.73547804
-0.7394185 -0.083425194 0.43641144
0.50794095 1.1682255 0.71417
0.1947752 1.2380539 -0.3378956
0.08809526 1.3509293 0.27566177
-0.36316884 0.65721166 0.6983283
0.58236647 -0.24369204 -0.21275324
-0.21377844 1.1595209 0.84802276
0.7826181 1.2085204 0.43825528
-0.574528 0.7955617 0.2881189
-0.19971217 1.8193771 -0.09750519
-0.6209086 -0.4030819 0.90530246
0.23813543 -0.24042568 -0.38716024
-0.56129646 0.48227173 -0.41466933
-0.4588544 1.7736819 -0.38077003
0.780072 -0.25174564 0.34101874
0.9141976 -0.24171284 -0.59274864
-0.15668738 -0.056719214 0.0006140187
0.028979208 1.3038473 0.4941888
0.33082762 -0.07821449 -0.3564077
0.60887605 1.0182552 0.6599404
0.5356593 1.5571727 0.003135318
-0.7026855 1.1705158 0.025315015
-0.4038779 1.1972718 -0.82610637
0.8978243 -0.4081105 -0.08584539
0.70060205 0.68885356 0.45122904
-0.14026779 0.56560564 -0.54502904
-0.34051657 0.47494552 0.32182676
-0.3384512 0.55279946 -0.44499305
0.06353864 -0.24904443 -0.35250205
0.7228496 0.81659544 -0.5461104
-0.49257728 0.9627213 -0.56031454
-0.05342325 1.2391493 0.67237914
-0.6835228 1.3126556 0.1365233
0.27318746 -0.0827778 -0.698128
-0.8954723 -0.40603554 -0.5325333
0.035744544 0.66093254 -0.65363055
-0.26782894 0.98762596 0.6457265
-0.03332433 0.74997914 -0.48799083
0.89132357 -0.40748852 0.7339103
0.22601768 -0.05537364 0.113605715
-0.2084915 0.7299223 -0.41807443
0.04100637 1.6114204 -0.1400472
-0.4412446 -0.2474837 -0.2863242
0.8992268 -0.08748962 0.53278303
0.8861927 -0.40054074 0.90674454
-0.059050806 1.2751606 -0.08685189
-0.4851542 0.7846951 0.46979815
0.5518043 1.6918299 -0.40786108
0.30635428 -0.40372768 -0.9157338
-0.31465632 1.5447218 -0.1753156
-0.51539433 0.3914745 0.30270973
-0.36038297 0.88136464 -0.41324842
-0.14298284 -0.40921843 -0.9092135
-0.18775935 1.5902654 0.22326204
0.4458338 0.8391999 0.2567208
0.26690948 1.6376 0.64112294
-0.36536747 -0.4160196 0.5493252
0.5715505 0.6092575 -0.3122353
0.20634222 -0.41381186 -0.7559749
-0.16211869 1.7667483 0.09296999
-0.52944255 -0.08396388 -0.14997506
0.53706896 -0.09991208 0.91617835
0.76194674 0.5654361 0.10907962
0.5371202 -0.06886645 -0.12185502
-0.20970681 -0.25624013 0.76275474
-0.03194742 1.0648398 -0.9464202
0.11745427 -0.41888633 0.750828
0.2641912 -0.2291278 0.010648593
-0.3378445 -0.41675496 0.15206972
0.26437134 0.39692336 -0.19221835
0.019929823 0.8617582 -0.90818775
0.2484672 -0.25563 -0.6025677
-0.12592709 1.528811 0.74304867
-0.080279544 1.7958982 0.5109894
-0.225573 1.1668233 -0.90392184
-0.44991225 -0.25697678 0.4097777
-0.18932319 1.959858 0.024167392
-0.1289734 -0.2566061 0.47175026
-0.33843383 0.8409158 -0.6439327
0.09740031 0.7257252 0.17451611
0.22640392 -0.26097006 0.7758852
0.9325485 -0.24587798 -0.7810935
0.44303784 -0.25530684 -0.6236999
-0.2909162 -0.24433018 0.027972128
0.28746438 1.340677 -0.4821354
0.72346544 -0.39937133 -0.9183397
-0.7343762 1.5223782 -0.29149303
0.058717437 1.7844311 0.09353283
-0.33464944 0.4435911 0.11953476
0.15655711 1.6918031 -0.672372
-0.9236624 -0.25853205 0.4318415
0.4481495 -0.24800636 0.5265132
0.40011346 -0.25358626 0.3545524
-0.91115224 -0.10469541 0.17339148
-0.4790204 0.69749194 -0.70233417
0.45200634 0.30596656 0.17656401
0.40975845 0.49711126 -0.29188916
-0.3058012 -0.06986104 0.117681995
0.009868072 -0.076838374 -0.48308867
0.7043056 0.8845117 -0.024091756
-0.40581444 -0.23978391 0.75487715
-0.22313198 0.37715513 -0.18383756
-0.064406425 -0.23817071 0.28643104
-0.2406671 1.5437204 0.036548622
-0.4152385 0.9561585 -0.12400049
0.78790134 0.6715165 -0.28776214
0.9015418 -0.08557102 -0.4870912
-0.31285298 1.2685955 0.44609368
0.13284163 0.8085381 0.66818655
-0.32436553 1.4903367 0.7112522
0.55005515 0.54678166 0.4720366
0.263889 0.6340654 -0.22348416
-0.6328318 0.8483272 -0.63454205
-0.156399 0.29122126 -0.48250157
0.37986225 -0.4175241 0.01619808
0.087468356 -0.40539247 -0.9102874
-0.15361093 1.3297117 -0.26045847
-0.7167467 0.8488337 -0.062728584
0.41702014 0.5698534 0.60730803
0.010517792 -0.41065148 0.9076083
-0.03522776 1.236034 0.8674147
0.45706263 1.8399537 0.17602265
0.3987915 -0.07862984 0.21655723
-0.42465708 1.2829819 0.2770627
0.07779145 0.47733623 -0.7153119
-0.446461 0.72644264 0.11594923
-0.20848542 0.9608559 0.16506118
-0.04709529 0.30735183 -0.09210656
0.2650001 -0.08811386 0.72604764
-0.898865 0.9928149 0.03819958
0.47247064 1.3467833 0.71282595
-0.73439026 1.00225 0.10053134
-0.03792209 1.9431587 0.2019901
-0.7312131 -0.08465506 -0.8989736
0.40038285 -0.4185085 -0.17826612
-0.06808404 0.4599768 -0.21795925
0.12683386 -0.25014955 0.6075627
0.893437 -0.087449886 -0.08816248
0.88679177 -0.081051774 -0.7036205
0.5580903 -0.41581237 -0.28757608
-0.16026539 1.3622891 0.60107553
-0.48053706 1.017726 -0.33062595
0.3421197 1.0177114 0.20428869
-0.29692018 -0.2470837 0.5750121
-0.37312067 0.47838768 -0.27740818
-0.38376856 0.37049833 -0.4676766
0.40334696 0.72639394 -0.7741893
-0.622679 0.6510176 -0.54404694
0.5874797 0.7506354 0.3491782
-0.66287494 1.6735241 -0.13034397
-0.08791583 1.4226104 0.3928066
-0.60363376 -0.09759067 0.14546153
-0.7299131 -0.0822297 0.80040276
0.4921665 -0.24701697 0.22698294
0.012449864 0.14226407 -0.17372373
0.20874761 0.4577768 -0.392326
0.2140254 0.78876543 -0.8728927
-0.05045974 1.7284942 -0.65316737
0.7316494 1.3920679 0.43688184
0.34232223 0.6019666 -0.42852163
-0.35700625 -0.07685691 -0.25092998
-0.8362573 1.355084 0.19631846
0.17787008 0.9357084 0.5042838
-0.0813204 0.39638382 -0.62603074
-0.38551974 0.2621464 -0.15330274
-0.82605463 0.954345 -0.3523022
-0.5368252 0.66160554 -0.37730205
-0.42436132 1.6111563 0.5622009
-0.1585364 0.54677355 -0.05550517
-0.14214881 1.8868883 0.36908168
-0.9232656 -0.25611857 -0.21358266
0.56043935 -0.40682775 -0.0751117
-0.86609703 1.1457598 -0.2719713
0.8571624 -0.24869725 -0.927932
0.46514374 1.266199 -0.5645939
-0.19692096 0.44606203 -0.38313746
-0.3659462 0.6754939 -0.10875393
-0.3125101 0.8068026 0.21336167
-0.11197195 1.1195359 -0.18259415
0.09097451 0.32602164 -0.22668025
0.5784669 1.2345076 0.39568657
0.75250596 -0.25170237 0.5425849
0.8940767 -0.4074068 -0.68712616
-0.04780349 1.0678368 -0.40437028
-0.35384881 0.46044898 -0.081924975
0.34513164 1.6209403 -0.6716351
0.40386063 -0.2476969 -0.105066456
0.38130066 1.8267965 -0.37407458
-0.18002096 0.2832976 0.3875602
-0.23268142 -0.08477838 0.5093378
0.21318305 -0.4063863 -0.093868464
0.1390744 0.15921775 -0.026517317
0.6680882 0.8283215 0.17138615
0.32424378 1.9128761 -0.16901092
-0.88736993 0.9621668 -0.16415611
-0.027619299 -0.096142635 0.9137611
0.910014 0.95219326 -0.019352276
0.01068722 0.67264104 0.026183316
-0.25457722 -0.08498934 0.7130157
0.4037003 0.476463 -0.10100187
-0.34064752 1.7094066 -0.017031707
0.37911433 0.6764883 -0.058018196
0.19665116 -0.24695387 -0.9247167
0.09484427 1.0766388 -0.2559292
-0.26258773 1.8983097 -0.30636328
0.5595281 -0.086470865 -0.5305748
-0.3436126 1.4492935 0.1659384
0.41070354 1.7036598 -0.5242033
0.58735096 1.203115 -0.41968912
0.9001248 -0.08658083 0.11383799
0.62760556 0.9465792 0.3256157
0.6100881 0.63968605 0.18372184
-0.31465483 0.49995354 0.60523576
0.1999358 1.6892426 -0.38653278
-0.42567188 -0.4072443 0.8963778
0.11344178 1.4682906 0.4080487
-0.73207843 -0.24840003 0.9197614
0.3763746 0.9213004 -0.84847057
0.58030677 -0.24995606 -0.40930116
0.6995241 1.120949 -0.26567054
0.54264176 1.5675416 -0.57212543
0.3376379 1.5464613 0.12831822
-0.8221786 0.7876322 -0.24979106
-0.78351873 0.6267283 -0.13260293
0.39575902 -0.41183192 -0.7619293
-0.6375792 0.73829424 -0.22815728
0.6974095 1.5393113 0.32352844
0.72526634 -0.41782677 -0.18428907
0.71747553 1.6095133 0.12907028
0.7359065 -0.08349903 0.64783084
-0.6172429 -0.25748038 -0.61350834
0.01888649 1.0661418 -0.04331135
-0.25032908 -0.41063905 -0.257725
-0.3598119 0.28175086 0.25407258
0.19479996 -0.08163527 -0.49456155
0.17909199 0.6617251 0.7747688
0.06715871 1.8284668 -0.5133605
0.4469954 1.0757916 -0.30847195
-0.64488745 -0.08156639 -0.73884237
0.1412095 1.7449908 0.28366923
-0.5419615 0.35743773 -0.08295464
0.31048575 -0.25044173 0.6189343
-0.026973475 1.9194014 -0.35229826
-0.30528465 0.7897961 0.40643764
-0.3561465 1.6761067 0.17804119
0.9001235 -0.40835726 0.32793233
0.21654367 1.2030095 0.22313909
0.025155775 -0.24397607 0.76798123
-0.7927868 1.3161752 -0.36768323
-0.52770364 1.1357774 -0.18342698
-0.51357186 1.2590123 0.48857778
0.25484836 0.834049 0.1989344
0.6489594 0.8039082 -0.37047583
0.5652777 -0.19767463 -0.04386559
-0.67223084 0.49284863 0.19109118
-0.59969103 0.88163024 -0.4012484
-0.3002583 0.8384956 0.008201769
-0.3111578 1.7923799 -0.46327734
-0.8488108 1.3525033 -0.18910912
0.18104365 0.96431684 -0.10436179
0.65502053 1.6714015 -0.26162398
-0.9318874 -0.25442234 0.63677067
0.48180085 -0.41335404 0.9062804
0.71070516 1.2585697 -0.094183505
0.15387231 1.5690448 0.21158719
-0.32823998 -0.0660187 -0.07183243
0.022319447 1.415031 0.8066715
-0.7832484 1.5238682 -0.08712351
0.0627154 1.1591849 0.35564244
-0.2081917 0.9036416 -0.5341875
0.07096369 -0.064319715 0.25349265
0.14313614 0.5927131 0.4726467
-0.12710544 -0.41621625 -0.6088363
0.25191188 1.5998368 0.42606118
0.89982116 -0.40635157 -0.4876929
0.18817371 1.484285 0.57169735
-0.4424286 1.1293387 -0.0196275
0.38120776 1.4406984 0.47886673
-0.16589093 0.5153843 0.39514697
0.12640373 0.535441 0.1456523
0.4380294 1.4179835 -0.21514833
0.73291075 -0.4209013 0.021608124
0.036485016 0.64591825 0.6281251
0.057578422 1.649781 0.44290662
-0.26980537 1.4236631 0.33887032
-0.05121699 1.2575043 -0.91178787
-0.31112775 0.7927072 -0.8290467
0.11875375 1.7467778 0.57601273
0.57105166 0.4337725 -0.38125655
0.89625144 -0.40803766 -0.2877677
-0.5732378 -0.4160558 -0.31491426
-0.0072998805 0.41511703 0.3019013
0.032900356 -0.08989562 -0.9119234
0.5739915 1.1373688 0.0065589594
0.077038154 1.8825934 0.38805085
-0.71857744 0.60801035 -0.34001568
-0.18603198 -0.41251796 0.6129657
0.5572214 1.4864314 0.17854843
0.22462222 1.2893889 0.44813037
-0.38041356 0.25721103 0.03845734
0.54381734 0.874213 -0.53772306
0.019732552 1.0673484 0.16735744
0.761405 -0.24164084 -0.7391237
-0.15335655 1.6464177 -0.09635991
-0.31946775 -0.41551518 0.7394927
-0.08724962 -0.4151258 0.75771785
-0.6163057 -0.2531073 0.72475207
-0.1410476 0.9138316 -0.72577834
-0.2516901 -0.2568692 -0.9221164
0.73075306 -0.41361374 -0.58130383
-0.59893036 -0.25132948 -0.42085892
0.7958032 0.70262897 0.25405708
-0.13623318 -0.08537081 -0.5912962
-0.018532436 1.4247522 -0.6441232
0.6921284 0.62961304 -0.4568216
-0.36355585 1.268225 0.0642432
-0.16850355 0.94333065 -0.35761976
-0.5514395 -0.0902212 -0.9131541
0.2655314 1.1000423 0.42204183
-0.8424003 0.83529127 0.17042036
-0.27217728 -0.23833182 -0.3695222
0.5293044 -0.41090542 -0.89876467
0.3999132 -0.242574 -0.46410528
-0.7015852 -0.4180542 -0.7987504
-0.3198937 -0.25133955 0.92362195
0.3755194 -0.4160105 0.21863824
0.015255077 0.8387144 -0.08075555
0.053703763 0.5270064 -0.5148665
0.8002627 1.5246826 -0.018756106
0.69948757 -0.41657805 0.879058
0.5196452 0.32285297 0.0009779137
-0.55918753 -0.085718974 -0.33562687
0.650761 0.75101256 -0.17875284
0.50871515 1.8005358 -0.2304054
-0.10490279 1.2557743 -0.72114146
0.6710305 0.5379874 0.31530958
0.054842815 1.5872135 -0.5446313
0.8957566 -0.40574157 -0.8808048
0.56997323 0.68973666 -0.6348127
-0.7555587 0.6813547 0.27668667
0.44369987 1.0460396 0.37047246
0.5468031 -0.25591803 -0.7755543
-0.35666436 -0.08775394 -0.9099817
-0.11233884 0.5449541 -0.757541
-0.012079775 0.51506585 0.48799253
-0.21093513 -0.23036495 0.17988604
-0.25895703 1.3842902 -0.112391725
-0.009947961 0.6854905 0.8043183
0.16102567 0.99296546 0.280706
0.32855976 0.5354893 0.42668578
-0.92376214 -0.2493372 0.00822747
-0.006642581 0.39733672 -0.39144954
0.100068495 1.5728724 0.7267735
-0.835625 1.3530164 0.0011264551
0.37246972 1.1074204 -0.6755879
-0.0944287 0.93111396 0.03757871
-0.6314572 0.9302355 -0.21137229
0.57645404 1.5772274 0.47362244
-0.00373124 0.31465575 0.48340744
-0.51665473 -0.41910934 0.71039104
0.72149986 1.0098574 0.1305331
-0.31131035 1.7230904 -0.23655333
-0.6193445 0.66331935 -0.045582034
-0.18206355 1.3339565 0.050460428
0.49734724 0.8859496 -0.29127043
0.9017881 -0.08721386 0.3242259
0.24763684 -0.24756224 0.4415413
0.25365716 0.9933159 -0.33162844
-0.5165592 0.61893785 0.5637354
0.099014476 1.9589798 -0.18828419
0.03847286 0.47221738 0.67381006
0.073817894 0.3228065 -0.54610837
0.50141275 1.3428061 -0.013600826
0.3465243 0.8488631 0.6000184
0.62487483 -0.25040445 -0.60613596
