0.58265555 2.6399302 0.6272975
0.4513337 1.8097572 0.07466675
0.4479781 2.8255246 0.3876025
0.7471942 -0.25160074 0.7533734
0.37390152 2.281217 0.60823584
-0.6125876 2.2629185 0.43814224
0.011887617 1.5370293 -0.38239962
0.6438553 2.455243 0.6436033
0.28412184 3.1036396 -0.4712028
0.77800095 -0.24957919 0.93067133
0.45886302 -0.085461065 -0.7284485
0.0041259336 -0.41686347 -0.46894586
0.02158336 2.7222953 0.13673922
-0.74983203 2.386662 -0.09671517
0.28491068 2.7009978 0.35705745
0.097377494 -0.24663584 -0.5303416
0.29548046 1.7446998 0.22180785
-0.33888686 -0.08556765 -0.5832239
0.108748764 1.9856188 -0.36810088
-0.90624076 -0.096598014 0.7300743
0.4541396 3.0390625 0.43421602
-0.6119009 2.8080838 0.026814803
-0.4776823 -0.2535724 -0.92604923
0.42523664 -0.08229248 0.6423144
0.21574754 1.7420175 -0.61818534
0.8589604 2.6548283 -0.07280381
0.8744258 2.5020838 -0.18470192
-0.28930995 2.3567786 0.022693895
-0.2148656 2.959295 -0.34777698
0.19028074 1.5103137 -0.23093122
-0.4423468 2.6602616 -0.14469883
-0.7571859 2.1427252 -0.44940442
0.0012459958 -0.08602113 -0.12870085
-0.7510507 2.8461065 0.16876277
-0.7235266 -0.08458285 -0.41900325
0.31983775 2.451013 -0.45362538
-0.5900171 -0.41564143 -0.10366501
-0.39332873 2.6272876 0.6751021
0.0959721 2.7253237 -0.4042554
-0.29682684 2.1405451 -0.23040462
-0.054731913 2.5953393 -0.48557776
-0.26168603 2.4612052 0.67043376
-0.7585871 -0.07750438 0.21595493
0.21688479 1.9279811 -0.76726747
-0.06012472 -0.08889994 -0.76395
0.75307626 -0.25078708 -0.4980945
-0.56574225 2.52183 0.7123249
0.5949381 2.7071524 -0.6019727
-0.107106894 -0.2476643 -0.46263415
-0.16162406 2.4419868 -0.74105483
-0.11508135 -0.08152576 0.18773603
-0.7853869 2.5148172 -0.4416893
0.37615392 2.312735 -0.0008473313
0.13405153 2.720576 -0.01876432
0.20021309 2.2868195 -0.5281712
0.92031777 -0.24910468 0.0023832102
0.039362118 2.011106 -0.83411026
0.82212186 2.1357245 -0.33175492
0.6858928 2.9638786 -0.0044176863
-0.25036955 1.5016091 -0.10995534
-0.44582182 2.7337089 0.4820185
-0.1312758 -0.24526504 -0.26243067
0.85123897 2.5111518 0.31022203
-0.7216398 -0.42031997 0.77389026
0.32548845 2.4611816 0.84731555
-0.50039375 -0.41949642 -0.7268892
-0.7438937 2.335097 -0.5091505
0.12500626 1.6465088 0.17191084
0.26329052 2.0948935 0.8273821
-0.56309855 -0.08536665 0.5537137
0.74905354 -0.08817047 -0.59256077
0.8246409 2.4844255 -0.35803926
-0.12735659 2.908277 -0.51325274
0.29544044 1.5173167 -0.021800537
-0.03325144 -0.4144583 -0.7680019
0.7311467 -0.4176418 0.6418842
-0.1434871 2.087659 -0.84770644
-0.4958288 2.131141 -0.5179033
-0.023696331 2.2520566 0.42673182
0.5621666 -0.0846921 0.10400894
0.20891309 -0.41622156 0.2916421
-0.35501942 -0.41751683 -0.58228886
-0.37777597 2.550692 0.8176656
0.11684989 2.7463875 -0.8221668
-0.8924887 -0.09909777 -0.91111445
-0.78820086 2.3608775 0.4479208
0.09095496 -0.42030054 -0.25441197
0.3853655 2.453721 0.14158058
0.461751 1.6708627 0.33633575
-0.06473245 -0.08248988 0.5710403
0.11357023 3.0736666 -0.20028606
0.11179918 2.530269 -0.096797585
-0.7623962 -0.23987363 0.32214162
-0.5079728 3.0862765 0.25059465
0.41553068 2.4909458 -0.074090704
-0.52343297 1.7802851 0.44250357
-0.8730227 -0.08415243 0.022837792
-0.5320153 2.134891 -0.040255383
0.73883766 2.4571118 -0.5115914
-0.2103338 2.7516103 -0.59560955
-0.21929824 2.9342961 0.6808183
-0.34887123 3.1950035 0.15897517
0.5452213 2.182889 -0.707384
0.3219145 2.951192 0.3406096
0.67656255 2.3041105 -0.6053767
-0.4028183 -0.08879124 0.45084172
-0.6253048 -0.09186373 0.9162098
0.4095531 -0.083628066 0.4313819
0.59961116 -0.26348013 0.89766765
0.91775274 -0.24746495 -0.39603394
-0.89708865 -0.40808323 0.107605934
0.74525833 2.347416 -0.034556575
0.91511244 -0.24857822 -0.19820704
0.5096272 1.8528688 -0.52463865
-0.53429055 -0.4200104 0.47327048
-0.17013165 1.5446364 -0.30079806
-0.70511305 -0.41483766 0.39867353
-0.13583797 1.846643 0.14095491
-0.34381583 2.4309478 -0.4458723
-0.8993014 2.520631 -0.047551036
0.00653455 -0.41644508 0.5784745
0.11511509 1.6431227 -0.032091044
-0.6936946 -0.07879231 -0.011784206
-0.7147187 -0.4167226 -0.6199473
0.0327089 2.1911278 -0.69072163
-0.8977347 -0.40693367 0.7184669
-0.9027369 -0.09223646 -0.5268611
-0.61236113 -0.25155914 -0.21015206
-0.34565085 2.377411 -0.8434336
0.4247957 -0.25448692 -0.92503804
-0.58975554 2.8618088 0.49685556
0.0014004424 -0.41704094 0.37391645
-0.26301548 2.0155282 0.79739904
0.34162867 2.4545646 -0.83667743
0.40796465 2.7864666 -0.5034567
-0.51883626 2.8451207 -0.16620584
-0.5257447 -0.24542281 0.91071045
-0.49744043 -0.25237262 0.11935776
0.6180064 2.3081808 -0.37577677
-0.0024062993 2.838893 0.32572478
-0.060055017 1.6506858 0.09614891
0.08358815 1.5323442 0.33645102
-0.2679952 -0.41818768 -0.7476095
0.40310502 -0.27015188 0.92061704
-0.25638643 2.7731886 0.57215035
0.39340812 -0.08502954 -0.5361956
-0.16987655 2.4490469 -0.53584313
0.83190536 2.0244212 0.06553609
-0.4773611 2.835475 0.3276294
0.3733229 -0.07677017 0.8750591
-0.09961429 2.1184766 0.86071163
0.26280326 2.7601638 -0.28351185
0.30572557 3.1596613 0.35505986
-0.36403516 -0.25324112 -0.77401805
0.73471344 -0.08187628 0.21010807
0.26992178 2.41652 -0.1384527
0.38111562 2.253964 0.8135073
-0.4769018 3.0127552 0.44196108
0.55531585 -0.42274618 0.123993926
-0.7145344 2.5193233 0.52967095
-0.15393539 2.5335832 0.45863035
-0.037440166 -0.24959171 -0.63716865
-0.55053186 -0.0853739 0.7465204
0.78304553 2.8181233 -0.15320817
0.16725755 2.0439498 -0.033499043
0.9096258 2.438058 -0.017713802
0.52764404 1.8868566 -0.10612033
0.5834714 2.8110127 -0.24040681
-0.08674498 3.0740802 -0.20733799
0.36772966 1.7204499 -0.5062486
-0.08966623 -0.41679657 -0.13799873
-0.74317575 -0.41553926 -0.21358094
-0.2700086 -0.41658574 -0.05683268
-0.28757852 1.9381735 0.24389881
0.9019733 -0.089026116 -0.89787114
-0.37906325 -0.41127372 -0.90166414
0.117260516 -0.25481516 0.3149727
-0.89572674 -0.09147076 -0.33029824
-0.025898736 2.2672143 -0.1953586
-0.2072433 1.8384191 0.6974405
-0.67210865 2.157288 0.11888507
0.029349888 3.2791 0.0834256
-0.09790882 2.7713134 -0.38384885
0.9218652 -0.2473769 0.2177737
0.16160038 -0.41417903 0.4643762
-0.04274512 -0.25691515 -0.91600144
-0.9160317 -0.2604557 -0.870069
-0.1606229 -0.41456038 0.25999415
-0.70482576 2.030072 0.4600851
0.031920172 2.401773 -0.76335394
-0.25500393 2.7364614 -0.7952243
0.7023653 2.225194 -0.19879466
-0.3391614 1.607928 -0.36133635
0.63418174 2.7371435 -0.06829403
0.44601244 -0.23948336 0.75475264
-0.02126765 2.754441 0.63047063
-0.41371316 3.011218 -0.49802098
-0.11895655 -0.2518291 -0.06042514
0.73512447 2.2724948 0.532367
-0.26097798 1.5094002 0.12103793
-0.17910692 -0.421102 0.447882
0.2519134 -0.08412297 0.537974
-0.28930083 2.5282679 -0.097421736
-0.30425107 2.7541149 -0.28256047
-0.5020293 2.7739513 -0.34258664
-0.41486502 2.3591733 0.80745494
0.31113333 1.9386792 0.73578095
-0.5499129 -0.08488928 -0.54420245
0.08841619 -0.08323422 -0.6680144
0.19882803 2.355167 0.09429434
-0.81510293 2.568048 0.3754912
0.3726256 2.259077 -0.62900144
-0.7026171 2.1936662 0.56361604
-0.45125073 2.5157757 -0.5916915
-0.12988974 2.3709764 0.54389906
0.040172532 -0.26040208 -0.18805373
-0.771744 -0.24227753 -0.10434379
-0.017499868 3.009889 -0.36563116
-0.32538596 2.3782322 -0.22280489
0.2511515 2.413843 0.67748153
-0.25994003 -0.25359744 0.37795705
-0.51057327 1.8639078 0.1805518
-0.53543353 2.469178 0.18507338
0.23323493 1.5059912 0.15946017
-0.13325188 2.7273755 0.23152685
-0.9025667 -0.40427184 -0.10807375
-0.5880893 -0.40709955 -0.9153466
0.5319091 1.9551158 0.5997441
0.08976602 2.6076298 -0.6951693
0.25425655 2.855712 -0.73593426
0.43730024 2.778348 -0.69156516
0.059289854 2.7154498 -0.19370234
0.35261324 -0.08488214 -0.19013046
-0.51487565 -0.42217457 0.26162404
0.094973266 -0.08331409 0.45030612
0.04888825 1.4762676 0.14084902
0.8859663 2.3031673 -0.20453537
0.6768111 1.8056822 -0.232514
0.73344135 -0.08621907 -0.90551496
-0.43212435 -0.25588864 -0.4730965
0.20910665 3.2536302 0.053490497
0.093053445 -0.24224548 -0.033988982
-0.21606253 -0.41444775 -0.45105118
0.40508676 2.0147047 -0.22819549
0.37890035 2.5104303 0.35884196
0.3326049 -0.42148364 -0.59392095
-0.29081616 1.7928547 -0.6376157
-0.5035547 3.1305678 0.052817725
0.43069738 -0.41272587 0.61765456
0.52338654 3.1129184 0.028918134
-0.084489554 -0.08627866 0.3805552
0.3858574 2.255466 -0.42581707
-0.3097613 3.2384896 -0.040978372
0.23884173 -0.40273973 0.91077507
-0.20415822 -0.08271876 -0.4098432
-0.10193189 1.5056868 0.24835503
0.14930013 2.1115906 -0.51089394
0.39122033 2.5570316 -0.29137677
-0.6467041 2.724365 -0.1482554
-0.28535396 -0.25146425 -0.16340303
0.8269088 2.6722014 -0.28750068
0.5432519 -0.4131827 -0.5080809
-0.44915253 2.252213 0.32405156
0.11899439 2.4182115 -0.4236266
-0.37869358 -0.26049626 0.23558514
-0.443393 -0.08820763 0.25157994
-0.20148775 2.49664 -0.31935468
0.8940706 -0.09493353 0.90533435
-0.0903139 1.9219632 -0.3640256
0.92720354 -0.2499933 0.8500352
0.08441012 2.8791337 -0.27862972
0.21681929 -0.4156956 0.09817232
-0.12909454 2.3098588 0.741276
0.36583814 3.1994283 0.11856742
0.19943252 1.5978794 -0.42642045
0.6790601 2.6303809 -0.24101198
-0.48639488 2.1517706 -0.24451318
0.42750555 2.7635727 0.7057295
0.7326204 -0.41622207 0.42346078
-0.56557685 2.6354818 -0.6727206
0.52096194 -0.082680225 -0.33894256
-0.5327887 2.424435 -0.74020284
0.7203133 -0.4164291 -0.3989675
-0.8967769 -0.09274689 -0.14262506
0.77260303 1.9009546 -0.08257769
-0.8695242 -0.09501066 0.9106217
-0.88146436 2.5159965 0.16005188
-0.20571455 2.2524529 -0.12781239
0.27315018 1.9289498 0.11789526
-0.23755619 1.6768491 0.0014951002
0.33258212 3.032003 -0.16921136
0.28909236 -0.24933958 0.21359155
0.0695557 2.190086 0.0921364
-0.18619978 2.1752543 0.523458
-0.10967501 -0.2609454 0.91497815
0.52522624 2.3763962 -0.7451374
0.71847045 2.6524687 -0.4685823
-0.12165388 2.8943055 0.49534833
0.20859566 2.683096 0.16504782
-0.1922569 2.617651 0.850494
0.26530242 2.5495002 0.041228995
-0.16107404 2.0924044 -0.64826477
-0.5301721 1.697932 -0.30721954
-0.7525459 -0.41331834 -0.004011158
0.11049035 2.5770793 0.7017821
0.7132181 -0.08523443 -0.20662339
0.72102714 -0.083147615 -0.0023993813
0.4854895 2.9067264 -0.10599685
0.7017204 -0.4147355 -0.7666867
0.30202234 2.149374 0.060827993
0.25130367 2.8684845 -0.1287244
0.5365133 1.6749685 -0.19777036
-0.46959186 -0.084447816 -0.7323115
0.5780045 1.6931245 0.1634382
0.28015977 2.1140928 -0.35874635
0.7088951 2.8253307 -0.36370534
-0.47605872 2.9171674 0.13735086
-0.7650804 -0.24836391 -0.3169713
-0.42330462 -0.4166153 -0.18034548
0.7697567 2.124785 0.3902333
0.35132322 2.759636 0.01142605
0.17633325 2.3385334 -0.8987084
-0.7714653 -0.25348717 -0.52228403
-0.33263317 2.8342838 -0.467919
0.26474544 -0.41174972 -0.285198
-0.63977754 1.981469 0.12202896
-0.68491673 2.435174 -0.29542798
0.42259625 2.4877734 0.56719273
0.09504987 -0.24198812 -0.7683983
0.24498592 -0.086644195 0.32475203
-0.14079165 2.3889122 0.3203953
-0.5946194 2.3351986 0.0065682554
-0.8899988 -0.4121771 0.32381433
-0.8604797 -0.4056831 0.9042015
-0.723687 2.7771957 0.36314702
0.3517665 -0.41809946 0.77712893
0.6552632 2.1038737 0.56640244
-0.57811797 -0.25236994 -0.78569525
0.22933751 -0.2419579 -0.19189548
-0.89483654 -0.4050755 -0.72969615
-0.42026025 2.7472277 -0.69681406
-0.24254555 2.2463498 0.37006927
0.62235355 3.025226 0.16512518
0.54944015 2.5379462 -0.16508314
-0.6151929 -0.24299814 -0.01504045
0.72564673 2.4664478 0.15114534
-0.8973446 -0.40740943 -0.32056445
0.80405295 2.2970567 -0.4146489
0.27409518 1.5825592 0.34609765
-0.65100825 3.000545 0.115613535
-0.73356473 -0.4149409 0.21470772
-0.41865793 2.1453624 0.77304065
-0.7388812 -0.08578357 -0.6005808
-0.21258631 -0.41403294 0.89604425
-0.67181456 2.688284 0.539272
0.87888765 2.5880558 0.11316754
-0.7454994 -0.24359751 0.115365565
-0.025725046 1.9202992 0.3055053
-0.45699435 2.9675581 -0.05650039
-0.5297389 1.9135978 -0.22346662
0.21473709 2.1061397 -0.68103206
0.19698071 2.29431 -0.7227724
0.29629326 2.659236 -0.81012726
-0.5472536 -0.41658095 -0.52301216
-0.44185352 2.4141784 0.6082166
-0.26328868 -0.08612446 0.31097895
-0.90268743 -0.09563346 0.35043085
0.09423433 -0.084095 0.66807926
-0.45155734 -0.25139952 -0.08353264
-0.67903256 2.8088117 -0.41793382
0.4556018 2.016113 0.108604684
0.3876375 -0.082698956 0.004912032
0.12697306 1.6416264 0.51412636
0.78125685 -0.24326375 0.10900833
0.488887 2.1229537 -0.057228032
0.1814977 -0.07853226 -0.8784742
-0.41343212 2.7696643 0.019219022
0.6020702 -0.24721447 0.41897768
0.30402774 2.1694849 0.41620612
0.47563732 2.9413564 0.21305397
0.12477349 -0.25214344 0.14146236
0.68177104 2.6637402 0.112033784
0.54635787 2.542438 0.2175837
0.016151218 2.41656 -0.59193504
-0.020215383 2.155251 0.26779854
-0.39930415 -0.4182912 -0.3853633
-0.7279265 -0.090215415 0.61911124
0.55054903 -0.4159069 0.3276394
-0.9007573 -0.093580365 0.5387535
-0.6354085 2.9426012 0.30676436
0.032094985 -0.41659325 0.18453968
-0.6663883 2.4624486 -0.614729
0.74796844 -0.25229764 -0.30683687
0.36837125 1.9797058 0.45317477
-0.029513141 2.2930417 0.9117313
-0.91919404 -0.27092516 0.21990213
-0.22109352 -0.092759654 0.9006163
0.14157455 2.576006 -0.51083183
-0.8506739 -0.40661114 -0.91423523
0.32887357 2.1910367 -0.15777214
0.22229466 1.9352138 0.29891515
-0.6037524 -0.41039228 0.09861304
0.4759688 2.0364609 -0.42289782
0.21061525 3.071186 -0.020915356
-0.39609838 2.5653205 -0.3026502
-0.92570174 -0.24756902 -0.6411832
0.893366 -0.087375335 -0.2967935
0.6292472 1.9786844 0.025658442
-0.70996606 2.566547 -0.1320906
-0.3236019 2.398441 0.44200572
0.20185792 1.9690868 0.55792433
-0.52265894 2.7347984 0.6660713
-0.041505694 -0.08594181 -0.3105899
0.50371146 2.217044 0.12460488
-0.53777087 2.727083 0.19500166
0.13222739 2.0684438 0.38335907
-0.7286303 -0.41712052 -0.42237228
0.39711404 -0.41831636 -0.40439683
-0.07336791 -0.08490679 0.75947154
0.14873025 2.5079236 0.8885946
-0.4888377 -0.08402456 0.041407086
0.5384083 -0.4214586 -0.6861444
-0.39885294 -0.08278993 0.6489004
-0.019018486 2.9117317 0.12866813
-0.71853995 1.8150779 -0.030552305
-0.44277236 -0.41567844 0.027490117
0.19731078 1.928494 -0.566105
-0.68485695 1.8193172 -0.23182406
-0.10524227 3.1695123 -0.4251066
0.4247615 1.8701627 0.27944428
0.54418004 2.3112915 -0.11322202
-0.044294897 -0.24967703 0.104983255
0.5814737 -0.08488289 0.53017294
0.079109594 2.1178603 0.86467314
-0.69640887 -0.412782 0.5961821
-0.25702924 2.2221804 0.86062264
0.5181595 2.7027493 -0.36808866
-0.8893317 -0.08929968 -0.7326509
0.89536077 2.365622 0.16247194
-0.60368204 2.6317744 0.35984275
0.18243226 2.7717552 -0.59814936
-0.082707435 -0.4134759 -0.3207376
-0.28625235 2.5846896 -0.63545716
-0.22596371 3.0529037 -0.5625565
0.5606849 2.3201003 0.5288932
-0.39731693 -0.08554605 -0.42322618
0.25784332 -0.18592526 0.9254905
-0.7696391 -0.24346149 -0.7383547
0.683913 2.5883384 0.31534672
-0.4465311 2.6649995 -0.48865324
-0.34452832 2.3927233 0.22218513
-0.32136887 2.8996933 0.42701948
-0.3148653 1.9691131 -0.75149393
0.07517958 2.2180738 -0.35848725
0.06390552 2.3736968 0.7645781
-0.59889233 2.6174805 -0.31135738
-0.031019587 2.9380877 0.7059839
-0.19411197 3.0365794 0.36720663
-0.014813918 1.7865455 -0.04502663
-0.07596257 3.281528 -0.10149341
-0.072587356 2.775731 -0.028057026
-0.0029040952 1.9605386 -0.16984211
0.038009733 -0.082000546 0.055632554
-0.5569448 2.2760382 0.7085843
0.19149186 2.2367573 0.71037424
0.7309005 -0.41701838 0.22105414
0.43013948 -0.25434297 0.07604258
-0.89219975 2.1483624 -0.04104794
-0.52050865 1.8727725 -0.0091586225
0.16902138 1.8480392 -0.052868277
0.069231294 2.5321894 0.10850537
-0.41218013 -0.08464943 0.8868799
0.27314997 2.6378818 -0.13418657
-0.347074 3.1390634 0.3679708
-0.48747027 2.2505207 -0.75573486
-0.24195462 1.9360871 -0.2446814
-0.92392313 -0.25512838 0.86638856
-0.33914846 2.0695572 0.6003171
0.36844492 -0.41853923 0.43326616
-0.24809733 2.55274 0.27430585
0.05009295 -0.41581747 -0.019707756
0.33218086 1.6786408 0.5099641
-0.4668557 2.2599123 0.1255438
0.1943498 -0.41405046 -0.4572436
-0.48236534 1.9714625 0.32358733
0.18101305 2.8903732 0.07488957
-0.017705057 2.0533352 0.4897399
0.8512614 2.0947795 -0.12947094
0.1934818 -0.0814606 -0.08347592
0.64280456 1.7404997 -0.03071217
0.20688018 2.4639668 -0.6650299
0.3775325 1.8779814 -0.6570506
0.076482356 2.3908553 0.57195777
-0.13268125 -0.41447324 0.067046836
-0.18470576 -0.08350912 -0.19051075
-0.56103885 2.0827267 0.6520768
-0.5367499 2.838314 -0.566587
0.89915025 -0.40828395 0.11506401
0.81404734 2.7069805 0.26034188
0.57137936 -0.41276145 0.7387234
0.052754257 2.9183278 -0.72202307
-0.25186735 -0.2514524 -0.586555
0.51592505 2.6563387 0.41033202
0.8956778 -0.40913785 0.5261215
0.27396098 3.0426548 0.17918561
0.35081023 -0.08715911 -0.9081515
-0.07423572 2.7759984 -0.80711776
0.1443055 -0.0773714 0.87617576
0.015882464 3.107503 -0.017733585
-0.20004407 3.216892 0.27340934
0.2742598 3.0583668 0.53270364
0.60361886 2.9530501 0.36581564
-0.56716156 2.4867263 -0.443371
-0.26250684 -0.086973876 -0.74919116
0.71855557 -0.0846017 0.8769456
-0.7206516 -0.082613796 -0.21543589
-0.44449177 -0.25138363 -0.6346979
-0.45194417 3.1535459 -0.1324229
0.62804127 2.516405 -0.63882065
-0.64121574 2.2947598 0.25342372
-0.33001697 2.3804595 -0.6575853
0.3571695 2.0757544 -0.5603632
-0.14107972 2.0788436 0.6758668
-0.33832306 2.0289516 -0.5665684
0.37800834 1.5676285 -0.16818163
0.8590789 2.1565983 0.20376535
-0.34938776 -0.42001736 0.3526947
-0.33876145 2.907476 -0.6573739
0.18825927 2.300791 0.8937671
0.7363377 -0.08311711 0.42329168
0.38149953 2.9823408 0.030458495
-0.9250746 -0.25280005 -0.4247782
0.43184942 2.9233332 0.57882833
-0.20572892 1.6867558 0.55383193
-0.88315564 -0.4139395 0.5224197
0.51240355 2.3880053 -0.51677066
0.4772486 2.1356359 0.5132455
-0.37720782 1.6607227 0.42373213
0.4647289 2.081574 0.728081
-0.16178432 -0.25548413 -0.76329285
-0.7149384 -0.2608347 -0.92561674
0.39239395 2.6459427 0.20342508
-0.08087613 -0.24457411 0.6430216
-0.16867518 -0.090406075 -0.9163251
-0.8720559 2.3539834 0.27084118
0.081110805 1.8248494 -0.25283974
0.57618135 -0.08731826 0.7451681
-0.03268688 2.2495594 -0.5138603
0.17815796 3.2325401 0.2474294
0.24347529 -0.41892165 0.6127002
-0.47580856 1.8924041 -0.6014333
-0.31323612 1.9447124 0.05674724
-0.57949966 3.0320528 -0.23268867
0.03783428 -0.24609394 0.47302502
-0.6586733 2.378286 0.6060627
-0.8018998 2.1803305 0.36121267
0.7487363 -0.25369257 -0.10011187
-0.25005162 2.635517 -0.43961912
-0.058752887 2.553034 0.25370818
0.7122105 -0.08551295 -0.39979362
-0.6748197 2.6602943 -0.5237322
-0.8202356 1.9865015 0.057333205
0.5664481 -0.08347731 0.31687796
0.25495034 2.878025 -0.45658234
-0.11189873 2.8600383 -0.20960954
-0.2758459 3.056931 0.5422064
0.4073937 2.8859732 -0.30443108
-0.5311948 2.425433 0.400821
0.28078678 1.706749 0.038650326
-0.2325039 1.6917441 0.2049832
-0.43450043 2.2428927 0.5332662
-0.08400343 2.1043243 -0.27715576
0.3136713 -0.23712634 -0.7828977
-0.16366747 2.0498898 0.34594405
0.6244631 -0.2752514 0.068323255
0.65047956 -0.24837872 0.24041614
-0.39897087 2.9385843 -0.29136825
-0.1488522 2.9241338 -0.7100959
0.09619686 -0.41509885 -0.62629056
-0.17751291 2.298375 -0.8934059
0.6430211 -0.24446326 -0.918306
-0.6643934 1.8774536 0.3504341
-0.5960452 -0.2663899 0.28106064
0.57488835 -0.41458637 0.5195706
-0.15145352 2.453035 0.0945193
0.308446 2.6324406 -0.6256404
-0.009326251 2.2172685 0.65044737
-0.7013666 2.4665265 0.28564912
-0.1892118 1.9403882 0.5254383
0.8960072 -0.090164766 0.7276931
-0.56984913 2.9594877 -0.40009183
-0.58073914 -0.09006768 0.3625412
0.3743564 1.619015 -0.3413974
0.29955754 2.5916247 0.67456347
0.2545843 2.6858535 0.82551813
0.6773468 2.3685205 0.34193134
-0.18026596 2.050155 -0.082107455
-0.14067495 2.059596 0.13200472
-0.6243961 -0.24850136 0.4916861
0.14300418 2.1146889 -0.21455818
0.9154743 -0.2507469 0.63851863
0.15669784 2.5356975 -0.87888825
0.40879655 -0.25145477 -0.297244
-0.5782098 1.6810708 0.08080077
-0.4781444 -0.26158714 0.5941477
-0.36234808 1.9102442 0.46065286
0.921917 -0.24870959 0.43248856
0.5974176 -0.25098246 0.6468797
-0.5592208 2.6152506 0.0114144655
0.5233389 2.36446 0.24774617
0.84322923 2.3030744 0.34692106
0.12416029 1.7430005 0.3371554
-0.39990145 2.014701 -0.35451728
-0.7825109 -0.2544716 0.52252877
0.22866394 3.2099614 -0.2850775
-0.021074098 3.0320616 0.32981437
0.53859437 -0.08697881 -0.9105867
0.19122136 1.7742543 0.64623857
0.0967761 -0.26044774 0.92288584
0.6521201 -0.08334383 -0.74288845
-0.0031978744 2.5644174 -0.29372358
-0.09769894 1.4688096 0.01801027
0.47819817 2.5876021 -0.7461685
0.14622518 -0.08357467 -0.2877853
-0.7863064 -0.25463298 0.7182497
-0.738153 -0.08182978 0.42712486
0.49047226 2.3988056 0.7513057
0.1945686 2.5524793 -0.2966246
0.08793627 2.6375046 0.3189256
-0.4079538 1.9361856 0.6901758
0.5835857 -0.24500024 -0.22845876
-0.22413278 2.4155364 0.87872624
0.7691908 2.4550815 0.48430258
-0.59957516 2.1063194 0.2869398
-0.1685724 3.137565 -0.034217585
-0.62130105 -0.40575725 0.902153
0.2154446 -0.24648547 -0.37401807
-0.58054096 1.8391178 -0.43503422
-0.42863703 3.122302 -0.3143633
0.77953154 -0.24818453 0.33559698
0.91238505 -0.24324074 -0.5978228
-0.15750769 -0.088094115 0.0044348594
0.014536985 2.5782409 0.53435886
0.32787716 -0.08515818 -0.36331663
0.578734 2.2390714 0.6949944
0.5438216 2.8357391 0.06787719
-0.7057683 2.5032287 0.052837346
-0.39830574 2.5692163 -0.7944836
0.8963364 -0.4095794 -0.09421033
0.6801125 1.9461489 0.4496587
-0.15659085 1.917474 -0.5596701
-0.38315147 1.7864127 0.29288363
-0.32673007 1.895139 -0.45568064
0.0451454 -0.2547512 -0.35998505
0.7122737 2.1252348 -0.52435875
-0.49974638 2.3275614 -0.54521555
-0.06988607 2.5073392 0.7072871
-0.6812824 2.637807 0.17133966
0.27233946 -0.0822174 -0.697818
-0.89482373 -0.40717638 -0.5286702
0.02403801 1.9980283 -0.6494709
-0.2941735 2.2636065 0.65831804
-0.03664068 2.0703206 -0.47953635
0.8901803 -0.4096496 0.72872984
0.22505236 -0.08370733 0.118798375
-0.21994132 2.085194 -0.42375126
0.057802893 2.9180255 -0.08170249
-0.4465037 -0.25097138 -0.28129753
0.8988939 -0.088861465 0.5263151
0.88827753 -0.40156662 0.90450346
-0.059924923 2.5859218 -0.04866582
-0.5175484 2.0874472 0.4696275
0.57419693 2.9945683 -0.3325922
0.29799563 -0.40293872 -0.918508
-0.30106294 2.873911 -0.12364611
-0.563041 1.7060411 0.27379912
-0.3757454 2.227888 -0.40189725
-0.15626094 -0.40976137 -0.9095646
-0.17877531 2.8872654 0.27760202
0.39811832 2.091206 0.26866528
0.2791782 2.889133 0.70075715
-0.36622858 -0.41573453 0.5457444
0.55087566 1.9235754 -0.2981534
0.19734761 -0.41352713 -0.7644768
-0.13597903 3.0713098 0.15537673
-0.53210914 -0.084797636 -0.14371467
0.5370976 -0.10080368 0.91428095
0.7346229 1.836154 0.11607282
0.5358969 -0.07265787 -0.13330628
-0.21180296 -0.2584887 0.76403606
-0.031142216 2.421217 -0.91873616
0.12249304 -0.418846 0.74997497
0.26686007 -0.24515724 0.0072084423
-0.32025445 -0.41895357 0.1550974
0.23337632 1.7026291 -0.20111868
0.011250107 2.2157345 -0.89016247
0.23757514 -0.25727952 -0.62076247
-0.12330973 2.7930782 0.7960938
-0.061281335 3.070976 0.57686985
-0.21360198 2.5460885 -0.8735342
-0.44817126 -0.2581045 0.4080872
-0.1570862 3.269188 0.097476006
-0.1273447 -0.25858563 0.4806416
-0.34444386 2.1969464 -0.63110614
0.08382402 2.0098562 0.16804942
0.23520936 -0.26368013 0.77157104
0.9301715 -0.24904524 -0.7845917
0.43854684 -0.25469214 -0.6244119
-0.30513394 -0.25323594 0.03247042
0.3001203 2.6610947 -0.43204844
0.7196529 -0.39946997 -0.9206423
-0.71810967 2.8787544 -0.24052669
0.08352272 3.0764375 0.15665525
-0.3768912 1.7605305 0.09338212
0.1801464 3.021062 -0.61293495
-0.9281868 -0.26107934 0.42406768
0.46028593 -0.24755323 0.5259056
0.4072876 -0.25416481 0.3553687
-0.91563857 -0.1083339 0.1726192
-0.49255675 2.0658588 -0.70640457
0.40795672 1.5819378 0.16555187
0.3884849 1.8107247 -0.29522282
-0.3116678 -0.08594341 0.122884795
0.014058767 -0.0831687 -0.4793669
0.6838131 2.170704 0.0046757227
-0.40870863 -0.24054882 0.7593441
-0.25438341 1.698513 -0.20465246
-0.06541495 -0.25033545 0.2944192
-0.23458761 2.8587358 0.08584829
-0.42996454 2.2780704 -0.10819413
0.76968116 1.9672403 -0.27568874
0.9013258 -0.087112606 -0.494623
-0.32750198 2.5748656 0.504658
0.09073706 2.0666292 0.6807214
-0.32484394 2.7664084 0.7618067
0.5136231 1.8033236 0.4730752
0.23656577 1.9317143 -0.22272642
-0.6424769 2.2230673 -0.6314415
-0.17901063 1.6213976 -0.49893636
0.3910735 -0.41917408 0.011502959
0.076792315 -0.40466553 -0.912907
-0.15283708 2.6523495 -0.22080755
-0.7331799 2.180905 -0.057379153
0.38467598 1.838258 0.6162752
0.012989581 -0.41260612 0.90610623
-0.042054616 2.4862375 0.90340835
0.47136483 3.114972 0.24886972
0.39955336 -0.08360425 0.21344453
-0.4261231 2.5838227 0.31707618
0.055983394 1.8157532 -0.71856517
-0.46604174 2.0501196 0.1231993
-0.18739375 2.2552419 0.18849906
-0.088784605 1.6236534 -0.10543363
0.2658471 -0.08915345 0.72878647
-0.9124718 2.3385108 0.04823336
0.46074226 2.5819876 0.7634571
-0.75123405 2.3343625 0.114155084
-0.008258779 3.2350233 0.27632183
-0.73453486 -0.0861089 -0.9052582
0.41160277 -0.4191485 -0.186842
-0.103433326 1.7810245 -0.2273127
0.13287169 -0.25560573 0.6102464
0.89377385 -0.087923065 -0.098397516
0.88801587 -0.08278223 -0.71022564
0.5614886 -0.41447482 -0.30090076
-0.17626908 2.6386034 0.64792174
-0.4880378 2.3646102 -0.31101075
0.3352421 2.2939017 0.2385597
-0.29279077 -0.24673297 0.58043504
-0.38782948 1.812173 -0.30134058
-0.40828186 1.7232265 -0.4940147
0.38925177 2.057613 -0.761099
-0.63868034 2.013184 -0.5561521
0.5488147 2.006667 0.36444026
-0.64206743 3.0141273 -0.07023956
-0.09221831 2.7052603 0.43284717
-0.6083187 -0.09526995 0.17068048
-0.73553133 -0.08533454 0.794068
0.49665123 -0.24935102 0.22314298
-0.027376315 1.4734106 -0.18405926
0.19217998 1.7794325 -0.40056264
0.20179446 2.1317844 -0.85915357
-0.024202093 3.066427 -0.59281385
0.72718525 2.637199 0.4909492
0.32353443 1.923245 -0.4302004
-0.3585025 -0.085475475 -0.25388807
-0.8348788 2.6868725 0.23079267
0.15158853 2.202777 0.5256759
-0.106052056 1.7381291 -0.6329727
-0.41176778 1.586261 -0.18551
-0.8341901 2.3177025 -0.34362432
-0.56846833 2.0291276 -0.38959372
-0.41368634 2.903586 0.61411893
-0.19615951 1.8578258 -0.06360081
-0.1161329 3.175178 0.43902838
-0.92443335 -0.25373346 -0.21632451
0.56781065 -0.4072674 -0.08332506
-0.8680264 2.5064588 -0.24948248
0.855708 -0.24989083 -0.9300346
0.47315875 2.5838223 -0.5174078
-0.20867878 1.7690477 -0.40819323
-0.39395815 2.0054379 -0.115554795
-0.3306567 2.1333902 0.21728234
-0.12166646 2.4321208 -0.14529172
0.054852597 1.6457908 -0.22995642
0.5693241 2.488882 0.44390476
0.7518672 -0.24944825 0.5382823
0.8916975 -0.40915266 -0.69056356
-0.05383886 2.3942065 -0.37734646
-0.39065725 1.7865098 -0.10701312
0.37051293 2.9446933 -0.6095877
0.40808278 -0.25504962 -0.113707304
0.4110213 3.129124 -0.30534005
-0.23481423 1.5737889 0.35769993
-0.23428877 -0.084625244 0.5124026
0.22334391 -0.41247773 -0.09907134
0.107736886 1.4675333 -0.04175377
0.6466545 2.0931687 0.19732186
0.35358292 3.2088373 -0.09790447
-0.8980869 2.3187292 -0.15713902
-0.025762256 -0.09706872 0.91427976
0.8962729 2.2267027 0.0077397013
-0.017698307 1.962123 0.024711307
-0.24649072 -0.0860215 0.7132777
0.37639177 1.7766155 -0.107128635
-0.3164181 3.0363483 0.041065417
0.3476807 1.9723005 -0.055082105
0.19011852 -0.2451145 -0.92749953
0.0855307 2.3949008 -0.2229011
-0.22485039 3.2296984 -0.23683113
0.5685946 -0.0850794 -0.54558414
-0.33914706 2.7559557 0.20871037
0.4446833 3.0094376 -0.45991805
0.5883107 2.5087323 -0.3763382
0.89994025 -0.08692703 0.10509758
0.5772027 2.1975553 0.3498753
0.58260983 1.9065297 0.18962353
-0.37080675 1.7822921 0.5850598
0.22381845 2.9987879 -0.33021596
-0.42646492 -0.4095899 0.8945424
0.10796405 2.7454205 0.46104848
-0.7353976 -0.25220704 0.9135676
0.36967483 2.2539954 -0.82481456
0.5626426 -0.24635571 -0.42901284
0.6924921 2.4150467 -0.22485995
0.57483137 2.8684373 -0.5046953
0.34652954 2.8280668 0.18770003
-0.8408391 2.1455169 -0.25479048
-0.81055343 1.9749696 -0.14933994
0.38786954 -0.41110998 -0.76911867
-0.662634 2.0918438 -0.23745942
0.6995374 2.7933073 0.38928333
0.7261956 -0.41721416 -0.19497377
0.72275615 2.8777676 0.20340636
0.7364962 -0.08401525 0.64620334
-0.6161217 -0.25128773 -0.61255217
0.022408213 2.3777685 -0.01422268
-0.25415748 -0.41477168 -0.25561985
-0.41287923 1.59111 0.21893345
0.20132716 -0.08660638 -0.50035983
0.12369417 1.9089649 0.779251
0.10081224 3.1524873 -0.4485179
0.44499555 2.377809 -0.2710116
-0.65952456 -0.08242579 -0.74455714
0.15621567 3.02857 0.3458197
-0.5752151 1.6876669 -0.113176085
0.3189192 -0.24985453 0.61035085
0.009445954 3.239138 -0.28178883
-0.34020162 2.0898201 0.40583497
-0.3342036 2.9888926 0.23525128
0.89893895 -0.4086222 0.3200251
0.21012716 2.485139 0.2622382
0.033922452 -0.24158645 0.7714281
-0.7859134 2.6801064 -0.3309393
-0.5324761 2.4736574 -0.15579337
-0.5227778 2.562851 0.5265671
0.21140857 2.138463 0.2175947
0.64015114 2.108603 -0.35302532
0.56889594 -0.20505893 -0.054546148
-0.71348226 1.8209121 0.16534853
-0.6138207 2.2462473 -0.39224708
-0.3153031 2.1542678 0.018001176
-0.2796538 3.1354704 -0.398215
-0.84256864 2.7064948 -0.153195
0.16554987 2.258545 -0.08164208
0.673702 2.963207 -0.18478239
-0.9326713 -0.2567902 0.6317314
0.48949718 -0.41547084 0.90351534
0.7036831 2.5378957 -0.043848537
0.16038646 2.8540409 0.26884842
-0.33914137 -0.08471549 -0.069583654
0.020459505 2.6685133 0.8540592
-0.7705046 2.8684947 -0.039301746
0.046679307 2.448369 0.38866997
-0.21921524 2.2651525 -0.5191041
0.06661937 -0.086438544 0.24802163
0.1022404 1.867882 0.4649502
-0.13091055 -0.4158035 -0.6112077
0.2585944 2.8635268 0.4900475
0.89647317 -0.4077751 -0.49378514
0.18388364 2.746004 0.62614214
-0.4462111 2.4493253 0.005414351
0.37871504 2.696622 0.5351652
-0.20667544 1.8058776 0.37358597
0.08794235 1.8204138 0.14144751
0.4410879 2.7150996 -0.16348763
0.7349832 -0.4196558 0.014790302
-0.008054239 1.9125211 0.62096983
0.06980945 2.927532 0.5002583
-0.27248728 2.7195158 0.38100213
-0.02765762 2.6075945 -0.8756046
-0.32098335 2.1646857 -0.8215237
0.13240439 3.007865 0.6446621
0.5482393 1.7449448 -0.3818732
0.8941957 -0.40931588 -0.29706013
-0.5729087 -0.41558242 -0.31246343
-0.051832363 1.7044306 0.2868616
0.02599295 -0.091625266 -0.91713214
0.56732774 2.4088984 0.048027664
0.099104516 3.1593451 0.45996386
-0.73977315 1.9625115 -0.35508275
-0.18780152 -0.41325882 0.62300766
0.5615362 2.753606 0.24013123
0.21289429 2.5617175 0.49189752
-0.42433578 1.5738924 0.007254818
0.53435415 2.188654 -0.51700383
0.011861864 2.3552442 0.19762215
0.76058483 -0.24127302 -0.7445128
-0.13409755 2.9613245 -0.038881723
-0.32800663 -0.41505617 0.73671305
-0.0790094 -0.41395253 0.75743955
-0.6159675 -0.2535076 0.72321564
-0.14402463 2.269236 -0.70793927
-0.26291603 -0.25625056 -0.92391545
0.72666204 -0.41442752 -0.5891789
-0.6051825 -0.25062084 -0.41723195
0.7724636 1.9664612 0.26366186
-0.13646169 -0.08515994 -0.5944311
-0.011280286 2.7635498 -0.60051024
0.6723261 1.9343143 -0.4456154
-0.36896405 2.5815434 0.102480724
-0.18339977 2.2790575 -0.33386028
-0.5571799 -0.090516225 -0.912691
0.25063872 2.3765354 0.46187496
-0.8688322 2.1692252 0.16588794
-0.27995735 -0.24803609 -0.37301987
0.5239013 -0.41064638 -0.9011676
0.36031622 -0.25435358 -0.47364584
-0.7046086 -0.41799664 -0.79295933
-0.31976593 -0.2548381 0.9217685
0.3841821 -0.41716212 0.22004008
-0.007927535 2.133848 -0.0733878
0.029319245 1.8512344 -0.5104275
0.8060924 2.7985592 0.0528124
0.7039798 -0.41759777 0.87732434
0.48764282 1.612773 -0.008756452
-0.5559881 -0.08590008 -0.33176988
0.6359538 2.048295 -0.15963602
0.53149456 3.0957384 -0.15209107
-0.098800175 2.6031208 -0.68670094
0.6372547 1.7993478 0.318672
0.07261444 2.914641 -0.4910667
0.89338577 -0.40690738 -0.8836762
0.5551726 2.0085006 -0.6220125
-0.7887671 2.005538 0.26065663
0.42762876 2.3220344 0.4068802
0.5392182 -0.2534709 -0.78027683
-0.36693162 -0.08804771 -0.9110624
-0.1293301 1.8976047 -0.763693
-0.053361937 1.789803 0.4744441
-0.20738837 -0.24664336 0.17582291
-0.25409243 2.7088995 -0.07290533
-0.061852574 1.9331342 0.80001014
0.14751184 2.2860165 0.32004
0.28921542 1.8070307 0.4266006
-0.9235865 -0.2508185 0.005850522
-0.026180666 1.715467 -0.39294916
0.10479524 2.8281193 0.78327215
-0.8311023 2.693602 0.036520008
0.38176054 2.4470937 -0.6430998
-0.11202027 2.248846 0.030663792
-0.64179516 2.2762518 -0.19668768
0.5821618 2.815017 0.5434295
-0.059873495 1.5928168 0.46333808
-0.52267575 -0.41921997 0.70423025
0.70615 2.2747703 0.17093265
-0.28426677 3.0547152 -0.17572284
-0.640695 1.9929 -0.07807205
-0.18621501 2.6392093 0.086920515
0.49192238 2.1832976 -0.2666074
0.9014058 -0.08764444 0.31657892
0.24999169 -0.24995697 0.43828768
0.24823427 2.3147247 -0.30160615
-0.55870974 1.9164314 0.551032
0.13319393 3.264273 -0.117299646
-0.015958212 1.7341673 0.6602353
0.049955823 1.6515818 -0.5557579
0.49853855 2.6228938 0.032627888
0.3108347 2.09833 0.6197506
0.62166274 -0.25214487 -0.6197857
