0.58178806 1.3257339 0.5290014
0.47294074 0.41380036 0.10747239
0.45496064 1.4620342 0.26414222
0.74592894 -0.2522941 0.75567853
0.38336277 0.9569346 0.5564899
-0.5963706 0.91204023 0.3748737
0.046755165 0.08116616 -0.35243434
0.6450536 1.1455424 0.57432866
0.30936354 1.6244377 -0.61429256
0.77187395 -0.24893686 0.9339479
0.4601568 -0.08437878 -0.72742236
0.00031713178 -0.41100407 -0.46382606
0.03342963 1.3248173 0.02611206
-0.72517115 0.9532094 -0.18492955
0.29652214 1.3270428 0.25070015
0.09410283 -0.23167488 -0.528689
0.31541654 0.37077245 0.2581663
-0.338647 -0.080301605 -0.57889223
0.14149806 0.5235543 -0.37120065
-0.90548706 -0.09533633 0.73406094
0.46770388 1.668103 0.2963592
-0.59615076 1.3828602 -0.120913714
-0.46661782 -0.252577 -0.9232981
0.4283691 -0.08198483 0.64648056
0.25690752 0.24912533 -0.58636224
0.8826053 1.2261146 -0.15445414
0.9020145 1.0555758 -0.2340956
-0.27585804 0.9495578 -0.047551706
-0.18743935 1.4830716 -0.496351
0.22275281 0.08008641 -0.18296024
-0.41610748 1.2161437 -0.25995475
-0.72622335 0.6581041 -0.49047896
0.01705236 -0.07724038 -0.13133934
-0.73692024 1.4384754 0.01699929
-0.7277021 -0.08397928 -0.42261487
0.35452896 0.97491133 -0.50959206
-0.5890805 -0.41325182 -0.106558725
-0.365434 1.28317 0.52436745
0.12998548 1.2533281 -0.50707954
-0.2614539 0.7071387 -0.25019383
-0.028371394 1.1121438 -0.5742662
-0.25575763 1.1334444 0.58003485
-0.75164735 -0.0787913 0.2239877
0.26627073 0.41133845 -0.7553981
-0.061495572 -0.087174326 -0.7617394
0.7623491 -0.25019157 -0.49017906
-0.5657712 1.1950338 0.6037706
0.6411903 1.216831 -0.6732816
-0.101397 -0.2311228 -0.45502973
-0.1135069 0.91997445 -0.8079582
-0.11218942 -0.04594487 0.1929892
-0.75068927 1.023559 -0.5438116
0.39614052 0.9071256 -0.062484805
0.15138072 1.2960231 -0.12441532
0.2410684 0.7997993 -0.57286155
0.92268366 -0.24820268 0.013615539
0.090557635 0.48143926 -0.83890843
0.8499902 0.6704227 -0.32858008
0.70732844 1.542178 -0.13829605
-0.23193589 0.08891181 -0.069257826
-0.4392287 1.3713464 0.3530553
-0.12130258 -0.22467005 -0.26519626
0.86348474 1.141814 0.24752173
-0.7194576 -0.42065483 0.7751452
0.31767562 1.1754849 0.77014637
-0.49950665 -0.41854143 -0.73030007
-0.7077465 0.8367566 -0.58085907
0.14611697 0.26293218 0.21043491
0.27151293 0.8028588 0.80145633
-0.5685767 -0.086915016 0.5408493
0.7448287 -0.087316774 -0.58346856
0.86069417 1.0105487 -0.40291733
-0.08906023 1.4143891 -0.64980936
0.31807902 0.10979882 0.04611539
-0.023266148 -0.41334784 -0.76189625
0.72848076 -0.41846946 0.6461911
-0.09213288 0.55376935 -0.86896014
-0.44875 0.62824476 -0.5451237
-0.0074321534 0.8933604 0.38190976
0.5643068 -0.072833434 0.11262588
0.19812804 -0.41076767 0.28801453
-0.3544829 -0.41491514 -0.5915149
-0.39176387 1.2545037 0.69908047
0.16387203 1.2151918 -0.92681384
-0.891067 -0.09841727 -0.91246533
-0.7782023 0.99907637 0.36365455
0.07781361 -0.41933554 -0.24406195
0.4037122 1.0562207 0.07349997
0.4768113 0.3134224 0.382097
-0.062657356 -0.078234814 0.57424986
0.13006762 1.6251695 -0.35080254
0.13675022 1.087436 -0.17469615
-0.76290333 -0.24387327 0.326347
-0.5033544 1.6910255 0.068890005
0.4321469 1.0813189 -0.14435357
-0.5064432 0.42613006 0.4551158
-0.8678565 -0.08171108 0.025554426
-0.5053017 0.71966517 -0.09686402
0.77933145 0.95854187 -0.5544952
-0.16634545 1.2478571 -0.7160372
-0.22461326 1.6041094 0.5244092
-0.34010273 1.7842436 -0.030386493
0.5915511 0.6737591 -0.7196979
0.33551973 1.5819342 0.1981363
0.71662414 0.8051524 -0.63256234
-0.40521422 -0.084710084 0.43575054
-0.6176975 -0.09198949 0.9169619
0.4130904 -0.07745068 0.4330946
0.59481686 -0.26669145 0.90091264
0.92151266 -0.24686457 -0.38858965
-0.8958403 -0.40704793 0.110403486
0.76228607 0.9256371 -0.074043244
0.9189115 -0.24741808 -0.18693668
0.5505259 0.36890393 -0.49547446
-0.53549427 -0.42176974 0.48586595
-0.13090003 0.11530289 -0.2701636
-0.7103349 -0.41538715 0.4021765
-0.1115519 0.45314652 0.1496247
-0.30643263 0.94079 -0.52377
-0.87859005 1.085779 -0.15685636
0.0035751886 -0.41420174 0.57771456
0.14217746 0.24151452 0.001967869
-0.69349456 -0.078655854 -0.023008063
-0.71655345 -0.4177537 -0.6241728
0.07629472 0.6747736 -0.7296228
-0.89675534 -0.40708345 0.72035074
-0.90455794 -0.09273484 -0.5265572
-0.60824126 -0.24625751 -0.2076532
-0.2998023 0.83067274 -0.90585184
0.4266405 -0.25500876 -0.9229504
-0.5853363 1.498974 0.3496438
-0.0071399044 -0.41258943 0.3694195
-0.25436914 0.71469975 0.7728385
0.38940302 0.93017983 -0.8914563
0.43675986 1.2991035 -0.6001051
-0.49345165 1.3937038 -0.31079248
-0.523461 -0.24556237 0.91335154
-0.46190512 -0.2424928 0.10688687
0.64938104 0.8401213 -0.4060758
0.010528542 1.4641346 0.19585295
-0.035134647 0.25759393 0.13131908
0.09818962 0.16411886 0.38681287
-0.2574044 -0.419707 -0.7504975
0.3957797 -0.26757705 0.9239571
-0.24953957 1.4313183 0.43989527
0.37569156 -0.076703615 -0.5451901
-0.13339776 0.9450709 -0.60747445
0.84768254 0.61893076 0.08206956
-0.47839326 1.4482943 0.18425569
0.38193232 -0.075804174 0.87522745
-0.09612411 0.8298303 0.8249103
0.30177706 1.3018475 -0.3935377
0.3174703 1.7836026 0.1904203
-0.35621944 -0.25834668 -0.7670727
0.73756945 -0.080875054 0.22091764
0.3028522 0.9824972 -0.21635377
0.38072813 0.9696201 0.7685771
-0.4779269 1.6452836 0.26876634
0.5461798 -0.42047948 0.12980145
-0.71057534 1.1672528 0.41806367
-0.13569555 1.17257 0.35884696
-0.038974807 -0.24348852 -0.6323601
-0.5446453 -0.08376618 0.7420312
0.8062044 1.3738756 -0.2668082
0.19375378 0.632287 -0.038123086
0.9301219 1.0159165 -0.058304682
0.55205154 0.45021245 -0.0885061
0.60999525 1.3626218 -0.3508891
-0.0693318 1.6203711 -0.3662072
0.40516096 0.24220859 -0.46582645
-0.096950315 -0.41100913 -0.13739505
-0.74323833 -0.4155494 -0.21249098
-0.27034354 -0.41061473 -0.06568436
-0.26847243 0.54289895 0.24165197
0.9029014 -0.088769995 -0.89645815
-0.37061787 -0.4114138 -0.9007937
0.11726755 -0.23877776 0.31938708
-0.8971665 -0.09259912 -0.32921618
0.0028497598 0.82256454 -0.24926186
-0.19109684 0.52482957 0.70840627
-0.65202844 0.7501167 0.06463662
0.042944916 1.8639477 -0.100165375
-0.067267396 1.2969477 -0.5020143
0.9251424 -0.24739024 0.22689758
0.15383823 -0.4117786 0.45853704
-0.033393733 -0.25636607 -0.9142332
-0.91580486 -0.25935152 -0.8714975
-0.17413828 -0.4088205 0.25534737
-0.69154066 0.67613053 0.42981815
0.07617237 0.8728472 -0.81721467
-0.20024067 1.1951146 -0.9136133
0.7244798 0.77881616 -0.21689662
-0.31022012 0.14120835 -0.3171187
0.6584528 1.3107145 -0.16705057
0.44461742 -0.24068713 0.75817525
-0.014831042 1.4217837 0.5068506
-0.37731436 1.5108972 -0.6608018
-0.11596018 -0.23053755 -0.07160619
0.74209464 0.9386444 0.4988827
-0.2450169 0.11723082 0.17695956
-0.18323919 -0.41870016 0.44286552
0.2582827 -0.08059065 0.54488325
-0.26543728 1.0879664 -0.19657655
-0.273969 1.2862015 -0.40480548
-0.46953884 1.2977388 -0.47360927
-0.41516772 1.0585098 0.72622573
0.33412832 0.6372804 0.7276609
-0.5532764 -0.08325009 -0.54869807
0.08692083 -0.07560295 -0.66997504
0.21450034 0.96510804 0.024606366
-0.8081517 1.1931293 0.25949737
0.418404 0.74327874 -0.65933317
-0.69185966 0.8521833 0.50581634
-0.41152772 1.0071105 -0.6802125
-0.11637904 1.0286293 0.4744987
0.043425057 -0.24956739 -0.18239573
-0.76686174 -0.24502699 -0.10085341
0.010453431 1.5342603 -0.50877285
-0.2873691 0.9213152 -0.30169034
0.2581414 1.0946509 0.60382515
-0.26277214 -0.24217749 0.38107884
-0.4813558 0.46908727 0.1797035
-0.5271259 1.07794 0.085143976
0.25320172 0.11492288 0.22739762
-0.11886795 1.3329182 0.12780353
-0.8994552 -0.40572682 -0.10188998
-0.5799891 -0.40516293 -0.91592526
0.52360106 0.63453376 0.61632806
0.13347733 1.0998821 -0.7874492
0.29731977 1.3349044 -0.8509562
0.4802709 1.2630826 -0.7846931
0.08850132 1.2665908 -0.3004095
0.3617185 -0.051007688 -0.18543142
-0.52579135 -0.41581893 0.28473854
0.09801617 -0.067128494 0.46001798
0.06788574 0.093499586 0.19264191
0.91209996 0.85388696 -0.22239053
0.70412093 0.35968983 -0.19401611
0.7353009 -0.086090244 -0.9024043
-0.4231336 -0.25325125 -0.47805834
0.22556633 1.8349264 -0.11605717
0.0928625 -0.22070403 -0.027099181
-0.217734 -0.40938282 -0.45327276
0.44400913 0.5670266 -0.22718617
0.3903296 1.136925 0.28058773
0.33309352 -0.41708386 -0.5775571
-0.25424075 0.29311377 -0.6200621
-0.4915235 1.7058388 -0.13356107
0.42259943 -0.41267386 0.6160902
0.5373609 1.6943245 -0.121790364
-0.081870444 -0.061445188 0.38716152
0.41651928 0.78147584 -0.464
-0.29853636 1.799278 -0.22991267
0.23524237 -0.39932898 0.91380036
-0.20720896 -0.045041468 -0.40725482
-0.08504025 0.12822613 0.3039471
0.18216467 0.62724084 -0.53029335
0.42812514 1.1080813 -0.3679613
-0.6210459 1.2759373 -0.28598428
-0.27836844 -0.2314859 -0.17313528
0.85501903 1.207819 -0.36564988
0.5401089 -0.41209048 -0.49256223
-0.4267388 0.8682876 0.26695642
0.15760586 0.9437698 -0.48983267
-0.38179666 -0.24693212 0.2494063
-0.44095892 -0.07206489 0.23657909
-0.17120863 1.0369165 -0.40936446
0.89376754 -0.09534921 0.90835977
-0.046339214 0.46118748 -0.35882065
0.9282495 -0.2502144 0.8576975
0.11564761 1.4179491 -0.40398577
0.20258668 -0.40831703 0.09992978
-0.12459016 0.9992079 0.6794388
0.38128296 1.7897384 -0.040241808
0.23637038 0.12811616 -0.38955134
0.70000726 1.1800213 -0.32060105
-0.45479488 0.7074386 -0.28892782
0.4201048 1.4471284 0.59187007
0.72889864 -0.41601205 0.42691466
-0.52104974 1.1132805 -0.78644025
0.5277073 -0.07400298 -0.32577008
-0.48742113 0.8961775 -0.8194076
0.7211536 -0.4167422 -0.3880767
-0.8988549 -0.09422006 -0.14027005
0.793185 0.47738406 -0.050842106
-0.868741 -0.09483725 0.9130224
-0.8683715 1.1097445 0.04948628
-0.16353531 0.8379377 -0.15873823
0.287096 0.52903163 0.12556037
-0.21085131 0.2662834 0.031177878
0.35347766 1.5927862 -0.30476072
0.28178233 -0.23250642 0.21230614
0.1135942 0.79596514 0.0690684
-0.17630765 0.83477235 0.48126286
-0.111171246 -0.26038042 0.91953945
0.57128525 0.8637878 -0.7831654
0.7608602 1.1531422 -0.53887856
-0.122862116 1.5430686 0.34800112
0.22075315 1.2866356 0.06400816
-0.20215623 1.3157625 0.73798513
0.28422448 1.1426013 -0.041312423
-0.11830187 0.58040565 -0.67430425
-0.5051325 0.24191526 -0.285614
-0.7414798 -0.41398567 0.003918671
0.114975594 1.2573287 0.6080224
0.7175659 -0.08299319 -0.19452918
0.72573626 -0.08106986 0.00962486
0.5081862 1.4745898 -0.227386
0.7017106 -0.41542727 -0.7609954
0.32747835 0.7595699 0.028424677
0.2740195 1.4292841 -0.25192267
0.56251895 0.23494025 -0.14278194
-0.4583338 -0.082860485 -0.73886395
0.5955931 0.307716 0.21361834
0.311157 0.6458086 -0.37435785
0.73522913 1.3464512 -0.48108733
-0.47083285 1.5072769 -0.014818946
-0.76021516 -0.24901707 -0.31722474
-0.4233538 -0.4108472 -0.19429405
0.7815051 0.7575445 0.39295638
0.370015 1.3399518 -0.096453086
0.22967824 0.803336 -0.94119
-0.77216375 -0.25350785 -0.5234263
-0.29758602 1.3403088 -0.60367334
0.24761389 -0.40211284 -0.27537498
-0.62199 0.57643086 0.12995133
-0.6542829 0.9675623 -0.3869459
0.42885065 1.1530727 0.4874063
0.10117443 -0.23964332 -0.76003253
0.24511084 -0.060726423 0.33514524
-0.13083322 1.0054822 0.24503675
-0.57298166 0.91642797 -0.06989151
-0.89132226 -0.41144654 0.324431
-0.85851085 -0.40468797 0.90629387
-0.7182369 1.3963206 0.22493055
0.34317374 -0.4172557 0.77639836
0.6558722 0.7768085 0.5629979
-0.5763571 -0.25016522 -0.7893586
0.2291369 -0.21956629 -0.19430691
-0.89461094 -0.40449858 -0.73239315
-0.37192586 1.2216005 -0.82224584
-0.21546493 0.8568212 0.3064127
0.6420032 1.6268702 0.019678827
0.57786787 1.0899342 -0.22797221
-0.60400414 -0.24320377 -0.0040229247
0.7446124 1.0772092 0.085185274
-0.89649534 -0.40830106 -0.3215583
0.83800817 0.81814516 -0.43205884
0.28686625 0.22043356 0.39717442
-0.64030504 1.5843842 -0.059087638
-0.7289632 -0.41402882 0.21263504
-0.41376346 0.83751595 0.727296
-0.74524784 -0.08560409 -0.60563815
-0.21440598 -0.41126198 0.90155244
-0.6642152 1.3353269 0.4165274
0.8974223 1.1879833 0.039971925
-0.7504737 -0.24132113 0.113467604
-0.0072223763 0.5405731 0.30909592
-0.44177893 1.5308911 -0.21804026
-0.5126952 0.47135228 -0.21302366
0.25575924 0.5968257 -0.6939509
0.24434087 0.77927846 -0.76040065
0.34416348 1.1324515 -0.8937774
-0.5462525 -0.41594535 -0.5271385
-0.4366135 1.0732791 0.51722944
-0.25811344 -0.05616421 0.3120581
-0.9030049 -0.09548439 0.35143352
0.09565177 -0.08292376 0.67598414
-0.4409057 -0.23513506 -0.09411278
-0.6432221 1.3164427 -0.56374747
0.46074358 0.63211906 0.116906755
0.3955543 -0.04946807 0.013946261
0.13681561 0.30321512 0.5538019
0.7813573 -0.24289387 0.12114436
0.5139516 0.70353687 -0.07540572
0.18597025 -0.07925391 -0.884863
-0.3927877 1.354013 -0.11153506
0.5967376 -0.2453725 0.42625403
0.30249655 0.79657245 0.38366705
0.48594123 1.5534177 0.070551924
0.10943295 -0.22958624 0.14880717
0.6998137 1.2650499 0.024395961
0.5618075 1.153383 0.14680868
0.056596745 0.9384793 -0.6582337
-0.03242091 0.7917691 0.22148296
-0.39901596 -0.4153427 -0.3918813
-0.7248484 -0.087776825 0.62914515
0.5426718 -0.41374406 0.33150834
-0.899884 -0.09317381 0.54332554
-0.62940514 1.5540597 0.14378862
0.0187925 -0.4096524 0.18268129
-0.62593806 0.9455687 -0.7058408
0.75541574 -0.25061366 -0.29002944
0.39394945 0.6318581 0.4542328
-0.03045683 1.0110301 0.8512092
-0.91963017 -0.26761493 0.22381285
-0.2207669 -0.09252533 0.90314114
0.1715685 1.0942192 -0.5956801
-0.85115314 -0.40574378 -0.91408896
0.34869152 0.74461484 -0.18381609
0.23720434 0.5729438 0.31281167
-0.5749083 -0.41076434 0.1064455
0.51008475 0.56757617 -0.42189938
0.22263815 1.6475561 -0.1724421
-0.36823827 1.0966303 -0.4047295
-0.9254596 -0.2465271 -0.6435732
0.895996 -0.08668569 -0.28781974
0.63544506 0.5672288 0.035325486
-0.68531716 1.1235776 -0.24465069
-0.30178648 1.0141141 0.3712917
0.21621954 0.6423733 0.5415581
-0.51383674 1.3918037 0.5436687
-0.036369562 -0.061125148 -0.31092504
0.52606356 0.828751 0.07676588
-0.5244647 1.324929 0.05786549
0.11460008 0.71380585 0.34882405
-0.7281982 -0.41674173 -0.42516986
0.38480186 -0.41292182 -0.38951957
-0.080592185 -0.083396345 0.7576796
0.1362837 1.214077 0.8042339
-0.4767704 -0.06328544 0.028481938
0.54052985 -0.42073965 -0.67317176
-0.40473527 -0.083262086 0.6311679
-0.004439071 1.5076641 -0.010236367
-0.6970472 0.39465493 -0.027037142
-0.4346757 -0.41018018 -0.002044091
0.24178788 0.43906325 -0.5539873
-0.65977454 0.37213 -0.23022443
-0.076074906 1.6847332 -0.59195036
0.43724293 0.5143185 0.29708576
0.5676535 0.8826972 -0.15373878
-0.06146404 -0.22886688 0.09579608
0.58249015 -0.083814934 0.536036
0.08329038 0.8304908 0.83310735
-0.6931772 -0.41208375 0.60026777
-0.25606936 0.9302672 0.80408776
0.55030763 1.2362278 -0.4626547
-0.8895988 -0.08825624 -0.7348883
0.90997356 0.9745951 0.1318936
-0.5981926 1.2560987 0.24015316
0.22991055 1.2747409 -0.70234454
-0.085485876 -0.4055442 -0.32076633
-0.24420646 1.0738056 -0.73047435
-0.1894551 1.5494341 -0.71908164
0.5697283 0.9900915 0.47256213
-0.40472275 -0.07268612 -0.42119616
0.25664872 -0.17038503 0.92949283
-0.7686567 -0.24142632 -0.7429255
0.69746166 1.2283313 0.23348075
-0.41594374 1.1705182 -0.6039159
-0.34567136 1.0187173 0.15247722
-0.32234874 1.5287678 0.27332124
-0.27074564 0.4482004 -0.76038235
0.10042223 0.75202626 -0.4035911
0.06935269 1.0646822 0.69702774
-0.5689156 1.1455648 -0.42757457
-0.037953388 1.6125574 0.55410296
-0.19612774 1.6616727 0.19812371
0.010599058 0.37632602 -0.023002267
-0.061660737 1.8366444 -0.28662372
-0.050484646 1.3486047 -0.15330404
0.026351225 0.52933204 -0.16609251
0.037269887 -0.05628764 0.062449273
-0.55179626 0.95488524 0.6408386
0.20130244 0.9248917 0.66251886
0.7262472 -0.41695213 0.22584783
0.4266849 -0.24225727 0.080058575
-0.8674984 0.71363115 -0.08665182
-0.5024462 0.45304334 -0.0048098704
0.19647811 0.4357996 -0.034780476
0.081302166 1.1314627 0.01953921
-0.41134024 -0.084257424 0.8871023
0.2903238 1.2053722 -0.2304293
-0.34905565 1.7626841 0.18109915
-0.44626337 0.72213256 -0.80808055
-0.20734762 0.48781186 -0.24083851
-0.9250109 -0.2553828 0.87239236
-0.33065704 0.7407433 0.57171595
0.36057 -0.41694075 0.43067878
-0.23503454 1.1654794 0.17314592
0.037629317 -0.40840447 -0.014859633
0.33823386 0.33347467 0.5441892
-0.4495564 0.86017555 0.06802726
0.18593842 -0.41082448 -0.44503605
-0.46785802 0.6003649 0.30088207
0.19530854 1.478416 -0.055692717
-0.009150781 0.70644474 0.47974372
0.87554604 0.6604978 -0.12231496
0.20446315 -0.052858572 -0.07423814
0.6647155 0.3237782 0.016259713
0.24308857 0.9590684 -0.7316817
0.42231202 0.37669235 -0.6343353
0.08685961 1.054568 0.5053209
-0.14748052 -0.40863454 0.067766815
-0.1822003 -0.045747682 -0.19623064
-0.55273294 0.75480485 0.6140836
-0.49617013 1.327781 -0.7100444
0.89861774 -0.4075005 0.12177152
0.8287622 1.3275793 0.16561206
0.5643767 -0.41290486 0.7405784
0.09839301 1.4024756 -0.8467791
-0.2478244 -0.24627405 -0.58573186
0.52335906 1.299372 0.31470227
0.89600086 -0.40851828 0.53228736
0.28141075 1.6461513 0.02951347
0.35542655 -0.087662816 -0.90764177
-0.022002192 1.2553895 -0.9130875
0.13829252 -0.07575272 0.87510103
0.026870694 1.6801963 -0.17679872
-0.19565365 1.8263378 0.083997145
0.27633476 1.7108896 0.375346
0.61921793 1.5849416 0.21797617
-0.53301847 0.99449956 -0.5362161
-0.25885242 -0.086802274 -0.7487093
0.72038496 -0.08391513 0.8773626
-0.7261337 -0.082053006 -0.21804391
-0.45219737 -0.24159895 -0.63615054
-0.4351002 1.7022039 -0.31959778
0.6736537 1.0163692 -0.69136757
-0.6232898 0.909621 0.18440662
-0.2862763 0.8687561 -0.72293633
0.39386094 0.5793396 -0.56270546
-0.13064414 0.7626357 0.649174
-0.28697318 0.5350003 -0.5880437
0.40859878 0.13170774 -0.10408359
0.86979127 0.7714733 0.20212206
-0.3532737 -0.4174628 0.35529488
-0.29493165 1.3870058 -0.8017858
0.18869466 1.0144908 0.83676565
0.73810095 -0.083284035 0.43130374
0.39188263 1.5637608 -0.10723421
-0.924415 -0.2535944 -0.4236697
0.42009813 1.5824478 0.45324856
-0.18797117 0.35326087 0.58458817
-0.88229024 -0.41270596 0.52536404
0.549526 0.90091234 -0.5630724
0.49024788 0.80215013 0.48371553
-0.35929906 0.30676082 0.45869416
0.4757126 0.79943717 0.7106191
-0.15462902 -0.2551161 -0.7630803
-0.7116517 -0.261746 -0.92729616
0.40676636 1.2541931 0.11018235
-0.090638995 -0.24030103 0.63747454
-0.16422594 -0.090725526 -0.91665584
-0.85814065 0.9673039 0.18630493
0.11467264 0.3831616 -0.22624055
0.5783498 -0.08815993 0.748986
0.018988132 0.77671325 -0.5816526
0.18416789 1.8403804 0.0767927
0.23432322 -0.41745308 0.6084204
-0.44088548 0.39152867 -0.60960865
-0.29603893 0.53727543 0.051713545
-0.55546236 1.564362 -0.40865144
0.033123616 -0.23914927 0.470115
-0.65500987 1.0418372 0.52257943
-0.78752804 0.8114088 0.30798024
0.7494936 -0.2519891 -0.08539667
-0.22327024 1.1516178 -0.5479851
-0.04492328 1.1626213 0.16259208
0.71776545 -0.08310921 -0.3905881
-0.63764435 1.1531496 -0.64552325
-0.79916817 0.5724445 0.03993448
0.5690361 -0.07935342 0.32356972
0.28760448 1.4036489 -0.56945413
-0.08485168 1.408757 -0.34284848
-0.2820598 1.7020426 0.367214
0.4371454 1.433928 -0.41895747
-0.5095118 1.0580525 0.30417532
0.30290186 0.30256593 0.08405618
-0.20980299 0.30845645 0.23389682
-0.4266357 0.89222753 0.47855073
-0.056564074 0.64937216 -0.2902226
0.31343633 -0.23801172 -0.779282
-0.14211458 0.66502666 0.3361364
0.62292683 -0.2721352 0.078617156
0.64668834 -0.2473323 0.2511866
-0.37102008 1.4659699 -0.44465613
-0.10572544 1.4084747 -0.84651244
0.10090031 -0.41133627 -0.6159513
-0.12450478 0.75503176 -0.94274056
0.6440675 -0.2445091 -0.9181286
-0.6468555 0.50810695 0.34748533
-0.5940809 -0.2531043 0.24962196
0.56976604 -0.4143743 0.5232066
-0.13821852 1.044236 0.0101721035
0.34871587 1.1209939 -0.70931375
0.0005614797 0.8945558 0.6080764
-0.68888867 1.0824893 0.18981996
-0.18358941 0.5997182 0.5304683
0.89719677 -0.09046199 0.73424983
-0.5368073 1.469834 -0.5640626
-0.5861311 -0.08670064 0.3459879
0.405165 0.15624791 -0.28812695
0.30444378 1.2702097 0.5785655
0.24604414 1.3840044 0.7162815
0.69265276 1.023591 0.27645892
-0.15417285 0.6304624 -0.09353259
-0.13430429 0.65745974 0.12194815
-0.62437004 -0.2518192 0.45976502
0.1618927 0.676289 -0.23651588
0.91887563 -0.25054613 0.6461898
0.19984162 1.0012604 -0.9515331
0.41207665 -0.23951924 -0.28372246
-0.55491567 0.2748543 0.10646865
-0.4983611 -0.26085162 0.59512806
-0.35324007 0.56124985 0.452022
0.9251299 -0.24902579 0.44071615
0.5939932 -0.25142276 0.64650977
-0.54203266 1.1956134 -0.10727384
0.5337063 0.97124064 0.19828172
0.8475491 0.93403006 0.31969437
0.1400311 0.3795818 0.36493957
-0.35814357 0.56294036 -0.3419699
-0.7672672 -0.25291616 0.54656065
0.25266016 1.7525454 -0.4432006
-0.016577547 1.6551788 0.1747722
0.5421188 -0.086860865 -0.90938044
0.19842039 0.45770472 0.66965926
0.09604014 -0.25696027 0.9264959
0.6519655 -0.082464755 -0.7355828
0.032503568 1.1059895 -0.38393313
-0.08367977 0.083488464 0.07048622
0.52644265 1.0693007 -0.81034195
0.15515456 -0.055987496 -0.2877601
-0.79061276 -0.25267455 0.7375896
-0.74221146 -0.08297265 0.43677083
0.48933792 1.100785 0.68913984
0.22711726 1.0933166 -0.3783934
0.09587976 1.2588987 0.21954128
-0.3963679 0.61808914 0.6770002
0.58540475 -0.24121667 -0.21044295
-0.23558903 1.1251869 0.7924882
0.77583003 1.1105205 0.42420274
-0.5877918 0.734533 0.24827065
-0.16013017 1.7017214 -0.2039959
-0.6212307 -0.40345675 0.90556824
0.2471818 -0.2304821 -0.39452854
-0.55491096 0.35874772 -0.432745
-0.40257162 1.643336 -0.494067
0.7801768 -0.24872483 0.34231758
0.9149802 -0.24272788 -0.59468555
-0.14924654 -0.059285425 -0.0021938297
0.027997095 1.2311285 0.43712485
0.340413 -0.053287156 -0.36317056
0.5876062 0.94614285 0.6525409
0.56184113 1.4274389 -0.049011007
-0.69040805 1.0883719 -0.05207203
-0.35117835 1.031385 -0.8901263
0.89673424 -0.40815198 -0.08440182
0.6769359 0.59634256 0.47763592
-0.12202249 0.42273003 -0.5459039
-0.36681914 0.40665 0.31226107
-0.33255434 0.42738008 -0.45663637
0.0689066 -0.240407 -0.35253382
0.74924946 0.6399124 -0.5238761
-0.4609657 0.82308054 -0.6097939
-0.06479272 1.1868056 0.6172794
-0.6702342 1.2375587 0.049182273
0.26663244 -0.080145724 -0.7048453
-0.8952099 -0.406761 -0.5320629
0.062933594 0.49748546 -0.65027666
-0.28775197 0.9389396 0.60245025
-0.014105098 0.60734034 -0.4963197
0.89094096 -0.40833363 0.73311186
0.22321239 -0.050599024 0.12778834
-0.19274598 0.5931839 -0.43027383
0.078487955 1.4847243 -0.21768738
-0.4433889 -0.23872566 -0.2885169
0.90061694 -0.08911241 0.5355058
0.8862971 -0.40096605 0.90663445
-0.038251817 1.1576713 -0.1448805
-0.5064604 0.7322476 0.43085843
0.603956 1.5320928 -0.4678641
0.30250096 -0.40392298 -0.91471624
-0.2767327 1.4266433 -0.2645346
-0.5447173 0.33032414 0.2963212
-0.33519554 0.75001264 -0.45005125
-0.14441177 -0.4093358 -0.9086561
-0.16629255 1.500901 0.13582736
0.4467935 0.74906427 0.26220042
0.2668103 1.5701162 0.56606996
-0.3687538 -0.41381976 0.5511682
0.57787764 0.457905 -0.28703225
0.20359215 -0.4122767 -0.75356615
-0.12940556 1.6645594 -0.008227636
-0.5320401 -0.07202728 -0.14825577
0.5424153 -0.10291045 0.9179901
0.7486383 0.44256818 0.15141845
0.5388347 -0.05444523 -0.12126234
-0.21223289 -0.25602823 0.76481044
0.023739096 0.87928057 -0.97870135
0.1178776 -0.41858107 0.7507106
0.2618175 -0.22468409 0.012966106
-0.34346968 -0.41377866 0.15257035
0.26214015 0.26656657 -0.16104737
0.06535782 0.6778455 -0.925326
0.24679786 -0.24862617 -0.6015263
-0.13088728 1.4797194 0.6597077
-0.06612804 1.7257602 0.40751743
-0.16959098 0.9891349 -0.9571774
-0.45354363 -0.2557088 0.41281754
-0.1451669 1.8520734 -0.09480698
-0.12953562 -0.25216132 0.47314566
-0.30733937 0.6918173 -0.6777766
0.087668076 0.6307066 0.16562787
0.2250729 -0.2600193 0.77864397
0.93156016 -0.24724984 -0.7822749
0.4364516 -0.2529844 -0.63147473
-0.2864495 -0.23546186 0.026065856
0.32942635 1.178611 -0.5257763
0.72097254 -0.3997786 -0.91791874
-0.6914323 1.4129043 -0.3990766
0.09159103 1.674878 0.0020803828
-0.35108915 0.35522446 0.11317602
0.21932703 1.5193129 -0.7487117
-0.9221792 -0.2595508 0.4323895
0.4482156 -0.24548686 0.5277549
0.3980841 -0.24702609 0.35451734
-0.913157 -0.10504992 0.17269653
-0.45130974 0.54859805 -0.73095393
0.4258876 0.19660935 0.22843769
0.41231906 0.35292464 -0.25730473
-0.30470997 -0.047987312 0.11554311
0.0056602843 -0.050602097 -0.48524433
0.70878613 0.74908125 -0.013523623
-0.40948325 -0.24038997 0.75597346
-0.23056732 0.26404274 -0.17669204
-0.06651697 -0.23328902 0.28756446
-0.21080476 1.4403183 -0.048678465
-0.4024235 0.8578149 -0.17133684
0.7969762 0.5135964 -0.25078595
0.90303606 -0.08653006 -0.4898119
-0.31797966 1.1961446 0.37310988
0.10551575 0.75028235 0.65796185
-0.32833755 1.4461764 0.6243695
0.5220641 0.4612217 0.50262624
0.26724958 0.49989492 -0.21111354
-0.60201 0.7089937 -0.6821176
-0.15089297 0.14726712 -0.46996492
0.37739807 -0.4141541 0.018269287
0.08518818 -0.40548876 -0.9089326
-0.12143837 1.2029696 -0.32686138
-0.71276045 0.76233786 -0.11487244
0.38273597 0.49963143 0.6287056
0.011073604 -0.41059053 0.90696025
-0.05636228 1.196115 0.8127693
0.4873671 1.7255092 0.10105457
0.40016127 -0.054160148 0.21714827
-0.41926146 1.2152753 0.19924441
0.10192205 0.30936453 -0.7005159
-0.45923677 0.6502528 0.0804085
-0.22076508 0.8735152 0.12558562
-0.058556363 0.20804197 -0.07054758
0.26926407 -0.08698256 0.73545516
-0.89219487 0.9172195 -0.03299305
0.46110094 1.278946 0.6705476
-0.72980917 0.9294938 0.037367716
-0.0051024267 1.8485107 0.09077957
-0.7320187 -0.085382454 -0.8999692
0.39735696 -0.41479692 -0.17731178
-0.07163057 0.33948606 -0.2083573
0.12550685 -0.25042492 0.61050105
0.89648736 -0.08742675 -0.08705929
0.886612 -0.08185959 -0.70593363
0.5538355 -0.41360235 -0.28721482
-0.16506523 1.3032022 0.5280596
-0.4566962 0.8979876 -0.38585988
0.3383171 0.91224504 0.18241248
-0.30100784 -0.24517944 0.57919836
-0.3691796 0.36369777 -0.28287858
-0.3763323 0.23826844 -0.4690389
0.4361949 0.5423035 -0.76133525
-0.6042739 0.51974785 -0.57583463
0.57407653 0.6541742 0.36601406
-0.62472105 1.5733619 -0.2467759
-0.07952079 1.348727 0.32363212
-0.60614145 -0.08919339 0.14304161
-0.7319536 -0.08264551 0.8029181
0.49154672 -0.23918441 0.22789657
-0.005288021 0.059035312 -0.13567644
0.22067189 0.31356108 -0.37136567
0.2550236 0.6018103 -0.87507904
0.013453521 1.5645305 -0.74275446
0.7317271 1.2941086 0.40415403
0.3624254 0.44694436 -0.4095752
-0.36297834 -0.049702466 -0.25377342
-0.82428324 1.2887149 0.0979156
0.16127598 0.86103845 0.48420805
-0.06559171 0.2435439 -0.6125401
-0.40025133 0.15052325 -0.14150923
-0.80442315 0.84422135 -0.41611278
-0.5250798 0.5422584 -0.40417814
-0.41653067 1.5582925 0.45808965
-0.17045465 0.43972403 -0.053013083
-0.11825144 1.807364 0.25620294
-0.9224534 -0.25717616 -0.21365976
0.5577628 -0.40435582 -0.07357989
-0.84016645 1.0427558 -0.3536854
0.8554677 -0.2498272 -0.928511
0.50864017 1.0942414 -0.5942798
-0.19267526 0.31701225 -0.38396934
-0.36773524 0.5711964 -0.12883104
-0.32311332 0.72033024 0.1848714
-0.08967513 0.9994701 -0.23482633
0.085902125 0.20645264 -0.2069562
0.5767843 1.1391809 0.36939844
0.7531178 -0.2509727 0.5431355
0.89225614 -0.40820956 -0.6863187
-0.018912492 0.9264076 -0.4455826
-0.36701477 0.35708886 -0.08618976
0.40374932 1.4423906 -0.7322986
0.40281305 -0.23941047 -0.10487776
0.43683332 1.6722064 -0.4498934
-0.21797779 0.21242505 0.40176788
-0.23459941 -0.08036253 0.5180365
0.21144858 -0.40386838 -0.09260951
0.12722938 0.07941985 0.009018091
0.66149545 0.71341676 0.18416557
0.37465593 1.775466 -0.25864226
-0.87385166 0.8700063 -0.2315135
-0.028494742 -0.09718785 0.9145545
0.91498065 0.8123863 -0.0010036832
0.0057279654 0.5629596 0.022421136
-0.26002055 -0.084233046 0.7187627
0.3977431 0.35069615 -0.066691495
-0.30581775 1.6035545 -0.121094935
0.37952697 0.5544799 -0.045813333
0.1930925 -0.2470798 -0.9256655
0.11704084 0.94386375 -0.29064217
-0.206388 1.7659655 -0.41876477
0.5588374 -0.08346066 -0.5318923
-0.32491747 1.3644918 0.082964376
0.46685067 1.5372944 -0.59001267
0.6203042 1.0386564 -0.43808043
0.90183884 -0.08658293 0.11723851
0.6261333 0.84810483 0.32884878
0.595827 0.52946526 0.20952994
-0.35336077 0.4520325 0.59790176
0.25051245 1.5385747 -0.46102557
-0.4259299 -0.40770236 0.89689845
0.122788794 1.3846501 0.34222418
-0.7332041 -0.24947166 0.921087
0.42023242 0.73172665 -0.85207677
0.59029996 -0.24700624 -0.40419877
0.7230029 0.966189 -0.2729302
0.59345865 1.3935844 -0.6191838
0.3596275 1.4328463 0.06842391
-0.812196 0.6852883 -0.30061203
-0.78253484 0.5337028 -0.16873538
0.3916263 -0.4117912 -0.7598398
-0.63002884 0.63407946 -0.2664439
0.70902085 1.4330053 0.27907506
0.7226954 -0.41655222 -0.18423831
0.7410167 1.4861741 0.07991124
0.73799515 -0.083798304 0.6496353
-0.6211692 -0.25591698 -0.61542416
0.025377005 0.949299 -0.0786725
-0.25426954 -0.40824673 -0.26125786
-0.39320698 0.20913753 0.2628281
0.19171003 -0.057557605 -0.49540347
0.14333534 0.61295575 0.77840674
0.12887871 1.6701616 -0.6032151
0.47157937 0.9265411 -0.323655
-0.6470511 -0.08165485 -0.73963475
0.16271617 1.6500583 0.19829464
-0.55621773 0.25975537 -0.08853745
0.3115235 -0.24963105 0.6241821
0.030776815 1.7750783 -0.45381558
-0.32122785 0.7275124 0.37965202
-0.32970053 1.5892766 0.07447204
0.8988363 -0.4083379 0.32576096
0.2212215 1.1032457 0.18335849
0.02283657 -0.24457279 0.77060306
-0.75552285 1.2032869 -0.46013582
-0.506258 1.0297236 -0.25019485
-0.5187551 1.2059104 0.41339967
0.260635 0.72259367 0.19441392
0.66636384 0.6437613 -0.351901
0.5671011 -0.19456843 -0.042394906
-0.6917205 0.42247972 0.16830134
-0.57810354 0.7587779 -0.45162112
-0.29909208 0.7425716 -0.024278408
-0.25002027 1.6511858 -0.569578
-0.81723577 1.2549902 -0.28842363
0.1900464 0.84209454 -0.12644471
0.7007332 1.5156327 -0.31799376
-0.9314184 -0.25580192 0.63666207
0.48223057 -0.41412973 0.9052566
0.7316716 1.1186275 -0.11393668
0.17458472 1.4690613 0.14042757
-0.3345311 -0.052718308 -0.07446768
0.011108013 1.368498 0.7403194
-0.75123334 1.4313242 -0.19738075
0.0614378 1.0740656 0.31240505
-0.17551482 0.7534151 -0.5648261
0.06810062 -0.0529706 0.26501077
0.11605407 0.5216882 0.47881913
-0.12788305 -0.41367874 -0.6089815
0.2621366 1.5131478 0.35452113
0.89895445 -0.4067456 -0.4872762
0.18947315 1.4118443 0.50754845
-0.4307145 1.0366433 -0.080217436
0.3831763 1.3560042 0.4274
-0.19203743 0.4414432 0.393198
0.109652266 0.4347949 0.15966558
0.4710157 1.2744529 -0.25807196
0.73066103 -0.41944897 0.022171304
0.0059602326 0.58879066 0.6258737
0.06941046 1.5687113 0.3614186
-0.26011005 1.3470379 0.26386553
0.008642364 1.0742723 -0.9635023
-0.2738781 0.6273015 -0.8573142
0.1265781 1.6776277 0.48501927
0.5770248 0.2765748 -0.33713767
0.8953789 -0.40839207 -0.28705168
-0.57455885 -0.4127217 -0.3161124
-0.034050368 0.3309638 0.31679958
0.028855024 -0.09042132 -0.9138777
0.58570755 1.0109975 -0.009652231
0.09882701 1.7981356 0.28565073
-0.7100135 0.4969043 -0.37498844
-0.18854922 -0.4107465 0.614133
0.57302415 1.3718343 0.13295585
0.22439328 1.2061151 0.40153474
-0.40207237 0.15906583 0.051654197
0.57236075 0.7040353 -0.5308487
0.024402574 0.9713596 0.13008778
0.7589812 -0.24177292 -0.73844653
-0.116399765 1.5292974 -0.18670957
-0.32127655 -0.41535538 0.74016345
-0.08774073 -0.4150839 0.7573866
-0.6196391 -0.25139254 0.7283952
-0.104992196 0.7499474 -0.75578934
-0.25424522 -0.25690883 -0.9224651
0.7267113 -0.41344726 -0.58020985
-0.5997646 -0.24731323 -0.42284024
0.78079534 0.5911361 0.2842247
-0.14004841 -0.07242629 -0.5911491
0.034275264 1.2611545 -0.70724344
0.70917577 0.46157908 -0.42198247
-0.34758812 1.1777788 -0.0071617914
-0.14236712 0.8080951 -0.3898977
-0.553975 -0.09102662 -0.9145967
0.2574682 1.0142505 0.39156675
-0.84862113 0.7711086 0.11465019
-0.27435854 -0.22915186 -0.3744049
0.5255289 -0.41116637 -0.89744496
0.41714758 -0.2367079 -0.46538967
-0.702705 -0.41810343 -0.79923844
-0.3208952 -0.25207826 0.9241882
0.37369543 -0.4122854 0.22115609
0.02025531 0.7224698 -0.092541575
0.07103179 0.37780005 -0.5029849
0.8248135 1.3854861 -0.056848355
0.70024765 -0.41726106 0.8785018
0.5086752 0.20061314 0.054022126
-0.564031 -0.08093919 -0.33390707
0.6576646 0.6047924 -0.1586765
0.5589822 1.6535512 -0.29848498
-0.05521705 1.089514 -0.7767837
0.6486777 0.43689162 0.35347074
0.10873744 1.4291278 -0.6188717
0.8948084 -0.4061702 -0.88073933
0.5969187 0.5123918 -0.61051655
-0.7738538 0.6237671 0.23788142
0.43445444 0.9527714 0.3540959
0.5455905 -0.25463247 -0.7762177
-0.36034948 -0.08846575 -0.9117992
-0.08525501 0.37976393 -0.75733757
-0.040615007 0.44936755 0.49325022
-0.2177823 -0.2270864 0.1850195
-0.2316639 1.2701256 -0.18556063
-0.046045773 0.63929904 0.7953288
0.15822831 0.8975952 0.25389782
0.30294347 0.4574057 0.44728824
-0.9244325 -0.24875739 0.0077191154
-0.0009996106 0.2626804 -0.37764415
0.09646925 1.5162351 0.6495559
-0.81398034 1.2705263 -0.09742867
0.41402242 0.92815006 -0.6936401
-0.089377075 0.82269055 0.019964587
-0.61772716 0.82653403 -0.2676584
0.5815491 1.4854765 0.41877338
-0.045343004 0.24727955 0.50525343
-0.5188397 -0.41857266 0.7125951
0.7230636 0.88872766 0.12982607
-0.26673925 1.5987375 -0.33920026
-0.62239146 0.5782306 -0.073270924
-0.16123141 1.232165 -0.015396645
0.5127039 0.73808223 -0.2893333
0.9032824 -0.08750823 0.32814407
0.24691823 -0.24395029 0.44483942
0.27666765 0.84593606 -0.34938294
-0.5455489 0.57638276 0.5398811
0.15058318 1.8243964 -0.2898774
-0.0022884868 0.417728 0.684742
0.086075366 0.1696899 -0.5234879
0.52322483 1.2147617 -0.049039215
0.32360804 0.77920556 0.5960394
0.61913514 -0.2490505 -0.60374796
