0.58846307 1.4615592 0.53925896
0.47285718 0.55548394 0.10008162
0.45329046 1.6021527 0.2791773
0.7454883 -0.25061715 0.755761
0.39240372 1.0907369 0.56333566
-0.59168416 1.0397205 0.4017033
0.034650877 0.22671308 -0.3377018
0.6536472 1.2802833 0.57844603
0.28742677 1.7793652 -0.5942248
0.7709304 -0.24751353 0.93338186
0.46308878 -0.08355806 -0.7270068
0.0028037932 -0.41573405 -0.47084695
0.028215196 1.4660643 0.047517195
-0.73274493 1.0930661 -0.1529778
0.29530892 1.4671661 0.26672179
0.09843323 -0.24338534 -0.53347373
0.3181634 0.5089432 0.25345823
-0.33724493 -0.08304091 -0.5803045
0.12945352 0.6723667 -0.36565804
-0.9044217 -0.09387568 0.73356986
0.46582088 1.8089336 0.31447566
-0.6051822 1.5226741 -0.08394645
-0.46626276 -0.25147673 -0.9225701
0.4272814 -0.08051951 0.6442213
0.23833427 0.40096623 -0.58588433
0.87418866 1.3766242 -0.15419321
0.89205277 1.207746 -0.23838958
-0.27920666 1.089596 -0.02702555
-0.2059843 1.6335933 -0.46678483
0.21260011 0.21519104 -0.17892174
-0.42778778 1.3604221 -0.23033503
-0.738467 0.80466187 -0.46273702
0.004772897 -0.07006922 -0.12936534
-0.7435242 1.5753375 0.05824979
-0.7260493 -0.08267492 -0.4243833
0.33728427 1.1277525 -0.5026055
-0.59386647 -0.41481966 -0.10888497
-0.3604272 1.4137068 0.55487084
0.112274826 1.4046466 -0.48865664
-0.27063084 0.85071486 -0.23517852
-0.04529772 1.2633059 -0.5544551
-0.24788398 1.2629576 0.6041442
-0.7511674 -0.07723196 0.2221795
0.24485639 0.56789947 -0.7532233
-0.05771316 -0.08702001 -0.7604072
0.7623465 -0.24957004 -0.4907587
-0.5581461 1.3218539 0.6347347
0.6194774 1.3743467 -0.6687586
-0.10033463 -0.24553296 -0.4593032
-0.13669509 1.0751605 -0.78910816
-0.11012964 -0.077026434 0.18299131
-0.7675801 1.1705394 -0.509953
0.39068872 1.051783 -0.055301584
0.14272457 1.4416853 -0.106185056
0.22288199 0.9535655 -0.5652449
0.9218999 -0.24691004 0.010210015
0.06807993 0.63903844 -0.8316356
0.8398095 0.8228721 -0.34019828
0.6960534 1.6909801 -0.12793873
-0.23022166 0.21884325 -0.063983515
-0.43777317 1.504288 0.38564724
-0.12122038 -0.24170056 -0.26754564
0.8649746 1.2842574 0.24657711
-0.71986413 -0.42024064 0.7751179
0.3299638 1.305412 0.782557
-0.50001675 -0.4184788 -0.7318057
-0.72309613 0.9843959 -0.5505332
0.14739883 0.40041965 0.20868646
0.28688735 0.9301399 0.8069312
-0.56601554 -0.08471208 0.5395838
0.74558014 -0.08594456 -0.5844202
0.845684 1.1654037 -0.40666687
-0.11076555 1.5678012 -0.6230521
0.31175983 0.24718247 0.031684667
-0.02074685 -0.41426802 -0.7654034
0.7289532 -0.41785747 0.64808977
-0.11495468 0.7102846 -0.8567065
-0.46449888 0.7783035 -0.5245439
-0.0030517187 1.0278602 0.39604175
0.56308585 -0.08297764 0.11000466
0.20115791 -0.41560853 0.28970706
-0.35569933 -0.41583788 -0.59526676
-0.38163382 1.380044 0.7278302
0.13643758 1.3741089 -0.9084698
-0.8914422 -0.09814879 -0.9114859
-0.77321047 1.1279101 0.3963608
0.08091831 -0.42174447 -0.24856463
0.40050125 1.1998447 0.08178672
0.48319447 0.4487808 0.371558
-0.063796654 -0.079837054 0.5704129
0.11393595 1.775289 -0.32607162
0.12788709 1.23436 -0.15990287
-0.76393855 -0.24246398 0.32633525
-0.5096561 1.826549 0.10907307
0.42463368 1.2271695 -0.13645405
-0.4958921 0.5558928 0.4705218
-0.86754453 -0.08064885 0.023171538
-0.50961304 0.8579844 -0.07255703
0.7602016 1.1157725 -0.5563771
-0.18876342 1.4014097 -0.69027495
-0.22093542 1.7360759 0.55807984
-0.3496464 1.924757 0.0088970065
0.57096314 0.8307126 -0.7233448
0.33136356 1.7226976 0.21802181
0.6972008 0.9623704 -0.6361697
-0.4041959 -0.08594598 0.43298486
-0.6171675 -0.09005994 0.91632694
0.41267598 -0.08112331 0.42982495
0.5944383 -0.26430538 0.9003005
0.92080224 -0.24544965 -0.38980642
-0.89762944 -0.40613526 0.10794639
0.7571711 1.0733817 -0.07662873
0.91779995 -0.2455833 -0.18968824
0.5340229 0.5224315 -0.50215083
-0.53711593 -0.42137963 0.48555452
-0.14117652 0.24417266 -0.25704008
-0.71110845 -0.41473454 0.40191007
-0.108138226 0.5919447 0.15837651
-0.32305628 1.0915236 -0.5009823
-0.88591313 1.2243339 -0.11934978
0.0038885013 -0.4152038 0.58110857
0.13964257 0.3749701 0.003151716
-0.6924449 -0.07788442 -0.023474738
-0.71758056 -0.41749454 -0.62571156
0.056298375 0.8324897 -0.71814275
-0.89688224 -0.40633482 0.72046685
-0.9037746 -0.091247216 -0.5280784
-0.61078984 -0.24952552 -0.21185145
-0.3244372 0.98634946 -0.88392234
0.42977774 -0.25386733 -0.92272097
-0.5853666 1.6307467 0.3887949
-0.007047529 -0.4168464 0.3729819
-0.23967761 0.840304 0.7892631
0.36325973 1.0900085 -0.8856448
0.41756564 1.454797 -0.5879861
-0.5075753 1.5383265 -0.27676308
-0.523635 -0.2441715 0.9124105
-0.47027054 -0.25228313 0.108194865
0.6359458 0.9929134 -0.40764034
0.006900019 1.6024446 0.22084582
-0.03320738 0.39101434 0.13345021
0.10597797 0.3032719 0.38413978
-0.25733757 -0.41988528 -0.7532966
0.396112 -0.26553398 0.9233074
-0.24640344 1.5635021 0.46938586
0.38122985 -0.08059009 -0.54441774
-0.15132703 1.0978658 -0.58764607
0.8471012 0.76305735 0.07030438
-0.4809271 1.5827763 0.21950535
0.37896547 -0.07372251 0.87352055
-0.081180066 0.9568143 0.84036416
0.2859342 1.4527284 -0.37782085
0.31203148 1.9254022 0.21420124
-0.35568243 -0.25792062 -0.76831615
0.73587716 -0.080053225 0.21597983
0.29304016 1.1298094 -0.20563579
0.39478087 1.0985036 0.77591777
-0.47915626 1.7761486 0.30919224
0.55126274 -0.42316434 0.12910965
-0.7062838 1.2959406 0.45231098
-0.13256606 1.3065345 0.38253212
-0.035603404 -0.24887422 -0.63581824
-0.5435766 -0.08225511 0.7408703
0.7940595 1.5270654 -0.26090723
0.18971545 0.77567315 -0.03285653
0.924608 1.1644647 -0.06424582
0.5474837 0.59722865 -0.094813794
0.5954282 1.5139446 -0.3410343
-0.08560909 1.769743 -0.3371956
0.38916075 0.39442837 -0.47115952
-0.095421076 -0.41538888 -0.14132074
-0.7466121 -0.41559947 -0.21528716
-0.27216768 -0.41611576 -0.067675434
-0.26633477 0.67872757 0.25292087
0.902935 -0.088070765 -0.89545906
-0.37015092 -0.4110185 -0.90106475
0.11771515 -0.25295827 0.3195346
-0.89596504 -0.090841964 -0.3317565
-0.006989805 0.96923167 -0.23628879
-0.17623267 0.652187 0.7192319
-0.65156496 0.8858061 0.09033544
0.030077484 2.0084805 -0.069485836
-0.08460589 1.447508 -0.47803438
0.9241414 -0.2460751 0.22442904
0.1552538 -0.4141319 0.46174657
-0.030592198 -0.25552738 -0.9136294
-0.91594577 -0.25894696 -0.87145305
-0.17524353 -0.41426605 0.2569784
-0.6830331 0.8052846 0.4540097
0.05272404 1.0310557 -0.8062891
-0.22699267 1.3524063 -0.88801765
0.7163415 0.9287174 -0.22179374
-0.31645873 0.28972828 -0.30151385
0.64846706 1.4592807 -0.15957846
0.44419217 -0.23917362 0.7576399
-0.010485682 1.5555116 0.53113806
-0.40094793 1.6622498 -0.6266143
-0.11605726 -0.24499828 -0.071835
0.7494453 1.0751697 0.49532178
-0.23596865 0.2533416 0.17293416
-0.1848495 -0.4210397 0.4455831
0.2582994 -0.08218008 0.53975
-0.27473336 1.2334509 -0.17204326
-0.2892794 1.4342494 -0.3766123
-0.48606583 1.4451883 -0.44150192
-0.4046018 1.1834841 0.7524841
0.3487391 0.76620233 0.72874975
-0.5514977 -0.082645155 -0.54931635
0.091902666 -0.07999936 -0.67061245
0.21092114 1.1056464 0.037748694
-0.80731046 1.3224217 0.2962179
0.39885485 0.8997346 -0.6566728
-0.683536 0.97973 0.5344459
-0.43225706 1.1584516 -0.6539873
-0.11174688 1.1597731 0.49375242
0.043773413 -0.254655 -0.1849734
-0.7683871 -0.24407277 -0.10382544
-0.0085422695 1.6863177 -0.48274466
-0.29976118 1.0684707 -0.27897382
0.26654094 1.2272806 0.61606157
-0.2643122 -0.25052625 0.38169816
-0.47937107 0.60327005 0.19780341
-0.528509 1.2134316 0.114540145
0.25406694 0.25747392 0.21140867
-0.12251562 1.4728738 0.15071654
-0.90137696 -0.4045565 -0.106759995
-0.57938755 -0.40491772 -0.91536576
0.53627247 0.76629555 0.6134555
0.10988376 1.2564285 -0.77154225
0.2714541 1.4936849 -0.8354192
0.4566455 1.4230257 -0.7757243
0.07537427 1.4149923 -0.28093088
0.35796505 -0.08287695 -0.18671033
-0.5280207 -0.41771108 0.28291506
0.0981852 -0.08164766 0.4561848
0.07148415 0.2237409 0.19371183
0.90339303 1.0051849 -0.23151729
0.6966863 0.50849587 -0.20683567
0.73655564 -0.08514446 -0.9015864
-0.42494506 -0.25744784 -0.48091233
0.2124448 1.9821644 -0.08946636
0.093263194 -0.23304656 -0.031010281
-0.21871138 -0.4135365 -0.45864826
0.43576777 0.7150067 -0.22833347
0.39155006 1.276972 0.291139
0.33832747 -0.41901964 -0.5832081
-0.26992247 0.4434234 -0.60714763
-0.50169885 1.8470178 -0.09254211
0.42352682 -0.4125113 0.61803406
0.52579284 1.842595 -0.10546721
-0.08240189 -0.08437286 0.3806588
0.401707 0.9339417 -0.46054128
-0.31269702 1.9448509 -0.19258231
0.23536807 -0.39878094 0.91443133
-0.20354027 -0.07945384 -0.4092822
-0.078579396 0.26510352 0.29939234
0.16702956 0.77920187 -0.52383524
0.4136464 1.2583311 -0.35961616
-0.6332678 1.4187071 -0.24997875
-0.27988148 -0.24847677 -0.1739692
0.84077895 1.3627231 -0.36526018
0.54524195 -0.41278425 -0.49663723
-0.42504752 1.0025043 0.28954685
0.14074856 1.0958605 -0.47721058
-0.38351488 -0.25563902 0.24842066
-0.44422537 -0.08356118 0.23817244
-0.18509513 1.1848526 -0.38688084
0.8928863 -0.09335847 0.9082415
-0.057669424 0.60801554 -0.34980524
0.92699593 -0.24866089 0.8594664
0.09930779 1.5682197 -0.38228273
0.20542997 -0.41362798 0.09841766
-0.11340508 1.1270052 0.6986742
0.37094152 1.9371908 -0.018617699
0.22145152 0.28123167 -0.38448903
0.688269 1.331995 -0.3165568
-0.46416548 0.8502537 -0.26673967
0.42814767 1.5816996 0.6082604
0.730335 -0.41611272 0.4279758
-0.54336846 1.2655334 -0.7551075
0.5266388 -0.08146915 -0.33048037
-0.5093317 1.0492101 -0.7925098
0.72388065 -0.41699594 -0.39053935
-0.8975813 -0.092457935 -0.14320572
0.7897489 0.6236295 -0.06454103
-0.8672058 -0.09296189 0.9129025
-0.8699143 1.2443123 0.08688023
-0.17229614 0.9794173 -0.14490485
0.28891668 0.6729852 0.1276199
-0.20838387 0.40543395 0.03849349
0.3380688 1.74212 -0.28541678
0.283673 -0.24767226 0.21157205
0.10733175 0.9356011 0.07768053
-0.16887102 0.9653367 0.49759787
-0.11077013 -0.2584504 0.91862565
0.5482494 1.0220497 -0.782441
0.7425617 1.3107867 -0.5378567
-0.122291885 1.6779127 0.37770873
0.21648316 1.4288461 0.080332264
-0.19202995 1.4423814 0.76211095
0.27786428 1.2858558 -0.028776485
-0.1378614 0.73335594 -0.66036344
-0.5099757 0.38751775 -0.2682305
-0.74638593 -0.41390115 0.001355863
0.12243572 1.3892466 0.6267558
0.7153417 -0.08278164 -0.19887936
0.72256976 -0.08089386 0.0057010446
0.49526185 1.6233362 -0.21295297
0.70429075 -0.4155079 -0.7622367
0.32528383 0.9012387 0.034051057
0.26090425 1.5778552 -0.23344855
0.55546314 0.3830092 -0.15523809
-0.45793712 -0.081597716 -0.7386483
0.5977926 0.44812915 0.2002277
0.29909575 0.79674935 -0.37064803
0.7179133 1.5025805 -0.47504967
-0.47821295 1.6456013 0.021623425
-0.7619192 -0.24803731 -0.31986785
-0.4269092 -0.41488335 -0.19626825
0.7867938 0.89565134 0.384749
0.36117485 1.4859433 -0.08189382
0.20247972 0.9628759 -0.9334668
-0.77261615 -0.25267327 -0.52559423
-0.31763306 1.4916303 -0.5739608
0.25248367 -0.40863454 -0.28090644
-0.6191442 0.71137464 0.14787987
-0.6669153 1.1123302 -0.3556974
0.43488634 1.2888429 0.4974054
0.10482468 -0.24143258 -0.76170003
0.24520496 -0.08520277 0.32724857
-0.12899144 1.1427383 0.2652221
-0.57738936 1.0551414 -0.042295113
-0.8922534 -0.4107603 0.32386196
-0.85900736 -0.40414315 0.906412
-0.7190428 1.5292089 0.26382637
0.34389228 -0.4169572 0.7781441
0.66583407 0.9110749 0.5589614
-0.576313 -0.24948835 -0.7893847
0.23105551 -0.23738068 -0.1977931
-0.8951112 -0.40428066 -0.7330549
-0.3960606 1.375885 -0.7928226
-0.21485034 0.99475443 0.3265527
0.63142157 1.7725661 0.031491183
0.5675671 1.2403469 -0.22405939
-0.6081361 -0.2460407 -0.008352327
0.741701 1.2219446 0.08673042
-0.89766324 -0.4070717 -0.326228
0.8243021 0.9729456 -0.43980604
0.2938627 0.35546005 0.38778156
-0.6492797 1.7232423 -0.017475441
-0.7328441 -0.41417247 0.21235642
-0.40084326 0.96322405 0.75027525
-0.74427736 -0.08407268 -0.60647506
-0.21451169 -0.41042382 0.9022888
-0.6604387 1.4646468 0.45292416
0.8934618 1.3348324 0.0395576
-0.75049114 -0.24145113 0.11255475
-0.001865773 0.67713606 0.31772715
-0.45378438 1.6736038 -0.1814126
-0.5166023 0.6141019 -0.19464682
0.23645455 0.75252163 -0.68968254
0.2231345 0.93659747 -0.7537431
0.31783515 1.2919259 -0.8829979
-0.54821134 -0.4165265 -0.5302397
-0.429433 1.2029337 0.54431605
-0.2578224 -0.08230148 0.30754906
-0.90262365 -0.09418244 0.34982753
0.095140845 -0.08167374 0.6708304
-0.44485414 -0.24655585 -0.09503533
-0.6624656 1.4641937 -0.5263629
0.46321863 0.772707 0.11329824
0.38787988 -0.08037061 0.0096060755
0.14865148 0.43574512 0.55123544
0.7813637 -0.24243371 0.11800195
0.50895303 0.84986424 -0.076361306
0.19028917 -0.078417525 -0.8822923
-0.40212142 1.4944453 -0.08004762
0.59774023 -0.24587023 0.4255172
0.3082845 0.9341888 0.38903365
0.47919014 1.6971673 0.08679454
0.11176728 -0.24607088 0.14603323
0.6948391 1.4107125 0.029870175
0.5599046 1.2968161 0.15312827
0.037602574 1.0886521 -0.64416814
-0.030352771 0.9285478 0.2352803
-0.4017897 -0.4183281 -0.39573693
-0.7232307 -0.08682196 0.6274398
0.5465611 -0.41526031 0.33247328
-0.8991612 -0.09158085 0.5425074
-0.63420427 1.6886108 0.185029
0.019844927 -0.41506666 0.18355685
-0.64541674 1.0964807 -0.6750462
0.7547792 -0.25057665 -0.2934777
0.40147257 0.76623726 0.45401827
-0.015504008 1.1370044 0.8684093
-0.9198015 -0.26655555 0.22237113
-0.22058743 -0.09052105 0.9018332
0.1532005 1.2471313 -0.5818554
-0.85121596 -0.4058556 -0.9133154
0.34150812 0.8920897 -0.180006
0.24382125 0.71146846 0.31460536
-0.5828253 -0.41196012 0.10476336
0.49598813 0.71890455 -0.4241338
0.2102524 1.7944996 -0.14894697
-0.3822556 1.2440104 -0.37772417
-0.9257762 -0.24522799 -0.6453216
0.8940933 -0.08500429 -0.2908895
0.6357159 0.7117971 0.027955268
-0.69564605 1.265139 -0.21044198
-0.30027875 1.1512694 0.39253813
0.22635365 0.7745075 0.54595256
-0.5092002 1.5200267 0.577337
-0.030423487 -0.082609475 -0.313612
0.5240154 0.97196066 0.079638995
-0.5286752 1.4610691 0.09223109
0.12119205 0.84977245 0.3584458
-0.73031235 -0.41658434 -0.42774713
0.3908037 -0.4165303 -0.39537972
-0.078942135 -0.08168678 0.7559541
0.14818305 1.3436195 0.8219986
-0.47835752 -0.08149787 0.027739417
0.54447305 -0.42099798 -0.67584455
-0.40294883 -0.08162376 0.6292506
-0.012699034 1.6501968 0.015752908
-0.69652694 0.5330585 -0.0059193056
-0.43979564 -0.41444516 -0.0013146715
0.22462654 0.5910386 -0.55234087
-0.6651193 0.5150878 -0.20836273
-0.09898502 1.8378704 -0.56225765
0.44292557 0.6496128 0.29323834
0.5599771 1.0308971 -0.15279701
-0.057787694 -0.24465096 0.094072774
0.58114696 -0.08255875 0.532783
0.0997545 0.9571482 0.84173834
-0.69370395 -0.41181737 0.6003227
-0.24220751 1.0554626 0.8261907
0.533962 1.3895136 -0.4538957
-0.88927984 -0.08710003 -0.7348845
0.90926105 1.1188347 0.12543076
-0.5982509 1.389075 0.27381152
0.20772925 1.4309316 -0.68574166
-0.08422781 -0.4113382 -0.32618934
-0.26616803 1.2271385 -0.70579004
-0.21433584 1.7030282 -0.6886358
0.5765347 1.1258235 0.47589308
-0.40303564 -0.083797425 -0.42285
0.25577068 -0.16996884 0.928889
-0.7686573 -0.24084768 -0.7431774
0.6978155 1.3698394 0.23882303
-0.4340989 1.3203416 -0.5744586
-0.3450905 1.1532669 0.17538859
-0.32313347 1.6637664 0.30737224
-0.29048854 0.60049415 -0.7449636
0.088283055 0.9013231 -0.39298844
0.08060287 1.1938815 0.71320117
-0.5835705 1.2916858 -0.39528874
-0.03338003 1.7451942 0.5837399
-0.1991599 1.7986786 0.23211604
0.009226285 0.514984 -0.017651241
-0.07824838 1.9854107 -0.25396866
-0.060587518 1.4938159 -0.128634
0.019954685 0.67381775 -0.15909621
0.041189447 -0.066813275 0.055594493
-0.54113173 1.080246 0.6677804
0.212872 1.0554506 0.6722032
0.7295325 -0.41722274 0.22504042
0.42939535 -0.25496802 0.0788286
-0.87133837 0.85235375 -0.05713073
-0.50089025 0.5921401 0.0122585725
0.19315675 0.57832396 -0.03290932
0.077433094 1.2730298 0.037214234
-0.41084236 -0.08231996 0.88609785
0.2800128 1.3529406 -0.21640454
-0.35193714 1.8961847 0.22156975
-0.4673578 0.8750576 -0.78425074
-0.21482658 0.6319835 -0.22928643
-0.92453307 -0.25341314 0.8727393
-0.32016534 0.87054133 0.59016085
0.3630945 -0.4188909 0.43296444
-0.2362068 1.3027563 0.19846737
0.03858744 -0.41272533 -0.017344534
0.34910905 0.46617895 0.53717864
-0.4503238 0.99671066 0.091155924
0.19039553 -0.41521633 -0.45203072
-0.4620871 0.73358554 0.31946194
0.18597008 1.6232917 -0.034584
-0.0016310082 0.8385052 0.48905602
0.8693625 0.8091767 -0.13371445
0.19519827 -0.07157573 -0.08564762
0.6621064 0.4679899 0.002823721
0.22169955 1.1159002 -0.72242653
0.4033293 0.5316582 -0.63786626
0.09280602 1.1879181 0.520306
-0.14811206 -0.41390932 0.06650574
-0.17876041 -0.076288655 -0.19894671
-0.5409945 0.8810524 0.6373245
-0.5187708 1.4795382 -0.67595017
0.89950657 -0.4070117 0.12085022
0.827574 1.4721792 0.16940604
0.5647794 -0.41219845 0.74194425
0.07243428 1.5592419 -0.82466614
-0.24799213 -0.25035414 -0.5881703
0.52491486 1.4392548 0.3253026
0.8956909 -0.40762705 0.5338714
0.27362543 1.7906232 0.051551014
0.3586378 -0.086728975 -0.9062293
-0.048704125 1.4127393 -0.891806
0.13865316 -0.0737776 0.87305915
0.014716652 1.8263333 -0.1489501
-0.20379388 1.9663321 0.121757075
0.27573597 1.8484046 0.39849347
0.6140834 1.7262156 0.23215489
-0.54934573 1.142874 -0.5067758
-0.25643563 -0.0860615 -0.7480496
0.7189207 -0.08209588 0.8771309
-0.7237828 -0.08098543 -0.21987228
-0.45152062 -0.24192154 -0.6379489
-0.45076048 1.8475149 -0.28066856
0.6516495 1.1745031 -0.69088984
-0.62283635 1.0430064 0.21198346
-0.3065058 1.021687 -0.7013754
0.3771686 0.73339736 -0.56231356
-0.11827475 0.8919014 0.6637054
-0.30454856 0.68485427 -0.5708596
0.39925867 0.28146487 -0.11648879
0.87161446 0.9142276 0.1922053
-0.35595465 -0.41951585 0.35752413
-0.32041252 1.5416225 -0.77148294
0.20406526 1.1411281 0.84846425
0.7364942 -0.081812814 0.42696905
0.3811222 1.7105027 -0.08880295
-0.9247358 -0.25181717 -0.42720252
0.42313242 1.7194905 0.47101963
-0.17426696 0.48217472 0.59165967
-0.8828831 -0.41229975 0.5252049
0.53150856 1.0559776 -0.56074333
0.49768406 0.93657243 0.48447323
-0.34729093 0.43760288 0.4686541
0.48906496 0.92991805 0.7118565
-0.15311004 -0.2556661 -0.7640312
-0.7114632 -0.26126587 -0.9262775
0.40320683 1.3973289 0.12246938
-0.08990774 -0.2408959 0.63798964
-0.16015637 -0.08984697 -0.9151789
-0.8569046 1.0992596 0.22028992
0.10643177 0.5285711 -0.22181724
0.57741237 -0.08618217 0.747221
-0.0008834417 0.92805004 -0.56487757
0.17643014 1.9836736 0.10503511
0.23525026 -0.41785294 0.6116696
-0.45554888 0.5414549 -0.59046686
-0.2937582 0.674773 0.06440007
-0.57317305 1.7105063 -0.36919105
0.03249791 -0.24622339 0.47069368
-0.64677 1.1687282 0.55215
-0.7833887 0.9417461 0.33714
0.7498965 -0.25232166 -0.088882536
-0.23973787 1.3024747 -0.5224426
-0.04682091 1.3024182 0.18291463
0.7158083 -0.082359165 -0.3934636
-0.65719557 1.3026054 -0.6114112
-0.7985637 0.70922244 0.06486757
0.5676569 -0.08113444 0.31937128
0.267736 1.5572019 -0.55208576
-0.09987892 1.5567428 -0.31671023
-0.28235692 1.8357651 0.40448707
0.41987896 1.5854778 -0.4039367
-0.5096512 1.1898273 0.33309156
0.30173734 0.4450993 0.07842028
-0.20402712 0.4447068 0.2405817
-0.41868544 1.0228806 0.50085664
-0.066110894 0.7960689 -0.28056505
0.3179642 -0.23800647 -0.7794544
-0.13836914 0.80001414 0.34612876
0.6248257 -0.27654517 0.0760997
0.64836663 -0.24842386 0.24913393
-0.3884451 1.6146702 -0.4113572
-0.13178006 1.5627677 -0.8189241
0.10452506 -0.4140196 -0.62230873
-0.15059602 0.9125165 -0.92654413
0.64621705 -0.24322304 -0.9175348
-0.6389927 0.6390398 0.36821058
-0.597032 -0.25585085 0.25429356
0.5711808 -0.41429627 0.5250399
-0.14228043 1.1862543 0.030742917
0.32747054 1.2787257 -0.6985661
0.010728363 1.025064 0.6211293
-0.6888207 1.2156191 0.22093073
-0.1735778 0.7311286 0.5422075
0.8958516 -0.08879759 0.7337855
-0.55725163 1.6185791 -0.52610546
-0.58671916 -0.08622515 0.34583953
0.3918212 0.30903518 -0.2963434
0.31174552 1.4041985 0.5934361
0.2560932 1.5148892 0.7351023
0.6944667 1.1633327 0.278538
-0.15838024 0.7728989 -0.082406245
-0.13330963 0.7973186 0.13223046
-0.62587905 -0.24995601 0.465344
0.15373722 0.8233831 -0.22934341
0.9169482 -0.24840027 0.6460886
0.17227367 1.1612506 -0.9398638
0.41522622 -0.25179732 -0.28836226
-0.55037963 0.41218472 0.12145905
-0.4958946 -0.26029485 0.59559435
-0.34486136 0.6926892 0.4679292
0.923684 -0.2469176 0.43924418
0.5942136 -0.2501871 0.6465781
-0.54920745 1.3349233 -0.07502912
0.53416145 1.1141133 0.201437
0.851433 1.07439 0.31418043
0.1462867 0.51625013 0.3641182
-0.36732432 0.7081857 -0.32759064
-0.77058387 -0.2527135 0.5454866
0.23267224 1.9029095 -0.4201091
-0.02088286 1.7938558 0.20377892
0.544484 -0.0860369 -0.9083494
0.21276039 0.5876072 0.6685018
0.09576154 -0.25544327 0.9257839
0.6540434 -0.08107406 -0.73607117
0.018086549 1.2548597 -0.36483198
-0.07954115 0.2005338 0.0719933
0.5020726 1.2286146 -0.80610424
0.15397516 -0.08002236 -0.28859502
-0.79016256 -0.2515922 0.7371146
-0.741829 -0.08128794 0.4358635
0.5003686 1.232664 0.6958951
0.21308795 1.2433736 -0.36518398
0.09524083 1.3978671 0.23835567
-0.3829565 0.744374 0.6938464
0.58691764 -0.24512818 -0.21521541
-0.22263984 1.2504325 0.81536776
0.78157187 1.249677 0.42464438
-0.58369327 0.8664279 0.27136675
-0.1723763 1.8479105 -0.17100942
-0.6222323 -0.4032659 0.9059328
0.24622898 -0.24482802 -0.3959965
-0.563794 0.5056888 -0.41244704
-0.42278025 1.7931575 -0.4567767
0.780114 -0.24847177 0.34074476
0.9139708 -0.24158037 -0.5953503
-0.15061295 -0.0762668 -0.0012024497
0.031802095 1.3660061 0.4573343
0.3376515 -0.08128377 -0.36367112
0.5990071 1.0782576 0.65409803
0.55357826 1.573742 -0.03723441
-0.69519085 1.2258427 -0.018825611
-0.37635282 1.1868831 -0.86346114
0.89715177 -0.4072566 -0.08673355
0.68604696 0.73231745 0.46937826
-0.13730654 0.5720353 -0.53513914
-0.3593592 0.5400729 0.3254761
-0.34146634 0.573175 -0.44066072
0.06876443 -0.25626004 -0.35743245
0.7335682 0.7948691 -0.53258824
-0.4779542 0.97344995 -0.58509564
-0.056448996 1.3157973 0.6379758
-0.673902 1.3737059 0.08402966
0.27154693 -0.08064364 -0.7026825
-0.89582884 -0.40592104 -0.53456146
0.04437169 0.651551 -0.6439557
-0.2779901 1.067773 0.6234469
-0.02773122 0.7561366 -0.48645943
0.89104724 -0.40728986 0.73399407
0.22304454 -0.07852931 0.11863026
-0.20428704 0.74253786 -0.4179427
0.06577447 1.6317718 -0.19429791
-0.4465669 -0.24905983 -0.29112738
0.8994484 -0.08685584 0.53246546
0.8859884 -0.40069938 0.90705967
-0.04639712 1.3028537 -0.123936996
-0.4983785 0.86221224 0.45343754
0.58384895 1.682748 -0.45402333
0.3065635 -0.40359533 -0.9153069
-0.29027674 1.5728558 -0.23422775
-0.53621936 0.4616874 0.31157416
-0.34947532 0.8984616 -0.42987588
-0.14291048 -0.40889168 -0.90901786
-0.17109378 1.6398698 0.16491461
0.44517833 0.88377523 0.26173198
0.27255946 1.7026834 0.58846605
-0.37011722 -0.41439748 0.5533324
0.56861746 0.60794723 -0.2932229
0.20814994 -0.41316694 -0.7572381
-0.1381849 1.8067575 0.02356749
-0.5321301 -0.08238373 -0.14981957
0.54001635 -0.100218095 0.91684484
0.75018 0.5846901 0.1382688
0.5389099 -0.07010172 -0.12499474
-0.21188995 -0.2548558 0.7647662
-0.0055400645 1.0391512 -0.9652492
0.11778709 -0.418168 0.75299597
0.26348075 -0.24099086 0.008576885
-0.34638214 -0.41814083 0.15322423
0.25387448 0.41143218 -0.16343042
0.039508868 0.8364116 -0.91478467
0.25088233 -0.25423318 -0.6058636
-0.12335298 1.6099387 0.68845415
-0.0655596 1.8608029 0.44005203
-0.19751582 1.1471264 -0.93614197
-0.4552188 -0.25701374 0.4128908
-0.15806523 1.9964062 -0.05859439
-0.13079873 -0.25833112 0.475469
-0.32561594 0.843209 -0.6584404
0.0884199 0.7680849 0.17428643
0.22593325 -0.25912482 0.7782526
0.9313524 -0.24619088 -0.7822925
0.4421659 -0.2539401 -0.6313118
-0.29046023 -0.25336942 0.026274148
0.31168813 1.3325784 -0.5133866
0.722599 -0.3991809 -0.91790825
-0.7076874 1.557111 -0.35844854
0.082812205 1.8183217 0.028686954
-0.34858698 0.49309534 0.12564692
0.19451523 1.6754726 -0.7280788
-0.9230174 -0.2581358 0.43151087
0.44934654 -0.24602668 0.52817893
0.4009416 -0.2541056 0.3553645
-0.91241026 -0.103891686 0.17088394
-0.46952718 0.70037985 -0.71035725
0.4276465 0.33617902 0.21516776
0.40282026 0.50237054 -0.2637012
-0.30506527 -0.08427501 0.118600115
0.013081066 -0.08101592 -0.4831701
0.70490015 0.8959726 -0.018354319
-0.40879038 -0.23876359 0.75611156
-0.23334843 0.4050709 -0.16552244
-0.06724532 -0.24883538 0.28813848
-0.22037522 1.5828955 -0.019943593
-0.4098975 0.997715 -0.14820558
0.7883568 0.66403884 -0.26374495
0.902025 -0.08512734 -0.49087697
-0.31284863 1.3332849 0.40207547
0.117623195 0.88014877 0.6655685
-0.3215142 1.5746903 0.65594876
0.531734 0.59532785 0.49512696
0.2594437 0.6467844 -0.20982638
-0.6197653 0.8589428 -0.6555413
-0.16370444 0.2987395 -0.45624468
0.38185495 -0.41897064 0.015172431
0.08845031 -0.40508324 -0.9098301
-0.13459927 1.3500416 -0.30324745
-0.7170635 0.90046227 -0.08683812
0.39630547 0.6306187 0.6253157
0.010651872 -0.41003776 0.90796244
-0.04331607 1.3233544 0.83355176
0.48004046 1.8694973 0.11851974
0.39799047 -0.08190937 0.21524861
-0.41945735 1.3480272 0.23043555
0.08202174 0.46298122 -0.69529164
-0.45640764 0.78532517 0.10170929
-0.21695957 1.0112641 0.14472133
-0.060836606 0.3403738 -0.06470482
0.26748842 -0.085559055 0.7312556
-0.8954866 1.0533692 0.0013357878
0.47084633 1.4115915 0.6827899
-0.7321365 1.0644221 0.06764832
-0.012750424 1.9872849 0.12443258
-0.73234296 -0.084885806 -0.89886504
0.4023255 -0.41926348 -0.18154588
-0.07756143 0.48126644 -0.19982871
0.12627581 -0.25142166 0.6107701
0.8943559 -0.085655436 -0.09083906
0.8865299 -0.08061682 -0.7059946
0.5591067 -0.41534126 -0.29102612
-0.15863681 1.4353395 0.5547075
-0.4691838 1.0438707 -0.36017826
0.33976328 1.0535386 0.19079915
-0.30070984 -0.245795 0.57932746
-0.3757969 0.5081067 -0.2677428
-0.38705343 0.38617653 -0.45316404
0.41542476 0.6990629 -0.7624992
-0.61758065 0.6682522 -0.5521165
0.5787971 0.7914268 0.36136097
-0.6367123 1.71488 -0.20527773
-0.079680726 1.4831088 0.34731954
-0.60594296 -0.09153353 0.14331225
-0.7309041 -0.08111544 0.80127513
0.49437165 -0.24799882 0.22725984
-0.006992755 0.18199041 -0.13196495
0.2071369 0.46349853 -0.3699075
0.23080611 0.76050454 -0.87040544
-0.010958096 1.719769 -0.716251
0.73579156 1.4335508 0.4099882
0.34728396 0.59865475 -0.41130114
-0.36071038 -0.08289741 -0.2549036
-0.8266499 1.4227092 0.13784748
0.16863799 0.9953561 0.49378282
-0.082240865 0.39408192 -0.6039838
-0.39892215 0.29721352 -0.12913562
-0.81579876 0.98861516 -0.38405252
-0.534992 0.6880913 -0.38375744
-0.41432935 1.6890728 0.49533856
-0.17049184 0.58068866 -0.044143923
-0.12206136 1.9445049 0.29148185
-0.92313194 -0.25507218 -0.21714157
0.5628152 -0.40722632 -0.076343104
-0.852381 1.1859149 -0.31764227
0.8565346 -0.24898377 -0.9280093
0.48953635 1.2498188 -0.587548
-0.20204054 0.4626202 -0.37043846
-0.37106106 0.7133143 -0.11280696
-0.31994274 0.8590783 0.20222852
-0.10033393 1.144871 -0.2136318
0.0778351 0.34750563 -0.19986616
0.58017135 1.2778184 0.37550032
0.7528049 -0.24970329 0.5425444
0.8930825 -0.40772337 -0.68769157
-0.033314444 1.0764039 -0.4280644
-0.3669704 0.4992236 -0.072744235
0.3803879 1.6000824 -0.71785766
0.40661734 -0.2543608 -0.10772124
0.41669166 1.8231882 -0.43146908
-0.20706151 0.34469986 0.4066252
-0.23470125 -0.0825801 0.51360583
0.21356833 -0.40938693 -0.096143104
0.123698875 0.19657815 0.011372035
0.6630348 0.854903 0.1795959
0.35827154 1.9239446 -0.23509982
-0.88144803 1.0099318 -0.19842187
-0.028166434 -0.09492638 0.9138057
0.91216564 0.9590887 -0.010724682
0.0042676562 0.70449543 0.029810745
-0.25811952 -0.08265638 0.71597195
0.39328358 0.49562374 -0.07369241
-0.31627715 1.7473052 -0.08694824
0.37467974 0.6982962 -0.046734273
0.19703504 -0.2461846 -0.9250976
0.10619234 1.0914197 -0.27657473
-0.22520569 1.9156833 -0.38488066
0.5608748 -0.08380855 -0.5342729
-0.32998914 1.5019808 0.11283988
0.4453122 1.6915424 -0.5745457
0.6053301 1.1923294 -0.43507904
0.9003413 -0.08494617 0.11336225
0.62696725 0.9858744 0.32638103
0.5987961 0.6699171 0.20204581
-0.34004086 0.5802147 0.6106589
0.23179516 1.6901914 -0.44093874
-0.42623544 -0.40728778 0.89759713
0.12278812 1.5220678 0.36319062
-0.73269904 -0.24815492 0.9201343
0.39617166 0.89024496 -0.8503474
0.58884573 -0.24906766 -0.4101665
0.7122338 1.1172352 -0.27364105
0.5731189 1.5496376 -0.6099498
0.3536071 1.5764894 0.084585324
-0.8207124 0.8278622 -0.27146178
-0.7878505 0.67361665 -0.14330924
0.3965116 -0.41181177 -0.763317
-0.6376431 0.7766974 -0.24276155
0.70884216 1.5745068 0.28759152
0.7257601 -0.41688868 -0.18655504
0.7344926 1.6304141 0.08814099
0.7368369 -0.08193122 0.64771926
-0.6209018 -0.2553299 -0.61652005
0.021138757 1.0937299 -0.06416851
-0.2555492 -0.41366377 -0.2647865
-0.38322085 0.3426941 0.2708493
0.19726264 -0.08192152 -0.49713144
0.15885237 0.73974466 0.78230315
0.10644935 1.8244278 -0.5789326
0.45958427 1.0769134 -0.31947106
-0.6471468 -0.08023544 -0.7397138
0.15877111 1.7903528 0.22278532
-0.55614245 0.40105385 -0.07228258
0.31203097 -0.24971524 0.62342966
0.011066967 1.9277496 -0.42530346
-0.3155469 0.85917926 0.39661193
-0.3357857 1.7275059 0.10943031
0.89929056 -0.40755516 0.32758918
0.22063018 1.2435336 0.19695371
0.02382918 -0.2431033 0.7702283
-0.7712915 1.348413 -0.42226893
-0.516145 1.172714 -0.22154814
-0.5135796 1.336606 0.44384223
0.25615793 0.8670149 0.19809312
0.65502274 0.79548806 -0.3584543
0.5686183 -0.20230326 -0.04521838
-0.6869092 0.5575702 0.18935013
-0.5910681 0.9058637 -0.4250421
-0.30179685 0.8823189 -0.0060864286
-0.27255577 1.8023484 -0.53653646
-0.8295566 1.3966744 -0.24807766
0.18409391 0.98673666 -0.1162904
0.6849748 1.6667664 -0.30747777
-0.9317274 -0.25432464 0.63696814
0.482561 -0.41331303 0.90618575
0.7239802 1.2666905 -0.11169863
0.1697234 1.6099755 0.16172478
-0.32805002 -0.08282986 -0.07459032
0.02107438 1.4974058 0.7634561
-0.7627251 1.5723174 -0.15572086
0.063553974 1.21151 0.32865155
-0.19354287 0.90571654 -0.5484206
0.06778496 -0.0820117 0.2520212
0.1251809 0.6546242 0.4825263
-0.12728609 -0.41552413 -0.6144066
0.26244697 1.6508685 0.37541333
0.8993391 -0.40615553 -0.4882625
0.19362189 1.546358 0.5277505
-0.43562615 1.1756803 -0.054330684
0.38655767 1.4930027 0.44223225
-0.18426612 0.5761491 0.40198135
0.11193219 0.57356244 0.16181107
0.45863023 1.4237456 -0.24748854
0.7343672 -0.4198232 0.020278215
0.017745685 0.71875465 0.63305855
0.0697165 1.7061163 0.38645965
-0.26080865 1.4833934 0.2903623
-0.019933796 1.2325323 -0.9445091
-0.29600474 0.78211516 -0.83928543
0.1296888 1.811845 0.5126898
0.5648347 0.42746437 -0.34772712
0.89582115 -0.4076835 -0.28815103
-0.57807624 -0.4144317 -0.31923282
-0.028190307 0.46698454 0.31985062
0.03388898 -0.08978787 -0.9120927
0.581174 1.1560025 -0.006466404
0.09612985 1.9363513 0.3158803
-0.71893394 0.6414524 -0.34958172
-0.18891524 -0.41133946 0.61675924
0.5693929 1.5147414 0.14336371
0.227532 1.3429171 0.4169391
-0.39749908 0.30075812 0.059528247
0.55587053 0.8578723 -0.5330621
0.022014672 1.1106298 0.14522842
0.7606083 -0.24099281 -0.7398283
-0.12852055 1.6747932 -0.15796983
-0.32174206 -0.41481858 0.74176586
-0.087937504 -0.41467863 0.75940573
-0.61914444 -0.25060397 0.7268435
-0.1252093 0.90432715 -0.7400599
-0.25268352 -0.25566167 -0.9220135
0.73008835 -0.413303 -0.58233774
-0.601488 -0.2485598 -0.42502606
0.78536415 0.7309878 0.273844
-0.13635564 -0.08323474 -0.5926789
0.011819258 1.4156549 -0.6864182
0.69517773 0.61473155 -0.43260702
-0.3532417 1.3165499 0.02078515
-0.15626672 0.9571513 -0.37368345
-0.5538324 -0.09031945 -0.91347873
0.2623137 1.1512738 0.40273887
-0.84793794 0.9044603 0.14500579
-0.27594405 -0.24429011 -0.3763546
0.5294138 -0.41080207 -0.8982389
0.41368967 -0.24310315 -0.46902606
-0.70272636 -0.41818076 -0.7999848
-0.3207386 -0.25048578 0.92361736
0.3779986 -0.41672587 0.2207045
0.01497394 0.86579835 -0.08403946
0.055517554 0.52790105 -0.4973485
0.8185841 1.534143 -0.05147336
0.7000301 -0.4166149 0.8795227
0.504789 0.3443584 0.04027778
-0.56210804 -0.08335633 -0.3359949
0.6510608 0.75371027 -0.16537803
0.54179513 1.8034592 -0.28313115
-0.07833051 1.2444676 -0.75604403
0.65466005 0.5742955 0.34228456
0.087442055 1.582696 -0.5967133
0.8950207 -0.40586725 -0.88127935
0.5785602 0.66745365 -0.6169038
-0.7682185 0.75567573 0.262702
0.43923444 1.0904447 0.3594059
0.5478197 -0.25413394 -0.77698195
-0.35872492 -0.0875748 -0.9106302
-0.10536118 0.53357697 -0.7474055
-0.031286396 0.5812408 0.49931195
-0.21632314 -0.24480459 0.18326601
-0.24189708 1.4153876 -0.15947416
-0.030630898 0.76632726 0.80486524
0.159205 1.0374298 0.26504445
0.31072405 0.5914545 0.44467542
-0.92432433 -0.24762836 0.0055816993
-0.012746669 0.40878838 -0.36879867
0.10373448 1.6476042 0.67462367
-0.8214211 1.4088426 -0.05766853
0.39357567 1.085489 -0.68865854
-0.09309494 0.9654658 0.030261012
-0.6260701 0.969026 -0.23948188
0.5845264 1.6241549 0.43176904
-0.03377033 0.37954846 0.5067616
-0.51947266 -0.4181826 0.71333253
0.7222973 1.0321773 0.12783039
-0.28198546 1.746473 -0.3060944
-0.62495553 0.7157954 -0.0535234
-0.16846155 1.373869 0.008315027
0.5029062 0.88765615 -0.28956622
0.90167797 -0.08602485 0.32379293
0.24825498 -0.25027248 0.4454353
0.26460084 0.9967948 -0.34190935
-0.5352646 0.70389456 0.5592842
0.13423622 1.9741486 -0.26221752
0.01250698 0.546737 0.6888516
0.069802254 0.31969994 -0.5166441
0.515853 1.3606472 -0.040724266
0.3340862 0.9112828 0.5999524
0.6235967 -0.24906972 -0.60709053
