0.5861275 1.2383051 0.52728015
0.5081235 0.3540016 0.05809716
0.44709098 1.3830653 0.27484083
0.7446228 -0.25259876 0.7550492
0.40518627 0.8628837 0.5417687
-0.57971823 0.7950201 0.38268322
0.081295006 0.064591065 -0.40582204
0.6590058 1.0609685 0.56313634
0.27080056 1.5918448 -0.58023256
0.7703421 -0.2491402 0.93292356
0.46290788 -0.08293425 -0.7284007
0.0019549604 -0.41126686 -0.47188348
0.025040125 1.2455564 0.042202912
-0.72516155 0.8631208 -0.17028078
0.29399848 1.2433741 0.2581442
0.09617631 -0.226266 -0.53411245
0.35593235 0.2993918 0.2148388
-0.33282125 -0.05827041 -0.582553
0.15253548 0.4832226 -0.41093886
-0.9053827 -0.09571485 0.73163563
0.4517681 1.5842137 0.31875953
-0.6086819 1.2897217 -0.0841697
-0.4663869 -0.25309157 -0.9243971
0.42755803 -0.0807422 0.6439435
0.2751937 0.22359957 -0.65311444
0.8703239 1.1936648 -0.16758527
0.8954134 1.0305648 -0.2580433
-0.2745298 0.86796397 -0.04425879
-0.21419662 1.4223418 -0.46099687
0.2515615 0.06456008 -0.24746373
-0.4266168 1.1372633 -0.23714092
-0.7277402 0.58586764 -0.49511087
0.015515002 -0.10710574 -0.1349977
-0.7479215 1.3320229 0.060595103
-0.7278789 -0.08267416 -0.42660046
0.3447033 0.94463134 -0.52177
-0.59008217 -0.4110952 -0.110642746
-0.3593493 1.1598339 0.5477319
0.11012752 1.2115043 -0.49571866
-0.25703177 0.6420377 -0.26398188
-0.045996543 1.0693464 -0.5681231
-0.24125385 1.0127611 0.5913666
-0.7549771 -0.0783018 0.22103025
0.27003586 0.39395434 -0.8058726
-0.059931733 -0.08204886 -0.7673782
0.76390547 -0.2500648 -0.49025232
-0.5538118 1.062275 0.62859917
0.6144588 1.2069339 -0.6742314
-0.09935976 -0.22968596 -0.46401748
-0.13078934 0.88924205 -0.8107612
-0.11003037 -0.07043384 0.18191001
-0.76142347 0.95192313 -0.5234252
0.40235466 0.852304 -0.082674
0.14068753 1.2310606 -0.11267467
0.2363007 0.76991624 -0.5941611
0.92287195 -0.24833395 0.0145205315
0.08906089 0.46113318 -0.8811256
0.857628 0.6507156 -0.37528843
0.69033897 1.5046853 -0.12836924
-0.20025738 0.06366703 -0.11489342
-0.44043654 1.253228 0.3847652
-0.11983591 -0.23723099 -0.27310544
0.86511743 1.0834987 0.22838753
-0.71883017 -0.42104918 0.7727617
0.33660305 1.0633289 0.7682819
-0.49757195 -0.41783184 -0.73119533
-0.7140418 0.7696792 -0.5736065
0.18437669 0.20931268 0.16364275
0.3058824 0.6923425 0.78040385
-0.57041496 -0.08673666 0.53636575
0.7464398 -0.08706625 -0.5836385
0.854157 0.99503905 -0.4277385
-0.11786819 1.3689244 -0.6217063
0.34091073 0.08653824 -0.026389329
-0.02087626 -0.4125824 -0.76394814
0.7272092 -0.4186216 0.6458552
-0.09801017 0.53014606 -0.89504254
-0.4497495 0.56889176 -0.55936813
0.010747041 0.79559875 0.37404707
0.5706049 -0.051787153 0.11375609
0.19960056 -0.412288 0.28683522
-0.35322028 -0.41249582 -0.5943592
-0.37835073 1.1221006 0.72209024
0.13396154 1.2028503 -0.9196008
-0.89104974 -0.09912315 -0.91337633
-0.76365477 0.8741732 0.38029703
0.08078918 -0.42618892 -0.2537604
0.40738958 0.99095654 0.062683254
0.5232108 0.2343871 0.3294532
-0.06311875 -0.06341156 0.56725824
0.10235812 1.5697451 -0.31528237
0.13265559 1.0267884 -0.17569786
-0.7633642 -0.24406031 0.32183492
-0.5220462 1.5871446 0.12189064
0.42875695 1.0319308 -0.15395772
-0.47464305 0.30815127 0.4381923
-0.8690845 -0.08160807 0.02187856
-0.49807256 0.6347672 -0.10292734
0.7709569 0.9481182 -0.580636
-0.19125521 1.2058918 -0.6965121
-0.22777526 1.4790719 0.5587357
-0.36610925 1.6918538 0.025257949
0.587144 0.66914093 -0.75841135
0.32142588 1.5007298 0.2199238
0.7121811 0.7982801 -0.6671156
-0.4057752 -0.07090026 0.42518073
-0.61753833 -0.091839224 0.9153764
0.4123631 -0.06349137 0.4281377
0.593112 -0.26718128 0.89950806
0.922084 -0.24776104 -0.38729054
-0.89568007 -0.4075325 0.10556671
0.766303 0.8848865 -0.10252289
0.91932493 -0.2479457 -0.18520145
0.56912464 0.34809747 -0.5561864
-0.53518665 -0.42131543 0.48244327
-0.104890935 0.09600435 -0.3232705
-0.710914 -0.4157123 0.39867532
-0.08621006 0.38505793 0.12157804
-0.31655744 0.88421726 -0.52234447
-0.88197815 0.9890614 -0.13032708
0.0029121256 -0.41219458 0.57382536
0.17143402 0.21138595 -0.050759606
-0.6954833 -0.07258743 -0.02999326
-0.71468973 -0.41769084 -0.6256883
0.06980987 0.6465032 -0.75630903
-0.8963989 -0.40755618 0.7179222
-0.90465903 -0.093014136 -0.52978325
-0.6072681 -0.23801222 -0.21098378
-0.3173805 0.79954517 -0.9109187
0.4289955 -0.25466514 -0.9236455
-0.588781 1.3736765 0.39037025
-0.007638905 -0.4122169 0.36823165
-0.21798475 0.58779013 0.7567986
0.36776167 0.92635095 -0.9047773
0.41113496 1.2759452 -0.5921235
-0.51092595 1.3138617 -0.27461827
-0.5231204 -0.24580905 0.91146386
-0.46369195 -0.23127711 0.09939864
0.6489073 0.8163337 -0.43654317
0.0021343185 1.3718665 0.21939313
-0.001848408 0.21241304 0.088542044
0.14589739 0.09393818 0.34248477
-0.25588578 -0.41900688 -0.7521639
0.39405626 -0.2675848 0.92219025
-0.2499049 1.3133914 0.46771237
0.37911785 -0.05648543 -0.54697275
-0.146081 0.90064085 -0.60966223
0.8714268 0.57188237 0.033632696
-0.48550552 1.3383176 0.22102194
0.38185042 -0.075476944 0.8738612
-0.061871663 0.701478 0.8181465
0.2843343 1.2605829 -0.3843099
0.29493943 1.6990724 0.22638446
-0.3545122 -0.25675452 -0.76917773
0.7383919 -0.07841556 0.22137289
0.301966 0.9328164 -0.22931619
0.41075993 0.8628268 0.7576409
-0.48876327 1.5279163 0.31425166
0.5483922 -0.41892934 0.12883691
-0.7030795 1.03967 0.44438308
-0.13010323 1.0683031 0.36892307
-0.037826046 -0.23840007 -0.63758135
-0.5449571 -0.08345297 0.7391629
0.7874247 1.3473482 -0.2712193
0.2112718 0.5764333 -0.0684481
0.93099964 0.9813918 -0.08559984
0.5789064 0.40363443 -0.14094979
0.5916202 1.3351891 -0.34844977
-0.097473584 1.5550472 -0.3249971
0.42997676 0.2167837 -0.5357277
-0.09844482 -0.4184366 -0.1446926
-0.74221766 -0.41474435 -0.21630123
-0.27416116 -0.41357496 -0.07136587
-0.24568544 0.45099318 0.22403853
0.9033192 -0.08909789 -0.8965725
-0.36975467 -0.41153163 -0.9015242
0.12041071 -0.24120723 0.31765008
-0.8977319 -0.09285919 -0.3331601
0.005024063 0.76563287 -0.2642219
-0.15012608 0.40468186 0.68310773
-0.6412565 0.64948726 0.06482172
0.011819778 1.789804 -0.046364818
-0.088329166 1.244838 -0.48256218
0.9253187 -0.24765848 0.22774582
0.15373611 -0.41053414 0.4563896
-0.03137514 -0.25646386 -0.9157431
-0.9156127 -0.26023203 -0.8724035
-0.17646798 -0.40940368 0.25293243
-0.66488075 0.55419755 0.42620206
0.060673997 0.8500363 -0.8259017
-0.227598 1.1639297 -0.89283574
0.73111534 0.7460935 -0.25301713
-0.2957341 0.09717946 -0.36358845
0.6450342 1.2712331 -0.17014453
0.44312847 -0.24027507 0.7559222
-0.013393118 1.3085904 0.52754223
-0.4075253 1.4541576 -0.61893165
-0.116273224 -0.24989843 -0.07860428
0.7633607 0.8614843 0.47305357
-0.2028113 0.07092562 0.12769987
-0.1846241 -0.41653913 0.43946683
0.25740907 -0.06696233 0.5375981
-0.27073494 1.0113828 -0.18646577
-0.2912076 1.2194843 -0.38089144
-0.48802936 1.2285438 -0.44396204
-0.39118105 0.924629 0.7345644
0.37089467 0.5342784 0.69376767
-0.5528149 -0.07944042 -0.5527884
0.08672284 -0.06097475 -0.67565906
0.22068062 0.89857733 0.013017801
-0.8048757 1.0746665 0.29109633
0.4125642 0.7260281 -0.6889584
-0.6696107 0.7236647 0.5118051
-0.42863166 0.9557586 -0.6722329
-0.10001168 0.9208294 0.47663796
0.04686165 -0.27070397 -0.19024804
-0.76685226 -0.24361445 -0.10528156
-0.018944263 1.4813716 -0.47470772
-0.29012442 0.85287774 -0.30248016
0.275667 0.9906908 0.5996953
-0.26330656 -0.23372892 0.3745125
-0.45989394 0.37151563 0.1623244
-0.5256332 0.9782404 0.10150059
0.2936998 0.07492338 0.1646536
-0.12459858 1.2406929 0.14907402
-0.89892054 -0.4060873 -0.10666063
-0.5790616 -0.4055259 -0.9164021
0.55888593 0.54519856 0.5769516
0.111006826 1.0773638 -0.7863725
0.26004618 1.3232408 -0.83917964
0.44635713 1.2517265 -0.77876496
0.074488364 1.2095337 -0.2879184
0.3726889 -0.06626773 -0.1873889
-0.5275971 -0.41378725 0.2821051
0.098927036 -0.048172258 0.4624018
0.10547601 0.059891168 0.13456166
0.91438854 0.8285023 -0.25918466
0.73191905 0.32415718 -0.25574106
0.73669267 -0.08619003 -0.9023404
-0.4210372 -0.2436693 -0.48144227
0.1943365 1.7677819 -0.07233542
0.09773742 -0.24347614 -0.032407165
-0.21759552 -0.40786922 -0.4593163
0.46118474 0.5257695 -0.26977283
0.39611545 1.0572557 0.27461088
0.33604556 -0.41580325 -0.5803709
-0.2485294 0.24742383 -0.66573596
-0.51794446 1.6140358 -0.08132996
0.42135873 -0.41169342 0.61344683
0.50898695 1.6441492 -0.09642035
-0.08177703 -0.05382635 0.38438153
0.41611272 0.75231194 -0.4916761
-0.328722 1.715919 -0.17417128
0.23378922 -0.3995965 0.9118992
-0.2028116 -0.050283603 -0.4202308
-0.040310968 0.07663526 0.25339434
0.18365347 0.59369904 -0.5636084
0.41800192 1.0719538 -0.37471312
-0.6325525 1.1914772 -0.25436485
-0.2807725 -0.23648813 -0.17958489
0.8398015 1.1904597 -0.37791097
0.5423534 -0.4108277 -0.4928385
-0.412542 0.7626491 0.26855198
0.14983884 0.90447605 -0.5001767
-0.38832384 -0.23718528 0.24603185
-0.45262948 -0.047497205 0.22855349
-0.18093657 0.9787539 -0.405435
0.89334583 -0.095448524 0.9081763
-0.034970872 0.41746414 -0.39808193
0.92736596 -0.25066656 0.8579166
0.093585655 1.3669139 -0.38144878
0.20628345 -0.41324884 0.0978534
-0.1010833 0.878231 0.67940116
0.352494 1.7238836 -0.0050238906
0.270784 0.103649355 -0.46751308
0.68705034 1.1524404 -0.3312264
-0.45188868 0.63528734 -0.2972603
0.4221055 1.347933 0.6005008
0.72787195 -0.41604722 0.42706132
-0.5447782 1.0640824 -0.7700061
0.5385982 -0.054752454 -0.32425585
-0.5057978 0.85066485 -0.81620765
0.72213835 -0.41644734 -0.38738304
-0.89950866 -0.094487414 -0.14427114
0.8188603 0.4384472 -0.10724029
-0.86843807 -0.09493731 0.911819
-0.8676203 1.0010861 0.074924946
-0.1597762 0.77092755 -0.1658711
0.31519616 0.46541935 0.088685855
-0.18403593 0.21727175 -0.0045168847
0.32844615 1.5480089 -0.27826458
0.28563172 -0.23430575 0.21179804
0.1289512 0.7267219 0.051574685
-0.15336254 0.7261286 0.47398123
-0.11176774 -0.26008275 0.9172696
0.5561459 0.86016977 -0.80730057
0.74195147 1.1409639 -0.54965526
-0.13026977 1.4345478 0.37781143
0.21500798 1.2127044 0.072316274
-0.18965942 1.1870959 0.76031065
0.28167295 1.0800459 -0.043388158
-0.12058258 0.54264694 -0.70170593
-0.49572706 0.16332772 -0.3202928
-0.74049735 -0.41339546 -3.3254102E-05
0.12554842 1.1459336 0.616524
0.7219256 -0.07716283 -0.1944574
0.7275184 -0.072746195 0.01034908
0.49013638 1.4329898 -0.21509124
0.7026363 -0.41555595 -0.76118857
0.34284785 0.69917154 0.0024879873
0.25579053 1.3772044 -0.2346127
0.5982562 0.19161214 -0.21126564
-0.45732206 -0.081041366 -0.7419923
0.6390939 0.2421551 0.15457556
0.31853324 0.6082078 -0.4093509
0.7148951 1.3341215 -0.48225886
-0.4853695 1.4106743 0.025973357
-0.75933754 -0.24785474 -0.32076836
-0.4258874 -0.40919322 -0.19970256
0.80807024 0.69056886 0.3549539
0.3587169 1.2826629 -0.088684365
0.21187165 0.796809 -0.9590467
-0.7712623 -0.2531184 -0.52602196
-0.3227319 1.2845776 -0.57569206
0.2518515 -0.4043411 -0.28238663
-0.6049818 0.47453612 0.12091568
-0.6599879 0.8904057 -0.37343812
0.44007087 1.0622417 0.48138607
0.10356995 -0.23587075 -0.76130056
0.24909137 -0.059686907 0.33132234
-0.12148325 0.90974486 0.24590865
-0.57000476 0.8250599 -0.062024552
-0.8912428 -0.41211456 0.32046324
-0.8580259 -0.40528786 0.90483916
-0.729364 1.2782046 0.26874584
0.34158275 -0.4170909 0.7736726
0.6858176 0.6942979 0.52808505
-0.575189 -0.24984917 -0.7906238
0.23456907 -0.23116428 -0.20142782
-0.8939756 -0.40526766 -0.7340574
-0.40073264 1.1786675 -0.8009509
-0.1980789 0.75503874 0.29998133
0.6219034 1.5703874 0.03790093
0.57176995 1.050608 -0.24080226
-0.60521394 -0.23697177 -0.0078042587
0.74580765 1.0248477 0.06570833
-0.89582574 -0.40874073 -0.32540458
0.8380436 0.80361193 -0.46987993
0.33883214 0.13362634 0.34970635
-0.6580062 1.4839444 -0.009764269
-0.7284634 -0.413679 0.2081838
-0.38516307 0.7057048 0.72292817
-0.74552697 -0.08528614 -0.60911345
-0.21445978 -0.4113574 0.89955235
-0.6681311 1.2082155 0.4562763
0.89186597 1.1427138 0.021930706
-0.7517865 -0.2396462 0.108505696
0.022551192 0.4563539 0.2837419
-0.46284175 1.4463979 -0.17547876
-0.50321484 0.39450663 -0.23180532
0.2536494 0.5750607 -0.7300434
0.23345837 0.7604089 -0.78186023
0.31574172 1.1261907 -0.8954159
-0.54441035 -0.4140635 -0.5291969
-0.4221484 0.95082164 0.5293573
-0.2622131 -0.04395534 0.3044398
-0.9039619 -0.096209526 0.34797657
0.09477386 -0.07980873 0.6724468
-0.44579187 -0.22839078 -0.09922909
-0.6629807 1.2464466 -0.5285845
0.48442352 0.5710281 0.080999605
0.40538982 -0.057243258 0.014818609
0.18423684 0.20555362 0.51407933
0.78187317 -0.24140713 0.12131518
0.52899027 0.6549003 -0.11048126
0.18881321 -0.07912119 -0.8870282
-0.40460902 1.2668095 -0.08122872
0.59597 -0.24232648 0.42429787
0.32547686 0.7110019 0.36151195
0.46954978 1.4887682 0.086991325
0.11154029 -0.24428646 0.14649358
0.6916973 1.2136738 0.017234772
0.5625351 1.0892214 0.13716513
0.042877804 0.9079058 -0.66458344
-0.015316678 0.7063229 0.20813575
-0.3994312 -0.4128438 -0.39682382
-0.7255727 -0.08732307 0.62684685
0.5425359 -0.4122715 0.32991946
-0.90010774 -0.09356676 0.53997827
-0.6385671 1.4387423 0.1902016
0.0185628 -0.41467386 0.18180466
-0.6409527 0.88763756 -0.69564414
0.757113 -0.24937357 -0.28923482
0.4258805 0.5473085 0.41986156
-0.0013196254 0.88058555 0.8506181
-0.9199567 -0.2685972 0.21987128
-0.22154042 -0.092084005 0.9011084
0.15416527 1.06137 -0.5955324
-0.8501909 -0.40637136 -0.9147608
0.35814488 0.6965085 -0.21228752
0.26708874 0.49294358 0.2813684
-0.5740336 -0.40867627 0.1026599
0.5200245 0.5403011 -0.46640807
0.19796568 1.5860847 -0.14038834
-0.37947357 1.0289559 -0.39128804
-0.92526054 -0.24715939 -0.6460869
0.8979025 -0.087325975 -0.28805518
0.65881586 0.5155922 -0.010614349
-0.691234 1.0356934 -0.22057998
-0.28803217 0.9026439 0.37826902
0.24933854 0.545997 0.51344764
-0.5125949 1.2624593 0.58173555
-0.031247271 -0.083533764 -0.32605854
0.539707 0.7702922 0.048388746
-0.5318508 1.2238911 0.08888437
0.13907984 0.6258549 0.32793808
-0.72663367 -0.41618788 -0.42785496
0.3885974 -0.4121019 -0.39351133
-0.08199459 -0.08209016 0.7544062
0.15445441 1.0901318 0.80963135
-0.4945434 -0.036927912 0.022366565
0.541877 -0.4201299 -0.67313737
-0.40637225 -0.081980735 0.6255369
-0.019883176 1.4273391 0.018336268
-0.6807245 0.2993085 -0.04446748
-0.43751657 -0.40844268 -0.007166797
0.25156403 0.4103195 -0.6016823
-0.6452663 0.28951508 -0.25203872
-0.112720296 1.62873 -0.544085
0.47096258 0.44206572 0.25547665
0.5722606 0.83963895 -0.17949328
-0.0629258 -0.24721223 0.09191185
0.58189344 -0.08278118 0.53491545
0.11765998 0.7081785 0.8217266
-0.6927208 -0.4122252 0.597203
-0.2262705 0.79699254 0.79918766
0.5323552 1.2108278 -0.46366316
-0.8898188 -0.0885528 -0.736956
0.9153079 0.9267471 0.10192239
-0.59909153 1.144228 0.27021176
0.20302504 1.2492547 -0.6921803
-0.084933385 -0.4092664 -0.3293229
-0.26492223 1.0312626 -0.7215355
-0.22466405 1.5024107 -0.6774408
0.58791447 0.9081515 0.4544586
-0.40750408 -0.04823111 -0.42934594
0.2557705 -0.16917273 0.9275857
-0.7679663 -0.24170223 -0.7445564
0.69599956 1.1635425 0.22453728
-0.43585193 1.1129973 -0.5848816
-0.34062207 0.9219063 0.16157031
-0.33059478 1.4175575 0.308783
-0.27192622 0.41046783 -0.7948506
0.100903004 0.7075298 -0.42616177
0.09042016 0.94814026 0.69624406
-0.5803708 1.0715392 -0.4051981
-0.04162921 1.49293 0.5833374
-0.21264283 1.5611541 0.23840594
0.034691587 0.33261904 -0.063927196
-0.09567922 1.7648306 -0.23207298
-0.063712575 1.2758791 -0.1326861
0.041560695 0.4803589 -0.19943081
0.041851085 -0.08942671 0.05394739
-0.52819073 0.82198703 0.6483553
0.22740087 0.81744766 0.6512749
0.7256808 -0.41630518 0.22604527
0.43074155 -0.240587 0.07869341
-0.8596337 0.61354804 -0.083080046
-0.4871326 0.36506408 -0.023437753
0.22200787 0.38971013 -0.0779216
0.08018267 1.0569147 0.022212043
-0.41173792 -0.084048286 0.88520503
0.28016266 1.1542529 -0.22813016
-0.37057543 1.6574643 0.2305744
-0.4574842 0.6793945 -0.81637096
-0.19709834 0.43160632 -0.27078706
-0.9249891 -0.25579685 0.8706369
-0.30269668 0.6217773 0.5623735
0.36054856 -0.41565728 0.4284632
-0.23362505 1.0683298 0.18599227
0.037540793 -0.41712344 -0.019014705
0.38477468 0.24205881 0.49879813
-0.44197464 0.7665384 0.06974313
0.18917254 -0.41110796 -0.4517448
-0.44571507 0.4938715 0.2900586
0.17963132 1.4092577 -0.034461237
0.0192849 0.6048392 0.4624433
0.8918099 0.6280551 -0.17035648
0.21384346 -0.08167963 -0.0856335
0.6999426 0.27257347 -0.046753712
0.22612545 0.9378302 -0.7416974
0.43128535 0.36075002 -0.68965244
0.102988966 0.9507288 0.5037678
-0.15203014 -0.41430694 0.06463154
-0.17855291 -0.06700835 -0.21148074
-0.52535474 0.6252742 0.6127014
-0.52455264 1.2733952 -0.6805589
0.8982574 -0.40787834 0.12228583
0.8182892 1.2689183 0.15696539
0.5626657 -0.41303778 0.7388722
0.06358394 1.3807892 -0.8274542
-0.24579963 -0.23840362 -0.5910317
0.5228292 1.2218434 0.31379342
0.8953871 -0.40890545 0.5321022
0.26069424 1.5729529 0.05846103
0.35867643 -0.08744644 -0.9083663
-0.0525999 1.2323177 -0.8948241
0.13731134 -0.07519905 0.8733995
0.0011487881 1.6098306 -0.13605334
-0.2209787 1.734874 0.13689183
0.26315105 1.6149317 0.40678865
0.6050557 1.5147319 0.23211873
-0.5442901 0.9295028 -0.5252074
-0.2578241 -0.08228907 -0.75342643
0.719735 -0.08375253 0.876593
-0.7272223 -0.078647494 -0.22393966
-0.44929543 -0.23628724 -0.6382568
-0.46533728 1.6216788 -0.26569414
0.65442353 1.0101485 -0.70681965
-0.61249864 0.8020983 0.19323528
-0.29992557 0.82586634 -0.7262274
0.39782816 0.55671036 -0.60305303
-0.09934273 0.64608693 0.6366273
-0.28531346 0.48541814 -0.615152
0.44049996 0.103751525 -0.17902327
0.8887999 0.7180207 0.16278473
-0.35443333 -0.41476732 0.35165614
-0.3255537 1.3430835 -0.76990324
0.21805984 0.89444685 0.82986486
0.7379864 -0.08266207 0.43150705
0.37122363 1.5058651 -0.08608488
-0.9241868 -0.25429147 -0.42760283
0.41185313 1.4888366 0.4714529
-0.14585753 0.24081853 0.55548716
-0.8820388 -0.41298932 0.5223397
0.5413079 0.882102 -0.58578783
0.5162122 0.71829516 0.45652086
-0.32439792 0.19093803 0.43263447
0.5060712 0.70263803 0.6841743
-0.15261072 -0.25289 -0.76652837
-0.71123165 -0.26221573 -0.9280826
0.40339172 1.1851758 0.11086679
-0.09126215 -0.23501596 0.63168085
-0.16326723 -0.091151536 -0.9193208
-0.8475451 0.850981 0.20291671
0.13430813 0.3460184 -0.27307054
0.57735896 -0.08804774 0.74782676
0.014938589 0.73975253 -0.60172296
0.1564812 1.7562094 0.12051441
0.23351422 -0.41652527 0.6053847
-0.43833068 0.33773854 -0.6410141
-0.2796178 0.4575907 0.032350972
-0.5811894 1.4867218 -0.36077875
0.034537125 -0.2303158 0.46576574
-0.6377938 0.9124384 0.5385153
-0.7696967 0.69155955 0.31469408
0.75022435 -0.24932027 -0.08502312
-0.24147856 1.0977631 -0.53490865
-0.043438844 1.0730202 0.17065474
0.7223468 -0.08167457 -0.39084
-0.65575695 1.0895152 -0.6209297
-0.7855352 0.46796125 0.03441181
0.5675367 -0.06647836 0.3213549
0.25930578 1.3710147 -0.55116063
-0.10492034 1.344731 -0.31594592
-0.2931723 1.5835372 0.40910336
0.41465732 1.4009835 -0.40450573
-0.49974957 0.9464646 0.3180862
0.33832085 0.2558053 0.035024762
-0.1779983 0.23500547 0.2051922
-0.40739802 0.7735277 0.48106018
-0.050711975 0.5960313 -0.31465048
0.31533653 -0.23590419 -0.78021014
-0.11780101 0.5688423 0.32022756
0.62340415 -0.265218 0.07742944
0.64626306 -0.24339227 0.25029612
-0.39484644 1.3958817 -0.40638953
-0.13685462 1.3751361 -0.8183836
0.1037732 -0.4097749 -0.6199729
-0.13885207 0.7336662 -0.95320284
0.6454695 -0.24410911 -0.91859055
-0.6200682 0.3923515 0.33575803
-0.5951084 -0.2486562 0.24186523
0.5684786 -0.41377115 0.5214192
-0.13657853 0.9618529 0.013605654
0.32573205 1.100813 -0.7112696
0.025855826 0.7831592 0.6002384
-0.68419933 0.9715055 0.21108317
-0.15169722 0.49050876 0.5116356
0.8967483 -0.09076602 0.73407835
-0.5622818 1.4016838 -0.5214521
-0.58850586 -0.08462769 0.34079796
0.44303402 0.120742515 -0.36684468
0.31318676 1.1678636 0.5819056
0.253232 1.2702491 0.726606
0.7023493 0.9578736 0.2551784
-0.14203724 0.56573814 -0.114252776
-0.119002044 0.57859004 0.10527932
-0.624201 -0.25203848 0.45168573
0.17100143 0.62767506 -0.26521617
0.9176804 -0.251024 0.64617395
0.1754219 0.9940312 -0.959432
0.41699582 -0.23800239 -0.28844726
-0.53245956 0.17734948 0.081146926
-0.50048506 -0.25980556 0.5910748
-0.32484215 0.45026898 0.4367604
0.9245441 -0.24938218 0.44116008
0.5925164 -0.25103587 0.6449018
-0.5488092 1.1050248 -0.08281493
0.54389966 0.9033968 0.17920004
0.86283517 0.87269753 0.2900856
0.18050668 0.29789943 0.3278818
-0.3531723 0.4993289 -0.36148298
-0.7648106 -0.25247943 0.5437392
0.21810196 1.7122912 -0.40088433
-0.033113815 1.5622534 0.2108159
0.54496264 -0.086844675 -0.90995395
0.24283388 0.35307908 0.63343287
0.09510915 -0.25667083 0.92436266
0.65382934 -0.08210684 -0.7356473
0.021966197 1.053728 -0.38102147
-0.04784219 0.053996384 0.013349732
0.5017272 1.0648249 -0.8186162
0.15866098 -0.0791762 -0.2968812
-0.7904709 -0.25305265 0.7354479
-0.7435096 -0.08297101 0.4333083
0.50989926 1.0014195 0.6804795
0.21721654 1.0492009 -0.3807975
0.095211536 1.1700697 0.22891933
-0.361929 0.49224707 0.6628634
0.5874325 -0.23367193 -0.21097666
-0.21277857 0.99185884 0.80111504
0.78452706 1.038532 0.4059465
-0.5705036 0.62605906 0.24640425
-0.18729451 1.6238911 -0.15657952
-0.62065923 -0.40400892 0.9038781
0.2531669 -0.230093 -0.4031644
-0.54865384 0.2906041 -0.4608407
-0.43212152 1.5722659 -0.44248337
0.7797534 -0.24834621 0.34220952
0.915815 -0.24335802 -0.5944872
-0.15470782 -0.08835663 -0.009346748
0.03429638 1.1264819 0.44661403
0.3480957 -0.05442079 -0.3681628
0.6128236 0.8539573 0.6320581
0.5484451 1.3758892 -0.0423522
-0.6919907 0.990928 -0.030361243
-0.37532336 0.9933411 -0.88250864
0.89618045 -0.40824777 -0.08264462
0.71024287 0.51994467 0.43259948
-0.11558743 0.3789675 -0.58603215
-0.33899784 0.30641174 0.2918513
-0.3300894 0.37240082 -0.48917407
0.07280409 -0.24908829 -0.36111677
0.7535063 0.62951565 -0.56996244
-0.4697938 0.7664033 -0.6115744
-0.051052377 1.0706215 0.6278691
-0.675155 1.1337426 0.08055712
0.26787138 -0.07175237 -0.7042136
-0.8943664 -0.40731615 -0.5348599
0.06526032 0.46554327 -0.6902104
-0.26510856 0.81766766 0.60209715
-0.012182852 0.5659612 -0.52623904
0.89016294 -0.40880573 0.7325734
0.22868118 -0.07609345 0.116895616
-0.19043413 0.53915906 -0.4549001
0.058644243 1.4201976 -0.19110575
-0.44380704 -0.2317307 -0.29397124
0.9001628 -0.089294426 0.53582907
0.88564664 -0.40151244 0.9062774
-0.04457947 1.0870786 -0.13677369
-0.4833694 0.6152146 0.42713058
0.58002216 1.5107083 -0.45665327
0.3049351 -0.40382487 -0.9156573
-0.29508233 1.3505311 -0.23175508
-0.5155686 0.22192433 0.2736078
-0.33745617 0.6898633 -0.46026725
-0.14350855 -0.40934208 -0.90947837
-0.1774464 1.4054543 0.16713029
0.47041905 0.67880213 0.2335065
0.26288062 1.4637337 0.58587486
-0.3687446 -0.41251266 0.54744005
0.59769225 0.42464256 -0.34064835
0.20603609 -0.41151327 -0.7550448
-0.15073398 1.5786078 0.034079373
-0.53780115 -0.04631397 -0.15511438
0.5419657 -0.10296539 0.9170853
0.7810935 0.3880641 0.09464851
0.5577422 -0.026736408 -0.12118034
-0.21252823 -0.25498784 0.7609628
0.004670146 0.8663727 -0.9825646
0.116613016 -0.41818944 0.74721134
0.26755342 -0.23793763 0.010308119
-0.3486954 -0.41275585 0.1503483
0.29055482 0.23534709 -0.2192239
0.054038458 0.6636074 -0.9495964
0.24972083 -0.24435115 -0.60400325
-0.12687176 1.353014 0.6849265
-0.07808006 1.6127927 0.44505614
-0.19352558 0.9640068 -0.9550896
-0.45348865 -0.25070935 0.4096405
-0.17488852 1.7691901 -0.038698394
-0.1297822 -0.24610049 0.46779543
-0.3137401 0.6467534 -0.6918031
0.1101823 0.55979705 0.14072679
0.22365947 -0.25915653 0.77579194
0.932058 -0.24761048 -0.7825337
0.43713105 -0.24895003 -0.6329959
-0.28950447 -0.24314287 0.020477384
0.31095088 1.1467469 -0.52453184
0.72203803 -0.39950752 -0.91837204
-0.70960677 1.3310275 -0.35689938
0.069401786 1.5960621 0.038832486
-0.3285371 0.27504584 0.08880767
0.18157998 1.4932218 -0.7215754
-0.9217245 -0.2601636 0.42923504
0.44692442 -0.24162126 0.5240345
0.399234 -0.24235018 0.35259002
-0.9143332 -0.10582973 0.16904715
-0.45304772 0.50194854 -0.75007856
0.47755498 0.12804407 0.1713988
0.43836677 0.31384337 -0.3153323
-0.31331533 -0.062032178 0.10882363
0.0021234713 -0.047600083 -0.50192577
0.7235806 0.7023276 -0.050958827
-0.4096545 -0.24007773 0.75214005
-0.21438354 0.21945891 -0.21898702
-0.06680333 -0.23569189 0.28515828
-0.22391221 1.3543552 -0.018151736
-0.4002536 0.77992004 -0.1717384
0.8111417 0.4879277 -0.3041895
0.90426564 -0.0872027 -0.49021772
-0.31367657 1.0820233 0.38917592
0.13744989 0.6416892 0.6397886
-0.32406402 1.3164678 0.6564454
0.5620742 0.3780074 0.4549513
0.28700006 0.4576391 -0.25432575
-0.60991544 0.65305984 -0.6874093
-0.14731517 0.10792746 -0.53339493
0.38270733 -0.4156881 0.015744058
0.086963795 -0.4055077 -0.9100611
-0.13395509 1.1394582 -0.31273067
-0.7070022 0.67013335 -0.1125503
0.42384332 0.40520853 0.5874959
0.009937355 -0.4108728 0.9047781
-0.037152663 1.0671294 0.8239841
0.46533012 1.6578848 0.1292839
0.40605646 -0.049844734 0.22120604
-0.41967934 1.1114528 0.21995157
0.110686064 0.28160617 -0.75752187
-0.44638467 0.55815005 0.070108
-0.21257815 0.7848963 0.12149881
-0.032446317 0.17761947 -0.11949724
0.26875496 -0.08586575 0.7330378
-0.88650405 0.81251407 -0.016243564
0.47245938 1.1769006 0.6669527
-0.7233025 0.82697713 0.050305367
-0.032243118 1.762615 0.14058077
-0.7322154 -0.08568424 -0.90090644
0.40184158 -0.41525036 -0.1810781
-0.05306822 0.29938692 -0.25326538
0.12523706 -0.24681288 0.6063838
0.8979373 -0.087634385 -0.086713485
0.8872223 -0.082175165 -0.7062175
0.556671 -0.41210523 -0.28816795
-0.15940298 1.1852 0.5466308
-0.46143764 0.82844293 -0.3827852
0.35025522 0.83960694 0.1650894
-0.30112812 -0.24044156 0.57283795
-0.3617844 0.30078912 -0.31607002
-0.367172 0.1804704 -0.5120337
0.43308043 0.5358806 -0.8048477
-0.6046573 0.4572202 -0.5910722
0.6035683 0.58104604 0.3274504
-0.64651877 1.4878514 -0.19902113
-0.07976359 1.2463138 0.34303766
-0.6114838 -0.07942119 0.13790917
-0.73206544 -0.08262203 0.80115914
0.49285793 -0.23199986 0.22562699
0.024820037 0.037958335 -0.1952017
0.24026631 0.27814 -0.42692035
0.24708137 0.5926118 -0.91071224
-0.024587639 1.527732 -0.70743996
0.7336346 1.2211494 0.39716986
0.3781188 0.4142199 -0.4593771
-0.3622207 -0.054123316 -0.2622481
-0.83081603 1.1796362 0.1362454
0.18433008 0.76358145 0.47026926
-0.05570946 0.20495945 -0.667508
-0.38267648 0.097087145 -0.18149075
-0.80650693 0.76462126 -0.40533334
-0.5213281 0.47360736 -0.42002982
-0.41981333 1.4303645 0.4969992
-0.15192463 0.38172418 -0.0850111
-0.13560459 1.7048551 0.30280012
-0.92240644 -0.25753656 -0.21819797
0.56059456 -0.40214014 -0.07474077
-0.8468846 0.95688677 -0.32993972
0.85565466 -0.24998304 -0.9287462
0.4902134 1.0746024 -0.6020471
-0.18321311 0.27272415 -0.42786306
-0.35722262 0.4967859 -0.14652109
-0.30870408 0.6251511 0.17534064
-0.092378914 0.93530726 -0.23677847
0.11182445 0.17921555 -0.2624367
0.584481 1.0621104 0.3587738
0.75227904 -0.25090975 0.54279405
0.89243364 -0.40865168 -0.68618023
-0.02549604 0.8774047 -0.45337138
-0.3508184 0.28848353 -0.11513835
0.3663042 1.4239179 -0.7135924
0.40818647 -0.24082449 -0.107204124
0.4032853 1.6418805 -0.4188155
-0.17612678 0.11819463 0.37482893
-0.23554526 -0.0644237 0.5087098
0.21604012 -0.4099475 -0.09798105
0.14978668 0.057485558 -0.05201698
0.6831181 0.6538203 0.14626181
0.34177813 1.7299883 -0.222583
-0.871338 0.77888906 -0.21776259
-0.029420849 -0.096684866 0.91248125
0.925432 0.7740481 -0.040771246
0.024661714 0.5043224 -0.004677498
-0.26164132 -0.083014 0.7146794
0.42849368 0.30434424 -0.11967707
-0.32745767 1.5171101 -0.07721332
0.40253392 0.50263345 -0.08549693
0.1955251 -0.24732769 -0.92653555
0.114852786 0.8913131 -0.3008433
-0.24063471 1.6957603 -0.3640716
0.5604805 -0.07816428 -0.5299927
-0.3323383 1.2680922 0.11103431
0.4323694 1.5119414 -0.56678873
0.61051273 1.0144105 -0.45453984
0.90285575 -0.08664948 0.11836304
0.6470864 0.77827716 0.30071074
0.6268681 0.46590477 0.16362211
-0.31579587 0.3310899 0.57559854
0.2224132 1.4969354 -0.43255162
-0.42511058 -0.4080767 0.894701
0.12115676 1.2875035 0.35757187
-0.7330135 -0.24980274 0.91939175
0.40893567 0.72763246 -0.8824011
0.5935662 -0.24231473 -0.4029723
0.72066796 0.93642414 -0.2980057
0.5637392 1.3795342 -0.60878426
0.348736 1.3629589 0.08130722
-0.80851734 0.59892094 -0.30091578
-0.771721 0.44490218 -0.17775077
0.39407325 -0.41136006 -0.7617052
-0.62450993 0.55370253 -0.2739148
0.7021824 1.364756 0.28233242
0.7231997 -0.4157635 -0.18343164
0.72760224 1.4350309 0.08585246
0.7373663 -0.08377777 0.64967734
-0.6195992 -0.25447845 -0.6172339
0.028049212 0.88098955 -0.085256904
-0.25638932 -0.40946895 -0.26847124
-0.36324948 0.11416119 0.23414138
0.194442 -0.054309107 -0.50785565
0.18363783 0.49895933 0.748796
0.09094558 1.6262301 -0.5611626
0.46961713 0.88995445 -0.34361035
-0.64653796 -0.081324205 -0.7420697
0.14650506 1.5608523 0.2300722
-0.5424181 0.17404963 -0.117172055
0.31015283 -0.24631411 0.6204059
-0.0054501286 1.7162304 -0.40254664
-0.29922152 0.6210619 0.37082162
-0.3455439 1.4912025 0.115944505
0.8983375 -0.40865391 0.32641113
0.22580439 1.0236657 0.18053325
0.021599539 -0.24353892 0.7670289
-0.7663157 1.1238092 -0.42806748
-0.5107269 0.9493048 -0.23708548
-0.5143782 1.0858318 0.43783697
0.28359854 0.64807343 0.16955239
0.6747348 0.61797416 -0.3951535
0.56979775 -0.18309852 -0.045054063
-0.6693864 0.31698388 0.15253332
-0.5804156 0.6888023 -0.4537357
-0.29029685 0.66229 -0.033823412
-0.28351605 1.590455 -0.5207153
-0.8249962 1.1646823 -0.2514668
0.19676453 0.7856501 -0.14470017
0.6820635 1.4912682 -0.31205046
-0.9308062 -0.25630224 0.63330364
0.48017842 -0.41453582 0.9039236
0.7263426 1.0782689 -0.13013092
0.16413431 1.3861043 0.16032058
-0.33755577 -0.06577706 -0.07997594
0.02182588 1.2459433 0.75872964
-0.76588243 1.337852 -0.15294574
0.070525944 0.98055965 0.31243837
-0.17979869 0.70600235 -0.5786536
0.07126124 -0.073517546 0.25820756
0.1520237 0.42697963 0.44904017
-0.12618008 -0.41235816 -0.61345303
0.2551056 1.4197528 0.37297565
0.8991811 -0.40733072 -0.48567155
0.19069202 1.3072371 0.5218893
-0.43241978 0.95013344 -0.068345964
0.38391852 1.2647293 0.43328285
-0.16005722 0.3441984 0.37047732
0.13957676 0.37397686 0.12350042
0.4580475 1.2331941 -0.2564647
0.73028517 -0.41844183 0.022835437
0.042748377 0.47978413 0.6015537
0.06102328 1.4659258 0.38835186
-0.26245165 1.2408056 0.28897405
-0.017430447 1.0563302 -0.95867836
-0.2833863 0.59456027 -0.8767223
0.116893366 1.5683892 0.5154071
0.60761344 0.24719793 -0.40535498
0.89550555 -0.4088238 -0.28406218
-0.5742953 -0.41046 -0.31951654
0.0036546704 0.25579995 0.28335893
0.03106693 -0.09084597 -0.91641045
0.5882558 0.95897853 -0.02812697
0.07939914 1.7009728 0.32606134
-0.70387566 0.420655 -0.38989705
-0.18867758 -0.4091334 0.6097332
0.5653739 1.3083568 0.13550259
0.23088513 1.111639 0.40405664
-0.37129256 0.09968863 0.013560794
0.5731772 0.6863125 -0.5674087
0.03321578 0.890373 0.12519938
0.7597936 -0.24192727 -0.73785913
-0.13684496 1.4540472 -0.15186366
-0.32084835 -0.41508144 0.73655677
-0.08864443 -0.41458797 0.7534441
-0.619444 -0.2513994 0.7267719
-0.115495615 0.71710455 -0.77020633
-0.25355583 -0.25729385 -0.9239535
0.72740656 -0.41338766 -0.5799931
-0.59809947 -0.24159509 -0.42479494
0.8110837 0.53065956 0.23509514
-0.1369723 -0.05328399 -0.60944754
0.009130238 1.2276485 -0.6927277
0.7243076 0.44236785 -0.4789245
-0.35100347 1.0878795 0.010453803
-0.14412665 0.75249517 -0.4017254
-0.554276 -0.09147909 -0.91597867
0.2715851 0.92399967 0.38285536
-0.83560544 0.6604059 0.120964006
-0.27353024 -0.22476941 -0.38116622
0.52785635 -0.411051 -0.8982531
0.42306083 -0.23100021 -0.46871907
-0.70124996 -0.41830552 -0.79991853
-0.32091802 -0.251992 0.92180324
0.37637877 -0.41206247 0.21936062
0.031504996 0.66254807 -0.113591164
0.08381584 0.3416833 -0.5530371
0.80632186 1.3452408 -0.06086514
0.6987133 -0.41772985 0.8776445
0.5515436 0.14281371 -0.01038773
-0.5614803 -0.06202817 -0.33802876
0.6738038 0.56663114 -0.20337571
0.5321876 1.616921 -0.27655715
-0.076763436 1.0574989 -0.770432
0.6875434 0.3662625 0.30090585
0.0793076 1.3908813 -0.5953876
0.89526045 -0.40636712 -0.88103735
0.6026306 0.50316286 -0.6581487
-0.75356394 0.50985926 0.23444222
0.45018166 0.8728633 0.33726025
0.5476745 -0.25408626 -0.776505
-0.36040714 -0.08891986 -0.9142356
-0.082646064 0.34853148 -0.8027383
-0.0028148708 0.3490555 0.46516427
-0.2227749 -0.23028618 0.18193623
-0.2427592 1.1924431 -0.16429791
-0.006081889 0.5171149 0.77490634
0.17327163 0.813445 0.24141595
0.34248242 0.37063634 0.407888
-0.9247124 -0.24924612 0.003160715
0.013929562 0.22866747 -0.43507558
0.09833924 1.3984987 0.67195964
-0.82026136 1.1698549 -0.061147206
0.39929187 0.91138726 -0.7093406
-0.0791481 0.745976 0.010993173
-0.61734587 0.74516773 -0.26412457
0.57576925 1.4016819 0.42693222
5.898846E-05 0.145625 0.47094864
-0.5182439 -0.41859573 0.70953965
0.7346159 0.8335552 0.10018385
-0.29330868 1.5249104 -0.29491234
-0.61146176 0.48860607 -0.08276484
-0.16637316 1.1483475 0.00073998136
0.51931655 0.7022303 -0.3227622
0.9033085 -0.087751806 0.3291481
0.24709773 -0.23892556 0.44199657
0.2767139 0.8036026 -0.36954185
-0.5155133 0.4518357 0.53082025
0.1173929 1.7658954 -0.24321093
0.04301813 0.30512053 0.65317273
0.10564312 0.13194439 -0.5904627
0.51716757 1.1619568 -0.053493805
0.353094 0.6824602 0.5721067
0.6194993 -0.2472012 -0.60281616
