0.6264376 1.279156 0.47948265
0.5299684 0.3817588 0.034850128
0.47431335 1.417103 0.22983998
0.74400985 -0.25299197 0.75403684
0.4469179 0.9009669 0.5115284
-0.5444595 0.82854486 0.40294796
0.102231726 0.08739388 -0.3953482
0.69924915 1.0993922 0.5155371
0.25002858 1.6073964 -0.62034595
0.7694129 -0.24903381 0.93154526
0.46043444 -0.08582048 -0.7262579
0.0004888899 -0.40884262 -0.4724212
0.039246816 1.2721431 0.023170441
-0.7191682 0.88102156 -0.14250252
0.31994623 1.2750858 0.22497103
0.09124774 -0.21448468 -0.5306817
0.3878802 0.3237431 0.20317167
-0.32977015 -0.04850915 -0.5764166
0.14911449 0.4985807 -0.42185116
-0.90393937 -0.09535056 0.7303678
0.48217154 1.6196915 0.26967537
-0.6011084 1.3099415 -0.07198672
-0.46563044 -0.25408685 -0.9221344
0.4258104 -0.0833072 0.6406952
0.26310092 0.2420102 -0.6635257
0.8718139 1.218578 -0.2303543
0.8957756 1.0521498 -0.31843603
-0.2651897 0.89160514 -0.035628904
-0.22942716 1.4357109 -0.4709251
0.25929406 0.08682158 -0.25490707
-0.42432347 1.1533437 -0.22955546
-0.735708 0.5947288 -0.46086317
0.013656773 -0.0992717 -0.13321096
-0.73306644 1.354804 0.078742556
-0.7251749 -0.08619679 -0.4250539
0.33040965 0.9595264 -0.54848087
-0.5857296 -0.41038966 -0.108641624
-0.3197212 1.1937631 0.5474014
0.09562567 1.2272527 -0.5184338
-0.25345066 0.6614727 -0.2548905
-0.06475623 1.0824373 -0.5785432
-0.19791126 1.0482843 0.59022015
-0.7488604 -0.08105074 0.2208891
0.24406257 0.40450934 -0.815054
-0.06154063 -0.08366363 -0.7673614
0.76273865 -0.2521476 -0.49077493
-0.5081717 1.0977128 0.64003444
0.5892147 1.2193832 -0.7229079
-0.0979545 -0.2221179 -0.46380544
-0.16031708 0.89422464 -0.81128466
-0.0973005 -0.06555449 0.1781953
-0.7747413 0.95723355 -0.4960609
0.41229755 0.87727845 -0.11510742
0.14720905 1.2546923 -0.13763633
0.22145723 0.7815639 -0.61118853
0.9236418 -0.24962926 0.0141541585
0.06067533 0.46613446 -0.8818164
0.85096216 0.6705605 -0.42444557
0.69201434 1.5331938 -0.1916618
-0.18998225 0.09196547 -0.09627274
-0.406698 1.2819355 0.38955474
-0.11552803 -0.23430079 -0.27215278
0.88918257 1.119654 0.17055026
-0.7175071 -0.42103827 0.77276653
0.38756478 1.1036069 0.73730826
-0.495754 -0.41853607 -0.7269678
-0.72524315 0.77506006 -0.54263043
0.20999639 0.24153596 0.15940031
0.35980502 0.73450565 0.75700474
-0.56472075 -0.090005964 0.5281024
0.74334335 -0.08843888 -0.5826036
0.84366 1.0124072 -0.48432922
-0.14121215 1.3798282 -0.6350887
0.35360295 0.117464766 -0.049840204
-0.020936754 -0.4120921 -0.75978416
0.7270374 -0.41892585 0.6458813
-0.12871812 0.53238285 -0.88986874
-0.45891175 0.57598156 -0.53640103
0.045916446 0.82722855 0.3656396
0.57616365 -0.043103784 0.111865595
0.20143388 -0.41189337 0.28398514
-0.35048938 -0.4105022 -0.58950686
-0.33049244 1.1595933 0.7230737
0.0971059 1.2064528 -0.94026345
-0.8912202 -0.099221066 -0.9116912
-0.73042446 0.90304327 0.40683755
0.08110879 -0.42598647 -0.25496003
0.42418736 1.018299 0.028473044
0.55441535 0.26793748 0.3066327
-0.063508265 -0.056998022 0.5562241
0.0950965 1.5887709 -0.34485388
0.13790011 1.0479043 -0.1964238
-0.75981367 -0.24647799 0.31883264
-0.50789 1.6137336 0.12517343
0.4334856 1.0566174 -0.1894691
-0.43600038 0.3440358 0.46280372
-0.8623734 -0.08148645 0.022590969
-0.4869945 0.6564574 -0.08262412
0.7534975 0.9624999 -0.6298568
-0.21695852 1.2131708 -0.70154583
-0.19039704 1.5137357 0.5501381
-0.35795718 1.7178556 0.018328805
0.5605694 0.6802139 -0.79393315
0.34415373 1.5327723 0.1807614
0.6888629 0.8106834 -0.70876515
-0.39591575 -0.066611305 0.40924364
-0.61406195 -0.09182911 0.9141786
0.413059 -0.062068354 0.42764282
0.5913286 -0.26774323 0.89831346
0.92242295 -0.24846673 -0.38860708
-0.8944653 -0.40736067 0.105072066
0.77311665 0.91032535 -0.15240505
0.91984963 -0.24914515 -0.1862976
0.55731535 0.36798814 -0.57888234
-0.5313851 -0.4227056 0.48218325
-0.09684066 0.11974421 -0.31564537
-0.71083784 -0.41734684 0.39914578
-0.06078234 0.419174 0.13250436
-0.32907456 0.8935356 -0.5156617
-0.8740337 1.0088146 -0.09744498
0.004876811 -0.4106544 0.57010764
0.18767825 0.24369429 -0.053642146
-0.68789715 -0.07598598 -0.036840513
-0.71260023 -0.4184128 -0.6226202
0.044618048 0.64931095 -0.7640003
-0.8961612 -0.40697724 0.71787703
-0.9034995 -0.09319815 -0.5271027
-0.60173535 -0.23391514 -0.20840171
-0.34885788 0.7993715 -0.89924014
0.42692822 -0.25523156 -0.92163813
-0.5569364 1.3997424 0.39915526
-0.0050088456 -0.41041332 0.36726108
-0.1622831 0.62688005 0.7627467
0.33263522 0.9347379 -0.9309364
0.3896197 1.2897779 -0.631197
-0.5133223 1.3297553 -0.26662004
-0.51927006 -0.24595098 0.9109215
-0.4535563 -0.21537656 0.0920326
0.640712 0.83398044 -0.4774115
0.025838139 1.4022455 0.19891073
0.021007225 0.24499558 0.09680998
0.18251422 0.12583093 0.34809035
-0.25520432 -0.41990727 -0.7487002
0.39153987 -0.2661996 0.92111814
-0.21343552 1.3456292 0.46174878
0.377869 -0.047752973 -0.5483823
-0.16441256 0.90977454 -0.611338
0.8851922 0.60113084 -0.013325857
-0.46015853 1.364012 0.226015
0.38131234 -0.07530395 0.8703674
-0.005676 0.7412633 0.8187844
0.27673364 1.2788734 -0.4174742
0.3167 1.7317603 0.18465048
-0.3535539 -0.25954872 -0.76593554
0.7388707 -0.0822045 0.2209173
0.3048075 0.95446956 -0.25841662
0.46326518 0.90586454 0.7274003
-0.46179885 1.5553162 0.3161165
0.5495968 -0.41709107 0.12670347
-0.6673093 1.0678296 0.46237725
-0.099275656 1.0998151 0.35969695
-0.041338675 -0.22951725 -0.6343969
-0.53815913 -0.083881184 0.73411024
0.78383964 1.3694067 -0.3351449
0.22540548 0.60289204 -0.08228652
0.9377646 1.0075631 -0.14523366
0.5883075 0.42538124 -0.17061186
0.5835451 1.3561091 -0.39902076
-0.10624972 1.5724455 -0.3439469
0.42380708 0.23925272 -0.55558515
-0.09565398 -0.41691598 -0.14544958
-0.73933744 -0.4155876 -0.21313782
-0.27024052 -0.4127496 -0.0728357
-0.21971709 0.4797011 0.23958094
0.90340614 -0.089269586 -0.8959142
-0.368998 -0.41249716 -0.89960027
0.12614426 -0.24125499 0.31705907
-0.89620423 -0.09340936 -0.33101636
0.004713175 0.78433585 -0.27423686
-0.09873809 0.44278455 0.69148505
-0.62163794 0.67514586 0.091782525
0.016593028 1.8124492 -0.074980766
-0.10259585 1.2582102 -0.49494675
0.9264735 -0.2488974 0.22783816
0.15551075 -0.408433 0.45353186
-0.031520385 -0.25794697 -0.9131093
-0.9154482 -0.26067144 -0.8710077
-0.17339975 -0.4082052 0.250359
-0.6261162 0.58764315 0.45497638
0.03137651 0.85394144 -0.8315327
-0.2631305 1.1648045 -0.8952488
0.73125875 0.7676924 -0.2970827
-0.29076612 0.11985281 -0.33436877
0.64768136 1.2954929 -0.22376525
0.44122827 -0.24135523 0.7537916
0.025207685 1.3429942 0.5109936
-0.43224958 1.4625847 -0.6208204
-0.111650586 -0.2488431 -0.079864874
0.79867905 0.8996827 0.4228899
-0.18619066 0.103254765 0.14625359
-0.18275136 -0.4152335 0.43590665
0.256045 -0.06048453 0.52783865
-0.26526976 1.0270072 -0.18539616
-0.29790694 1.2326443 -0.38201612
-0.4973365 1.2386823 -0.43446007
-0.34107873 0.96242994 0.7427404
0.4204714 0.5756062 0.6687116
-0.5494463 -0.08228998 -0.54921114
0.082979366 -0.052848447 -0.677112
0.23667139 0.92652166 -0.010961785
-0.7771508 1.1022662 0.31518665
0.39064008 0.7366059 -0.7149565
-0.6277384 0.7560129 0.5372235
-0.44899 0.9604659 -0.6606308
-0.05899073 0.9568789 0.4708917
0.05164668 -0.27033216 -0.19063553
-0.7633177 -0.2456709 -0.10412115
-0.034229912 1.4939504 -0.49518806
-0.28996235 0.86792463 -0.2990125
0.32002658 1.0288699 0.572996
-0.2569558 -0.22676356 0.36834595
-0.43674964 0.40081394 0.18828648
-0.5065546 1.0041409 0.11536309
0.31929034 0.1071201 0.14965296
-0.10398416 1.2674043 0.13904478
-0.8976869 -0.40611935 -0.10494733
-0.5778849 -0.40607974 -0.9144117
0.6020037 0.5844351 0.5441394
0.082365535 1.084595 -0.8053942
0.22443157 1.334586 -0.8751087
0.41575143 1.2633731 -0.8207575
0.072034985 1.2279058 -0.30871108
0.38802224 -0.065310344 -0.18464513
-0.5248327 -0.41266805 0.28436378
0.100350335 -0.030231304 0.45443064
0.12651989 0.08475913 0.14785796
0.91310805 0.85089755 -0.31570017
0.7347089 0.34828648 -0.28730518
0.73608696 -0.08659765 -0.90072745
-0.41527486 -0.23200351 -0.47587812
0.19885784 1.7951746 -0.11232807
0.10409724 -0.24188799 -0.03474289
-0.21661896 -0.40408203 -0.45652223
0.46493673 0.54408085 -0.29397056
0.42324305 1.0893041 0.2396629
0.3346599 -0.4152146 -0.5785244
-0.2649526 0.2579578 -0.6488608
-0.5130821 1.6363881 -0.08019875
0.42049283 -0.41145438 0.6110938
0.51075697 1.6738387 -0.15096298
-0.07517928 -0.052747726 0.37617898
0.40523064 0.7683203 -0.51866424
-0.33143008 1.7369955 -0.1855081
0.23316373 -0.3993426 0.9114162
-0.20117453 -0.046213433 -0.4225393
-0.016096031 0.107125714 0.26921046
0.16852258 0.60570234 -0.5772495
0.41122782 1.0912457 -0.41014332
-0.6315396 1.2055552 -0.23869842
-0.27744976 -0.23186249 -0.17748094
0.8305995 1.2082317 -0.4371894
0.5419773 -0.41006616 -0.49026448
-0.3824186 0.7916888 0.28252342
0.13856313 0.9182646 -0.518515
-0.39150056 -0.22034301 0.24630345
-0.44510627 -0.02090444 0.21333256
-0.18799701 0.9934888 -0.40885472
0.89345235 -0.09566483 0.90761364
-0.03501784 0.43427145 -0.3990699
0.928519 -0.25073534 0.85727954
0.08559078 1.3840215 -0.4060375
0.2076524 -0.412182 0.09567261
-0.051995665 0.9164528 0.673751
0.3604457 1.7534032 -0.051764153
0.27794665 0.119142145 -0.48766378
0.680346 1.1724888 -0.3830987
-0.44923013 0.65161955 -0.2773891
0.46451312 1.3875557 0.5615461
0.72788453 -0.4168526 0.42633402
-0.56922203 1.0640122 -0.7536913
0.5440872 -0.043911263 -0.31975183
-0.53176904 0.85172236 -0.79761285
0.7216174 -0.4169618 -0.3861082
-0.8970649 -0.09460037 -0.14239854
0.8264836 0.4664632 -0.14763653
-0.86713123 -0.094526835 0.91133463
-0.84667397 1.0253615 0.10575194
-0.15338928 0.7967107 -0.16242799
0.3383503 0.49265137 0.07351026
-0.16556725 0.25636697 0.017170649
0.3250987 1.5715486 -0.3170635
0.28905743 -0.23192355 0.2111015
0.15166333 0.7552295 0.03770847
-0.11159081 0.7606921 0.47409892
-0.11043507 -0.26011842 0.9161804
0.5260995 0.8696716 -0.84194726
0.7248513 1.1567674 -0.60337806
-0.100170776 1.466708 0.3632515
0.2312265 1.240413 0.043886118
-0.14222777 1.2251182 0.7540816
0.29307127 1.1065388 -0.072950915
-0.13990095 0.54804784 -0.69581366
-0.49659342 0.17020214 -0.29283592
-0.7359611 -0.4141489 0.0021640807
0.16947776 1.1830913 0.59515625
0.7231122 -0.08024192 -0.19466284
0.7296647 -0.075956166 0.010350973
0.49114326 1.4575591 -0.26228142
0.70123065 -0.41606566 -0.7598532
0.35980144 0.7258455 -0.021078657
0.25521147 1.3997684 -0.26826528
0.60640454 0.21362624 -0.23556969
-0.45711014 -0.08410908 -0.7377007
0.66098356 0.27537686 0.12686065
0.31268525 0.62424666 -0.42970443
0.699057 1.3495281 -0.5386178
-0.4729405 1.4350077 0.03020385
-0.75671214 -0.25121605 -0.31807795
-0.42205733 -0.40674716 -0.19806579
0.83953667 0.7250915 0.30751374
0.36645508 1.3082063 -0.1262896
0.1737498 0.80180013 -0.9745965
-0.7691443 -0.2550549 -0.5232862
-0.34271023 1.2938564 -0.5769071
0.25121993 -0.40367714 -0.28425312
-0.58185434 0.5024239 0.14997573
-0.6637089 0.90251887 -0.3495506
0.47741932 1.0987854 0.44439077
0.10223214 -0.23308009 -0.7556964
0.25601512 -0.053952463 0.32132924
-0.093157545 0.937171 0.24034682
-0.55789405 0.8465655 -0.042590022
-0.8908714 -0.4118292 0.3192653
-0.8571012 -0.40524966 0.9048691
-0.7041851 1.302557 0.28702956
0.34025663 -0.4173773 0.77164876
0.72602904 0.73126566 0.48662817
-0.5733528 -0.25155467 -0.7866472
0.23988509 -0.23130924 -0.2034542
-0.89358145 -0.40541315 -0.73174626
-0.4314005 1.1815267 -0.7980172
-0.16345134 0.7806398 0.29814935
0.6305453 1.5999961 -0.025873141
0.5715624 1.0720689 -0.28402793
-0.5990132 -0.23596352 -0.0066680494
0.76193297 1.0557529 0.013562484
-0.89491045 -0.40923744 -0.32316872
0.82812667 0.8212879 -0.52179396
0.37613016 0.15426415 0.33856583
-0.6472826 1.504965 0.00010879299
-0.7245928 -0.41433188 0.2075314
-0.3331204 0.74446976 0.7356178
-0.7439912 -0.08671509 -0.6066179
-0.21179795 -0.41165876 0.8988262
-0.6320549 1.2360538 0.47344765
0.90723 1.1723472 -0.040832993
-0.7490707 -0.24047995 0.10652881
0.05811692 0.48689747 0.2852804
-0.46165955 1.4655403 -0.17333046
-0.49801463 0.4118266 -0.19974276
0.23130655 0.58303034 -0.7443893
0.20587358 0.7661879 -0.79726803
0.28032538 1.1353884 -0.9270285
-0.54056436 -0.41376156 -0.5247172
-0.38130543 0.9844625 0.5372447
-0.24805717 -0.030373417 0.30060816
-0.90140796 -0.09587711 0.3470277
0.09311949 -0.08327758 0.6628472
-0.44493628 -0.21673733 -0.10051617
-0.6765629 1.2510364 -0.5093035
0.50464356 0.6004267 0.05433503
0.4127494 -0.044522893 0.015085714
0.22745013 0.23937556 0.5093988
0.7815754 -0.24372819 0.11996473
0.53782594 0.6797904 -0.14267403
0.18938038 -0.080682054 -0.88508296
-0.39631015 1.2885367 -0.07817936
0.59567356 -0.2415913 0.42060435
0.35967594 0.7445825 0.33750445
0.48453653 1.5197842 0.039342638
0.11536051 -0.2441527 0.14565676
0.7045399 1.2419133 -0.037945844
0.58224046 1.1193556 0.09322092
0.020449858 0.92328703 -0.6740422
0.012846287 0.73485297 0.20187956
-0.3968457 -0.41042608 -0.3943914
-0.72036827 -0.08733958 0.6250849
0.54256976 -0.4118989 0.32718936
-0.897161 -0.09315522 0.5382948
-0.6167289 1.4620072 0.20129287
0.020485695 -0.41381145 0.18051037
-0.65952635 0.8899334 -0.6710452
0.75593984 -0.25136366 -0.28834254
0.46320224 0.582829 0.39234412
0.053194754 0.92143774 0.8393724
-0.91897494 -0.2679568 0.21925911
-0.2202731 -0.092207104 0.89857996
0.13465187 1.0751232 -0.6164087
-0.8493695 -0.40647548 -0.9133007
0.36244223 0.71631444 -0.23658404
0.29754323 0.5212539 0.26701444
-0.5655035 -0.40791446 0.103330925
0.50995684 0.55727583 -0.4924943
0.20060433 1.6114241 -0.1754389
-0.38546258 1.0412388 -0.3846252
-0.9248066 -0.24760723 -0.64348364
0.89790016 -0.08859557 -0.28959328
0.6702692 0.5427005 -0.04586958
-0.6878153 1.0505456 -0.19872048
-0.25015342 0.92840624 0.38332877
0.29157686 0.58220947 0.49487498
-0.47336587 1.2959996 0.5879657
-0.020476783 -0.077871546 -0.334585
0.55635834 0.7992276 0.011065073
-0.51492447 1.2484092 0.09745998
0.17317432 0.65771806 0.31728396
-0.7241455 -0.41720104 -0.42500675
0.38828504 -0.41096354 -0.39386737
-0.08156174 -0.083915114 0.7487252
0.20680016 1.1300328 0.78907776
-0.49197727 -0.012068009 0.014974549
0.5395031 -0.42033678 -0.6703331
-0.40301955 -0.086798705 0.61150086
-0.008033256 1.4533525 -0.0022231238
-0.66643465 0.32502323 -0.009373649
-0.43191975 -0.40446505 -0.008589435
0.23848557 0.42264798 -0.6102048
-0.6374997 0.3067884 -0.21654648
-0.13438678 1.6408252 -0.5651456
0.49968973 0.47445452 0.22987735
0.57688046 0.862987 -0.21842873
-0.059627622 -0.24722281 0.09016982
0.5820526 -0.08563393 0.53309786
0.1738362 0.7486127 0.80574334
-0.69085467 -0.41262284 0.59715754
-0.17005756 0.8354793 0.8020331
0.51918745 1.2275863 -0.50746256
-0.8895096 -0.0888989 -0.7345118
0.933781 0.9585985 0.04382457
-0.57092315 1.1736075 0.28475314
0.17937967 1.261077 -0.72226477
-0.08361117 -0.4078928 -0.32962322
-0.29069 1.0374422 -0.7199918
-0.25409782 1.5104138 -0.6911458
0.6244515 0.9453623 0.4135428
-0.40562308 -0.028432146 -0.42475557
0.2538178 -0.16372567 0.92625695
-0.76680195 -0.24284177 -0.7416947
0.71914303 1.1976337 0.17337766
-0.45406204 1.1207374 -0.5774287
-0.31876016 0.9490911 0.17038639
-0.3025263 1.4452015 0.30429187
-0.29458806 0.41678897 -0.77870643
0.09274903 0.7215221 -0.43893164
0.13916302 0.9868377 0.68025714
-0.58534664 1.0813357 -0.38896984
-0.001948423 1.5316024 0.5658041
-0.1911283 1.5923978 0.22456795
0.05016896 0.36655992 -0.061532192
-0.10182799 1.7874409 -0.25561592
-0.058487494 1.2969892 -0.14788394
0.04898076 0.5061754 -0.2014149
0.05425868 -0.082869634 0.051098872
-0.48027778 0.8561225 0.6645164
0.2762937 0.8567655 0.63040525
0.7257725 -0.41662973 0.22408253
0.4326023 -0.23452377 0.07661067
-0.84775126 0.6339897 -0.045790084
-0.47240052 0.3836062 0.005682885
0.23719323 0.41897395 -0.08920196
0.094995916 1.0832729 0.0033846642
-0.4089489 -0.08456072 0.8835392
0.28071833 1.1764657 -0.2588525
-0.35024792 1.6849033 0.22315735
-0.48208237 0.68230426 -0.7939321
-0.19448549 0.4534166 -0.25947958
-0.924355 -0.2553002 0.8705971
-0.25720233 0.6600343 0.5725093
0.3602391 -0.41479376 0.4251005
-0.20993412 1.0940846 0.18165858
0.038112294 -0.41483483 -0.019382909
0.42366788 0.27768266 0.4779151
-0.42414623 0.7916173 0.08495919
0.18737349 -0.4103253 -0.45237017
-0.4155297 0.52554125 0.31139398
0.18910739 1.435129 -0.06508146
0.06038408 0.6384616 0.45763078
0.8960184 0.6540978 -0.21875101
0.22302267 -0.07464995 -0.09489711
0.71050835 0.30070162 -0.07828042
0.19911881 0.94544077 -0.7619617
0.413924 0.37937325 -0.7080735
0.14382628 0.9863493 0.4873988
-0.15172288 -0.41325104 0.06401822
-0.17376718 -0.05392924 -0.21580496
-0.4798441 0.66048336 0.6353954
-0.5470234 1.2781304 -0.67113984
0.89927745 -0.40845412 0.122322574
0.8363641 1.3013034 0.092428505
0.5611888 -0.41355908 0.7385075
0.028368033 1.3900297 -0.8514776
-0.24418186 -0.22827417 -0.58701134
0.5509068 1.256289 0.26827252
0.89637625 -0.40903473 0.53189343
0.27386934 1.6012857 0.02075947
0.35797122 -0.08775091 -0.9057144
-0.0875196 1.2347163 -0.90716016
0.13394189 -0.07522127 0.8676996
0.0029807033 1.6331037 -0.16201216
-0.20578189 1.7640541 0.12045869
0.2950461 1.652134 0.37039357
0.63226616 1.5514295 0.17359465
-0.5562308 0.9367181 -0.50762707
-0.2608855 -0.085946515 -0.7498694
0.7194208 -0.08389495 0.8753505
-0.7240153 -0.08236671 -0.22599512
-0.4438064 -0.2343779 -0.63255584
-0.47428995 1.6395793 -0.26768
0.6286029 1.0224885 -0.7506303
-0.58615077 0.8300048 0.21530038
-0.32257378 0.83072186 -0.71725225
0.38061494 0.57121253 -0.6230482
-0.048728455 0.6861067 0.6372669
-0.29590327 0.49034548 -0.60162556
0.44934028 0.12989728 -0.20803499
0.90771925 0.7510798 0.11142661
-0.35045177 -0.4115597 0.34814358
-0.35662818 1.3475101 -0.7723551
0.2736272 0.9353026 0.80812013
0.7374331 -0.08515178 0.4282863
0.37724447 1.5310309 -0.12817991
-0.92333305 -0.25508943 -0.4254183
0.4484195 1.5263894 0.42789972
-0.1003166 0.28113747 0.56681824
-0.88144374 -0.41218334 0.52227134
0.52351046 0.8962515 -0.6217916
0.55429184 0.75522506 0.42233163
-0.28848052 0.22481547 0.4488557
0.5506414 0.7449293 0.65029514
-0.15307519 -0.25376672 -0.76369864
-0.7098876 -0.26252443 -0.92599094
0.42185783 1.2142115 0.07304582
-0.08870192 -0.23018628 0.6244443
-0.16466543 -0.09266673 -0.91682124
-0.8215606 0.87847173 0.23443739
0.13784857 0.3719362 -0.27995753
0.57614636 -0.08906301 0.7459979
0.0019401339 0.75250256 -0.61342174
0.17156631 1.7843277 0.0836112
0.23394029 -0.41672063 0.60267556
-0.45213687 0.34834877 -0.6154406
-0.261862 0.4800176 0.048625574
-0.5911677 1.5003352 -0.35464275
0.04082665 -0.21702495 0.46192586
-0.5960829 0.9463938 0.55921924
-0.73720026 0.7219375 0.3443308
0.7472683 -0.24943957 -0.085512355
-0.25832623 1.1080432 -0.53687
-0.020750323 1.1000566 0.15841627
0.72355545 -0.08444851 -0.39104876
-0.67412674 1.0930545 -0.6007236
-0.7649755 0.4941395 0.07052246
0.56680536 -0.062310655 0.31855577
0.2394118 1.3862089 -0.5846717
-0.11014086 1.3614781 -0.32965922
-0.2637924 1.6135331 0.3985257
0.40381485 1.4200983 -0.4453581
-0.46643925 0.9767028 0.32985884
0.3606701 0.2875811 0.026150191
-0.15065747 0.26655054 0.22923714
-0.36853522 0.80663514 0.4945675
-0.052016173 0.61313546 -0.31704915
0.31153393 -0.23405367 -0.77712417
-0.08309269 0.59711504 0.32397154
0.62046254 -0.25799417 0.072014794
0.64545935 -0.24273223 0.24820134
-0.40584707 1.4083793 -0.40651447
-0.1713447 1.3773582 -0.8296226
0.10168424 -0.4065694 -0.6171326
-0.17221168 0.7333827 -0.949093
0.64439976 -0.2450298 -0.9172209
-0.58690774 0.42496526 0.36634338
-0.5886086 -0.2491527 0.23210168
0.56800944 -0.4141696 0.5195677
-0.12061545 0.984239 0.0075315954
0.29956543 1.1097205 -0.7428813
0.07271412 0.8205898 0.5908927
-0.65781677 0.9986189 0.23431265
-0.109418884 0.5282469 0.519026
0.89699364 -0.091157705 0.7337043
-0.57956696 1.4094543 -0.51292664
-0.5766415 -0.08996648 0.3325395
0.4474753 0.13724273 -0.39269215
0.35536194 1.2063411 0.55023915
0.2977186 1.309329 0.69479346
0.7282803 0.9924386 0.2056957
-0.13048162 0.59354794 -0.10975793
-0.1034493 0.60718966 0.11171111
-0.6176297 -0.25705257 0.43869984
0.17292258 0.6474458 -0.27995056
0.91860855 -0.25100142 0.64554584
0.13894857 0.998355 -0.9779178
0.41841507 -0.23584875 -0.29150927
-0.5152669 0.20335412 0.11475488
-0.5033839 -0.26295388 0.59002066
-0.28817922 0.48757464 0.45324343
0.9256679 -0.24992405 0.44072485
0.5913135 -0.25274742 0.6430686
-0.54022694 1.1262312 -0.069194555
0.5663526 0.9335152 0.14073473
0.8903583 0.90851915 0.23627892
0.21989515 0.32562774 0.32349458
-0.35395473 0.5131134 -0.3414215
-0.75583 -0.25180992 0.5425699
0.20340702 1.7283887 -0.4395328
-0.011937583 1.5931897 0.18940969
0.5441391 -0.08741295 -0.9082709
0.2919996 0.3929141 0.618557
0.09524804 -0.25583512 0.92325664
0.6512368 -0.08322584 -0.7333518
0.015826939 1.0699129 -0.3973419
-0.035572186 0.07634371 0.02664575
0.4716639 1.076158 -0.8568692
0.16486461 -0.07978812 -0.29443806
-0.7890285 -0.25279212 0.7346496
-0.7367164 -0.08447493 0.42965746
0.5573118 1.0413499 0.6415751
0.21005681 1.0672969 -0.40556043
0.11983597 1.1996655 0.20744103
-0.31128833 0.52916914 0.67373204
0.58383656 -0.22623274 -0.21037042
-0.1598291 1.0305297 0.8005211
0.81771916 1.0754144 0.35252577
-0.5408671 0.6561171 0.26976556
-0.1875161 1.6451744 -0.1723865
-0.6185192 -0.40414184 0.9039921
0.25617814 -0.22878164 -0.4056106
-0.55253506 0.30395398 -0.42775047
-0.4487513 1.5834067 -0.44618332
0.77983326 -0.25118113 0.34070206
0.91674364 -0.24354278 -0.5946293
-0.15104018 -0.08127844 -0.008576825
0.06934018 1.1593213 0.4301045
0.35329187 -0.05125777 -0.36837953
0.65788364 0.89108974 0.58975005
0.55876315 1.4038985 -0.093179904
-0.6791285 1.0134526 -0.008046441
-0.40549868 0.99448586 -0.8747555
0.8969389 -0.4084807 -0.08371013
0.74436575 0.55479383 0.39291143
-0.12546776 0.38352337 -0.57899475
-0.31018263 0.33956075 0.31704986
-0.34433118 0.38398248 -0.47101024
0.0759281 -0.25134927 -0.36043143
0.7368375 0.6455488 -0.611652
-0.48497227 0.7715001 -0.5930735
-0.006246754 1.109818 0.6186849
-0.6591222 1.157836 0.10164653
0.26315913 -0.06853029 -0.6962805
-0.89354426 -0.4075536 -0.5325827
0.046479482 0.4726532 -0.6917056
-0.21889654 0.85445434 0.6056334
-0.024095185 0.57858294 -0.52997094
0.8912723 -0.40863425 0.731992
0.2405375 -0.07061525 0.10871426
-0.1985694 0.54849994 -0.44786423
0.059276223 1.4417174 -0.21524376
-0.44064373 -0.2287209 -0.2930466
0.90029645 -0.08961895 0.5350188
0.8858533 -0.4017223 0.90515316
-0.03791008 1.1075301 -0.149147
-0.4451269 0.6492394 0.44755882
0.5644245 1.5268672 -0.5081409
0.30355826 -0.4044709 -0.9140465
-0.29557404 1.3682631 -0.23585185
-0.48840955 0.2564327 0.30121765
-0.34403965 0.7002269 -0.44828606
-0.14316076 -0.41034618 -0.9072741
-0.15688509 1.4335821 0.15546107
0.49959445 0.71333814 0.20350116
0.30461803 1.505199 0.55220926
-0.3652727 -0.41288716 0.5464183
0.5964349 0.4443466 -0.36933976
0.20430866 -0.41128162 -0.7518868
-0.13991773 1.6048939 0.017955892
-0.5315929 -0.032757957 -0.16032188
0.54144216 -0.103041664 0.9164064
0.7985018 0.41979516 0.055237994
0.56575656 -0.002445003 -0.11851053
-0.20918556 -0.2561187 0.75724447
-0.03560736 0.8684597 -0.985811
0.11690452 -0.41885892 0.74496454
0.2714783 -0.23816478 0.009456135
-0.34848386 -0.40843412 0.15108311
0.29714727 0.26398957 -0.23160772
0.020509059 0.66763246 -0.95321155
0.24748026 -0.24195048 -0.60085565
-0.08153464 1.3897618 0.672194
-0.04606545 1.6479634 0.42529097
-0.23051015 0.96351373 -0.9566066
-0.4440214 -0.24827024 0.41362238
-0.17107514 1.7931366 -0.058342934
-0.1249649 -0.24377099 0.4632774
-0.33129442 0.6524069 -0.6773376
0.13555999 0.59152967 0.13490117
0.22318307 -0.25980747 0.77375484
0.9327547 -0.24748114 -0.7821446
0.43184227 -0.24780354 -0.6320002
-0.283379 -0.24387333 0.01874113
0.2940039 1.1612961 -0.55666566
0.7215576 -0.40016377 -0.9171454
-0.7163467 1.3409784 -0.33890885
0.08097419 1.6221529 0.01092585
-0.31077385 0.30070853 0.119612396
0.1516603 1.50562 -0.75549465
-0.91941804 -0.25959092 0.4287246
0.446477 -0.24172994 0.52049875
0.40190893 -0.24002594 0.35034323
-0.9119439 -0.10482639 0.16816673
-0.4722818 0.5082786 -0.72343683
0.50383395 0.15271157 0.15493667
0.4419086 0.328686 -0.33592558
-0.30534965 -0.056450367 0.10975703
-0.0075866836 -0.021365661 -0.50746477
0.7347119 0.72812074 -0.09399543
-0.40578008 -0.24125065 0.74807715
-0.20711797 0.24945419 -0.20246962
-0.06150019 -0.23481685 0.2827012
-0.21242934 1.3774848 -0.026381766
-0.39227098 0.80036557 -0.15880033
0.80715173 0.51114655 -0.34519303
0.9037145 -0.08772365 -0.49164218
-0.28237796 1.1082417 0.38785508
0.18659851 0.6803628 0.6263691
-0.28050274 1.3530408 0.65403473
0.59996426 0.41497833 0.42538676
0.29403633 0.479523 -0.2704733
-0.6295655 0.65644294 -0.6589911
-0.17301396 0.12961024 -0.5189866
0.38426876 -0.41483477 0.014709922
0.08603382 -0.40642342 -0.9077045
-0.13662747 1.1559087 -0.32039094
-0.69666076 0.69036806 -0.081443705
0.46913812 0.44476682 0.5630443
0.010878637 -0.41119674 0.90395665
0.015332347 1.1062546 0.8125622
0.48207116 1.6901152 0.077756435
0.41317415 -0.044359498 0.22053066
-0.39511457 1.140559 0.22385684
0.08920948 0.2913552 -0.7555754
-0.42800206 0.58208805 0.087568045
-0.19406453 0.8117308 0.12366684
-0.022218047 0.20696346 -0.10931397
0.26602978 -0.08780801 0.727236
-0.8722867 0.8342818 0.019904926
0.5214884 1.2162147 0.6243479
-0.70435953 0.8517777 0.077760585
-0.017398944 1.7923522 0.11452724
-0.7321999 -0.085966535 -0.8989922
0.40056896 -0.41458744 -0.18225616
-0.046339836 0.32549238 -0.2503494
0.12727103 -0.24797964 0.602401
0.8979727 -0.08937535 -0.08792197
0.8859751 -0.08240892 -0.70575273
0.55629027 -0.41081393 -0.28643358
-0.120888636 1.2182553 0.53758633
-0.46545112 0.84064806 -0.36757773
0.37206024 0.86949277 0.13725153
-0.29569376 -0.23984796 0.56631184
-0.36887383 0.3158378 -0.29341573
-0.37884557 0.19192815 -0.4877029
0.40755588 0.5465472 -0.82715386
-0.6146854 0.46634805 -0.55922645
0.635522 0.6165285 0.29158103
-0.64526856 1.5065671 -0.1895794
-0.04796096 1.2781513 0.32998782
-0.60577977 -0.081422895 0.13121584
-0.72879684 -0.08277317 0.7999542
0.49477664 -0.22509408 0.22188011
0.033418775 0.054734517 -0.18951245
0.23511031 0.28873265 -0.43284744
0.21500918 0.5978232 -0.9258577
-0.053201407 1.5373769 -0.73077667
0.7654174 1.259232 0.34363472
0.37070072 0.42868048 -0.47514874
-0.36122233 -0.051971283 -0.2594548
-0.8129035 1.2077177 0.16010737
0.22416514 0.7991949 0.4531254
-0.06829549 0.20316334 -0.65796083
-0.3755799 0.12670462 -0.1555146
-0.8092354 0.7753017 -0.3708803
-0.5247041 0.48615783 -0.38982934
-0.3847195 1.4622897 0.49827388
-0.13586831 0.41294384 -0.07676421
-0.110388264 1.7374581 0.28389776
-0.9215 -0.25784177 -0.21646523
0.56032217 -0.39926246 -0.0759659
-0.8501155 0.9685522 -0.29833305
0.85520315 -0.25017413 -0.9275868
0.46877447 1.0882574 -0.64006907
-0.19201717 0.29635137 -0.41157424
-0.34760165 0.5178559 -0.12804076
-0.2885639 0.65133417 0.18633963
-0.08818364 0.9549017 -0.24697143
0.1144757 0.20596278 -0.2552297
0.6154052 1.0975237 0.31481642
0.7519763 -0.25219628 0.54151535
0.89297366 -0.40846446 -0.6856865
-0.034448933 0.8905478 -0.46344066
-0.33838105 0.31420982 -0.09048944
0.33794224 1.4384031 -0.75398463
0.40912747 -0.24179685 -0.10650607
0.38988087 1.6592357 -0.4645496
-0.14111072 0.14636558 0.40277365
-0.23172927 -0.060574107 0.4991509
0.21634474 -0.40930653 -0.09932291
0.15840375 0.08054588 -0.04477817
0.7042241 0.6853813 0.10568472
0.33821094 1.7562792 -0.27011132
-0.86613524 0.7924238 -0.18025589
-0.030110946 -0.09665614 0.9107903
0.93509066 0.8017018 -0.095061526
0.040492564 0.5411138 -0.0037096315
-0.2621445 -0.08499594 0.70861065
0.441449 0.32574287 -0.13695171
-0.32236087 1.5396485 -0.082659185
0.41704497 0.5256511 -0.105878875
0.19382522 -0.24901941 -0.9240815
0.11416093 0.9088143 -0.31836587
-0.25271994 1.7145088 -0.38053375
0.55591804 -0.07830344 -0.52429485
-0.31310457 1.2938648 0.109445795
0.410418 1.5274111 -0.6111001
0.59919643 1.0314616 -0.49896616
0.90293574 -0.088127345 0.11849276
0.67832637 0.8133466 0.25967154
0.6508406 0.49848372 0.13157687
-0.2684741 0.36821955 0.58751273
0.21123949 1.5143925 -0.46528476
-0.42201614 -0.40848508 0.89432883
0.15248859 1.3197505 0.3331273
-0.731141 -0.24939737 0.9191647
0.3755111 0.73506796 -0.9076067
0.592264 -0.23918039 -0.39909813
0.71828365 0.95757794 -0.3467681
0.53831303 1.3921213 -0.656231
0.3655004 1.3914876 0.04247538
-0.80479026 0.6117615 -0.26325846
-0.76079345 0.4637038 -0.13903555
0.39179206 -0.41128072 -0.7597939
-0.61935455 0.5705004 -0.24273795
0.7272957 1.4011643 0.22409531
0.72279847 -0.41593564 -0.18267727
0.7434573 1.4678307 0.023032706
0.73708564 -0.0845055 0.64739066
-0.6160306 -0.25618297 -0.61293656
0.038604498 0.90421987 -0.097596034
-0.25363076 -0.40709704 -0.26784945
-0.3400815 0.14380303 0.26824602
0.19072825 -0.05548764 -0.5030757
0.23756969 0.5394394 0.73404133
0.07042525 1.6386611 -0.5905986
0.46569946 0.90895 -0.37773234
-0.64623535 -0.08271541 -0.73941517
0.16899441 1.5915926 0.20109394
-0.53824395 0.1956026 -0.08554268
0.3087443 -0.24382678 0.61539114
-0.020191062 1.7340968 -0.43012142
-0.26297146 0.6548284 0.38115966
-0.32949618 1.5171454 0.11123635
0.8994528 -0.4090572 0.32677346
0.24868163 1.0530326 0.15544635
0.021645568 -0.24507083 0.7634009
-0.7735461 1.129128 -0.40369868
-0.50766546 0.96525526 -0.22237915
-0.48047847 1.1167703 0.44843817
0.3125788 0.6751144 0.15129112
0.6672634 0.63708305 -0.43281704
0.56434214 -0.16630009 -0.051293977
-0.64533275 0.34836364 0.18647012
-0.58602476 0.69748247 -0.4282531
-0.2769273 0.68533945 -0.02384105
-0.30405813 1.6040205 -0.5328494
-0.82481813 1.1785588 -0.22555983
0.20577276 0.80954695 -0.16419353
0.67734647 1.511451 -0.37312177
-0.9291284 -0.2553724 0.6316721
0.47780532 -0.4144901 0.9036287
0.731739 1.1026229 -0.1830393
0.18458706 1.4153688 0.13121524
-0.331671 -0.05862125 -0.07635434
0.07082899 1.2853203 0.74146557
-0.76113176 1.356926 -0.13397205
0.10075718 1.0113224 0.29678053
-0.19149238 0.71476436 -0.5741925
0.08128056 -0.07164107 0.25477427
0.19256008 0.45818412 0.44244796
-0.1273399 -0.40991145 -0.610332
0.28626573 1.4546182 0.3391502
0.8995218 -0.40747082 -0.48672667
0.22940367 1.344706 0.4936607
-0.42306823 0.9726232 -0.05754798
0.4188458 1.3006978 0.39552593
-0.12537238 0.37754995 0.38546962
0.16429555 0.40664887 0.11880323
0.45672387 1.2557206 -0.29748613
0.72953826 -0.41819274 0.021621358
0.08904131 0.51848894 0.5970454
0.09188916 1.4990479 0.36564323
-0.23355703 1.268014 0.28557733
-0.056795396 1.0583029 -0.967399
-0.31193918 0.5966751 -0.86418957
0.1533987 1.6086603 0.48786116
0.6074085 0.2698294 -0.42976907
0.896343 -0.40899307 -0.28574595
-0.57127345 -0.41078228 -0.3154112
0.037677947 0.28763235 0.29296887
0.030509708 -0.09217121 -0.9144938
0.5994574 0.9865496 -0.07054865
0.106266 1.7358651 0.29756305
-0.70293987 0.43666404 -0.35091853
-0.18490079 -0.40869546 0.60598826
0.5850173 1.3400667 0.08482702
0.2645169 1.145803 0.37728286
-0.35362744 0.13377312 0.03942029
0.5570594 0.7022098 -0.60068345
0.056686588 0.9184184 0.11251536
0.75844514 -0.24298897 -0.7357727
-0.1347911 1.4753851 -0.16637671
-0.31705475 -0.41581443 0.7347845
-0.087102115 -0.41486186 0.7505998
-0.61647344 -0.2518934 0.72975695
-0.14111201 0.72168434 -0.7678465
-0.2535147 -0.25900412 -0.9218772
0.7263557 -0.41375548 -0.57937366
-0.5939287 -0.24262182 -0.4202661
0.838388 0.56414115 0.1914579
-0.13805743 -0.034216315 -0.61891735
-0.015181044 1.2377094 -0.7100009
0.71618867 0.46134192 -0.51366633
-0.33613 1.1110971 0.01324526
-0.14969546 0.7664551 -0.40228093
-0.5541575 -0.0920666 -0.9133818
0.30531988 0.95761734 0.3574838
-0.81300247 0.6863328 0.15516475
-0.27090108 -0.2171719 -0.37680358
0.5262055 -0.41166198 -0.89680815
0.42438674 -0.22524819 -0.47023
-0.7001369 -0.41868204 -0.7974572
-0.31799585 -0.25217122 0.9203981
0.3780759 -0.41026482 0.21631852
0.04354401 0.6905991 -0.12371561
0.07650185 0.35130113 -0.5560464
0.8130187 1.3740885 -0.12481746
0.6980085 -0.41784042 0.87730455
0.5652218 0.17221613 -0.027257815
-0.5574466 -0.06463772 -0.33715177
0.67640734 0.5903116 -0.23921742
0.5273706 1.6393282 -0.33010602
-0.10503924 1.0638552 -0.7778764
0.71641946 0.40140852 0.26545423
0.057925776 1.4038398 -0.62129956
0.8954122 -0.40648007 -0.8799993
0.5828302 0.52070284 -0.68621844
-0.72315747 0.5403271 0.26837516
0.48149326 0.9073198 0.30439895
0.5461894 -0.255845 -0.77431214
-0.36095658 -0.089808226 -0.91120017
-0.10388264 0.3539484 -0.79121995
0.038133204 0.38279432 0.46831465
-0.22150579 -0.22633858 0.18214664
-0.23827262 1.2103767 -0.16726014
0.04691446 0.55720055 0.77227676
0.20123193 0.8424816 0.22406867
0.38157278 0.4042358 0.3900044
-0.9237921 -0.24810815 0.0034607854
0.0044672126 0.23978597 -0.43939096
0.14313656 1.4391203 0.6469203
-0.81096613 1.19067 -0.035487555
0.37432593 0.9214682 -0.737532
-0.06074233 0.7697203 0.01086632
-0.61439836 0.76103824 -0.23898947
0.61095953 1.4401956 0.37411985
0.040722642 0.18066819 0.4829976
-0.5154923 -0.41937667 0.7096273
0.75235295 0.86466324 0.052337386
-0.30111217 1.54277 -0.30323505
-0.5970704 0.51071966 -0.051383417
-0.15178676 1.1714375 -0.006251724
0.51629364 0.721909 -0.35476232
0.90347314 -0.08885679 0.32902062
0.24884814 -0.23220769 0.43993407
0.27184725 0.81977725 -0.39168918
-0.47445923 0.48834476 0.5534957
0.111267425 1.7887616 -0.27806932
0.09431884 0.3475389 0.6528156
0.10523984 0.14266023 -0.5927106
0.5270004 1.1890447 -0.09671964
0.39683905 0.72050726 0.54518354
0.6150669 -0.24671702 -0.5995918
