0.6210487 1.2763479 0.50321716
0.524071 0.38468456 0.043800794
0.483397 1.4185021 0.25017476
0.7426459 -0.2525053 0.7565574
0.43352687 0.90049434 0.52142805
-0.55351514 0.8598213 0.3752812
0.12649801 0.109220564 -0.39563674
0.6891407 1.0948737 0.5401745
0.2979133 1.6243836 -0.60628706
0.76153946 -0.24616104 0.9328695
0.4608152 -0.084621936 -0.7279167
0.0012898818 -0.40484545 -0.47296542
0.05101674 1.2858323 0.023568183
-0.7046058 0.91550153 -0.17643254
0.3271947 1.2783606 0.23592213
0.08109351 -0.17536537 -0.5173876
0.37577784 0.32869685 0.20462193
-0.32545626 -0.07022974 -0.58301485
0.16507986 0.5154197 -0.4255523
-0.9034915 -0.0935954 0.72382855
0.49280816 1.620484 0.29289007
-0.57942235 1.3421276 -0.09847827
-0.4647109 -0.25253078 -0.9253193
0.41891548 -0.08197721 0.63758266
0.2948187 0.26613528 -0.66821617
0.8964723 1.2178218 -0.19317403
0.92047787 1.0499763 -0.28208777
-0.27054173 0.91971576 -0.03637226
-0.1911121 1.4617399 -0.47821617
0.25870973 0.09359704 -0.25026608
-0.39982688 1.1786795 -0.24863955
-0.71699685 0.6379586 -0.49756902
0.030649621 -0.11953519 -0.1741603
-0.7143587 1.3870014 0.046770465
-0.7224213 -0.084073775 -0.42992008
0.36436567 0.9739381 -0.5370215
-0.5824275 -0.41308782 -0.109873876
-0.3226956 1.2073376 0.5216196
0.13107955 1.2468519 -0.51620334
-0.23558594 0.6852083 -0.26770404
-0.03499448 1.1081972 -0.5842018
-0.20983398 1.0601816 0.5765097
-0.7445308 -0.07837777 0.20462584
0.27706793 0.42452848 -0.8177419
-0.06089981 -0.08665438 -0.7670121
0.7623694 -0.25107718 -0.49321732
-0.5192863 1.1188138 0.6153902
0.6349125 1.2317736 -0.6989443
-0.096901745 -0.21643019 -0.46440017
-0.1157472 0.92269087 -0.82476336
-0.10036968 -0.057639234 0.16661991
-0.74414253 0.9963814 -0.5296124
0.42428756 0.8816819 -0.11177987
0.16553766 1.2658975 -0.13336581
0.26181334 0.7949908 -0.60388327
0.9225776 -0.24736623 0.01424663
0.09486495 0.48675066 -0.8897417
0.8726131 0.6729311 -0.39631486
0.7162925 1.5327288 -0.16077286
-0.21230787 0.10430169 -0.11158749
-0.40368572 1.3001237 0.3694268
-0.10411884 -0.21938922 -0.27786392
0.8935499 1.1140411 0.20511833
-0.7249551 -0.4204274 0.77747416
0.36690027 1.1055452 0.7473011
-0.4964142 -0.41857296 -0.73172855
-0.6982745 0.81505793 -0.57878023
0.19861293 0.23651111 0.1502531
0.33257306 0.73400307 0.76275253
-0.5700055 -0.08561883 0.5073546
0.73921156 -0.08584119 -0.5820018
0.8732743 1.0173275 -0.4513805
-0.096273646 1.405731 -0.63804466
0.34244505 0.12700477 -0.05872801
-0.018182015 -0.41402858 -0.7631484
0.7256352 -0.41865993 0.6508653
-0.092611924 0.5609744 -0.9085188
-0.43289483 0.60452914 -0.5630832
0.03803464 0.83616835 0.35804898
0.5691186 -0.050299324 0.11715752
0.19554023 -0.41113186 0.28280985
-0.35045815 -0.41391823 -0.59401953
-0.34493193 1.1762338 0.7034435
0.15168555 1.2314683 -0.93661964
-0.8903708 -0.0990583 -0.914171
-0.7396121 0.92926586 0.37370408
0.07959468 -0.43377763 -0.26406112
0.43318376 1.0196695 0.039143622
0.5371175 0.26734266 0.31274587
-0.07783076 -0.07266202 0.5629693
0.12957263 1.604063 -0.3375203
0.15525016 1.0590041 -0.19786437
-0.76215726 -0.24487175 0.30653363
-0.48526728 1.6392574 0.10539521
0.44904974 1.0649695 -0.17446874
-0.45987672 0.36322212 0.43361074
-0.8596516 -0.07831818 0.012356238
-0.47837406 0.6859826 -0.1140548
0.78847206 0.9692986 -0.60072505
-0.1735627 1.2417791 -0.70998204
-0.1910423 1.5314732 0.5417013
-0.32958436 1.7385056 0.0051347166
0.59778166 0.6976285 -0.7802988
0.35791028 1.5377192 0.19672167
0.72459674 0.8236571 -0.68827623
-0.40105453 -0.0782958 0.39174098
-0.62178695 -0.08978598 0.9120581
0.406968 -0.06873545 0.43046016
0.58045757 -0.26900852 0.8994894
0.9221041 -0.24647233 -0.3881492
-0.8948939 -0.40629527 0.09947164
0.7887678 0.9082496 -0.12441199
0.9194004 -0.24705264 -0.18527621
0.5841229 0.38371128 -0.57013357
-0.5439174 -0.42117703 0.48929882
-0.09564621 0.13457865 -0.33347714
-0.71976256 -0.41610208 0.40089732
-0.067959994 0.42799646 0.115972295
-0.29781663 0.91645646 -0.5347529
-0.858115 1.0451494 -0.13320395
-0.0010541272 -0.41292554 0.56971073
0.18227991 0.25563836 -0.06816973
-0.68522143 -0.08172943 -0.042539503
-0.71298856 -0.41789222 -0.6254009
0.074630365 0.6611011 -0.7768271
-0.89994633 -0.40387237 0.7166406
-0.902743 -0.09178766 -0.5318972
-0.5977081 -0.24030298 -0.21144491
-0.30399245 0.83875823 -0.9233072
0.428957 -0.2547754 -0.92380846
-0.5529026 1.4250877 0.37722886
-0.0136989495 -0.40908784 0.36815995
-0.19224304 0.63912857 0.7489321
0.3809297 0.95587826 -0.92333436
0.43094915 1.302752 -0.61757374
-0.48282975 1.3580153 -0.28513402
-0.5234791 -0.24548362 0.91524386
-0.43202233 -0.21627612 0.08716206
0.665831 0.84226465 -0.45615625
0.03949137 1.4142874 0.19950007
0.011232608 0.24566138 0.08499172
0.16228823 0.1321177 0.3490758
-0.25485232 -0.4201279 -0.7536502
0.36754322 -0.252582 0.92466825
-0.21150659 1.3676662 0.4549681
0.36490804 -0.06447068 -0.5582681
-0.13234533 0.9341845 -0.626204
0.8877643 0.5955149 0.017158054
-0.45084852 1.3894219 0.2069445
0.4002723 -0.076727 0.8599249
-0.035176836 0.7520033 0.80905354
0.30947804 1.2911992 -0.40844673
0.33347148 1.737046 0.20209605
-0.35376763 -0.25909954 -0.76934916
0.73868936 -0.082316056 0.22269791
0.32198808 0.96614075 -0.25460127
0.4386714 0.90482855 0.73764855
-0.45014355 1.5783134 0.2987106
0.54469675 -0.41675818 0.12834938
-0.6734301 1.0918143 0.43140027
-0.09999305 1.1114967 0.34032643
-0.029372979 -0.24634343 -0.63236535
-0.5331291 -0.080035806 0.7266113
0.8137183 1.3702013 -0.29823115
0.22939774 0.6103624 -0.08469589
0.9541865 1.0022058 -0.10809651
0.5901571 0.42830765 -0.15857562
0.6153111 1.3621032 -0.37330806
-0.07081881 1.5948367 -0.345914
0.44849825 0.2584114 -0.5494476
-0.09822874 -0.4216372 -0.14779733
-0.73819155 -0.4160533 -0.21593688
-0.26910925 -0.409684 -0.078195974
-0.23013043 0.49494055 0.22172043
0.90392196 -0.088567615 -0.89752454
-0.3688901 -0.41136017 -0.9026016
0.1157798 -0.24134201 0.31768107
-0.89503694 -0.09177028 -0.33793187
0.011371503 0.79616207 -0.27795747
-0.12807123 0.45516077 0.6770954
-0.62249774 0.7052089 0.06112269
0.048675418 1.830419 -0.07081336
-0.06826015 1.2813184 -0.49965405
0.9256738 -0.24730119 0.22661453
0.14881293 -0.4074595 0.45210636
-0.030072054 -0.25703484 -0.9169904
-0.91545635 -0.2598863 -0.8723085
-0.1795673 -0.40257546 0.25300908
-0.64257276 0.6095786 0.4210232
0.072653696 0.87390184 -0.83541757
-0.21269038 1.199608 -0.90797246
0.7498256 0.7701651 -0.27326477
-0.31076723 0.13215503 -0.36532307
0.67192596 1.297534 -0.19615647
0.4379059 -0.24308932 0.753954
0.022779915 1.3484211 0.5128101
-0.38667837 1.4942952 -0.63491905
-0.104685515 -0.25711787 -0.086501256
0.78783 0.89274895 0.45157206
-0.20193583 0.121277034 0.1379289
-0.19575143 -0.41613847 0.44094986
0.23781872 -0.0760908 0.52960384
-0.2451448 1.0416844 -0.19975898
-0.26738673 1.2575064 -0.3955763
-0.46560127 1.2712624 -0.45381692
-0.36195666 0.9790296 0.7227607
0.39418775 0.5740273 0.6764033
-0.54644305 -0.08339836 -0.55421233
0.08346 -0.058817394 -0.6758504
0.2465105 0.9369223 -0.012615761
-0.7747965 1.1355547 0.28023797
0.4267689 0.7505413 -0.7078588
-0.6419354 0.7782227 0.50420916
-0.40746298 0.99423754 -0.67993546
-0.064122036 0.9733505 0.46242893
0.053063855 -0.30043507 -0.18549353
-0.76153785 -0.2478917 -0.10980399
0.0059442967 1.5168285 -0.49444598
-0.2673756 0.88811594 -0.3213601
0.30906928 1.0310135 0.57939595
-0.25860798 -0.22129045 0.3615975
-0.44253516 0.42869365 0.15825398
-0.49900395 1.0295122 0.08969273
0.30506235 0.103088945 0.14610949
-0.09232576 1.2757428 0.14132296
-0.8971596 -0.405792 -0.10750498
-0.57872415 -0.4048678 -0.91709995
0.5793047 0.57905054 0.56039226
0.12947977 1.1058462 -0.8063688
0.2789948 1.3565012 -0.86301523
0.46674675 1.2784162 -0.8042629
0.09787341 1.2420537 -0.30896628
0.38133395 -0.065031976 -0.18501619
-0.5342196 -0.4152067 0.29062185
0.08118878 -0.020701583 0.43762407
0.10635717 0.08001053 0.15700804
0.9345898 0.8490924 -0.27938163
0.74421597 0.3526004 -0.2670735
0.7369997 -0.085744634 -0.90117013
-0.41072094 -0.2416622 -0.47784626
0.22888711 1.8036697 -0.09811488
0.097703926 -0.2396181 -0.035638463
-0.21625653 -0.40285382 -0.45776924
0.4766873 0.5543779 -0.28634566
0.42502868 1.0907512 0.25122637
0.33410326 -0.41519636 -0.5807084
-0.2488924 0.29646307 -0.67503256
-0.48022664 1.6620574 -0.0976553
0.4179821 -0.41231328 0.6117921
0.5361543 1.6789604 -0.1267716
-0.09533157 -0.03695137 0.38528925
0.43695107 0.7818526 -0.5068504
-0.2962625 1.7595985 -0.19418716
0.22919059 -0.39992782 0.91195804
-0.19617876 -0.019912167 -0.43303287
-0.03546387 0.10625608 0.26568112
0.18970083 0.62393373 -0.5817369
0.44019943 1.1032666 -0.39533538
-0.6065287 1.2373708 -0.26767063
-0.26455662 -0.21913677 -0.18819815
0.86171436 1.2092364 -0.3997581
0.54162645 -0.41065937 -0.4906665
-0.38442606 0.8112984 0.26388597
0.17016903 0.93275994 -0.52279925
-0.41846034 -0.23923291 0.26046482
-0.4151749 -0.038060986 0.19268692
-0.16126683 1.016256 -0.42386135
0.89335203 -0.0945804 0.9087529
-0.022615168 0.45038974 -0.40907958
0.9269774 -0.2504845 0.862782
0.12056479 1.400959 -0.40184984
0.20348749 -0.40967003 0.09643324
-0.06956983 0.9298464 0.6639718
0.38616896 1.7596152 -0.030779485
0.3056326 0.13166541 -0.49263275
0.7053256 1.1773474 -0.35643673
-0.43163478 0.684047 -0.30265728
0.45720983 1.387565 0.58121884
0.7273883 -0.41674817 0.42922217
-0.52543974 1.1022146 -0.77658665
0.54407555 -0.05265998 -0.31155038
-0.48897216 0.8930979 -0.8263482
0.7221612 -0.41649497 -0.38799405
-0.89694905 -0.09311869 -0.15065722
0.8315077 0.46480232 -0.12178615
-0.8673475 -0.091456 0.90931165
-0.83621705 1.060054 0.07169787
-0.14610317 0.8265197 -0.16152447
0.33250535 0.49496707 0.07207525
-0.17735466 0.2672535 9.7938464E-05
0.35883722 1.5805516 -0.3001696
0.28087142 -0.21908915 0.21878576
0.16376223 0.7640522 0.03681431
-0.12160687 0.7737595 0.4599355
-0.112950504 -0.26052082 0.91897404
0.5685377 0.88746893 -0.829522
0.7627533 1.1624883 -0.57320935
-0.09358559 1.4820268 0.35944772
0.24189073 1.248246 0.05215495
-0.15785074 1.2366854 0.74187124
0.3065934 1.1166279 -0.06460813
-0.10950003 0.5706032 -0.71244
-0.49766698 0.21984082 -0.32368988
-0.73245585 -0.41472477 -0.00013050887
0.16285683 1.1881301 0.59589475
0.71938324 -0.08155163 -0.19167909
0.72833925 -0.07936271 0.01342313
0.5189638 1.4639877 -0.24027285
0.7013864 -0.41555744 -0.7616576
0.36470008 0.73089874 -0.015009789
0.28356272 1.4100051 -0.25757712
0.6100007 0.22133802 -0.22236781
-0.454716 -0.082562625 -0.7407692
0.6488162 0.2723207 0.13902822
0.33091956 0.6358944 -0.42785928
0.7362827 1.3528469 -0.5081628
-0.4519242 1.4608932 0.011753815
-0.7549864 -0.2503643 -0.32209486
-0.420376 -0.40859944 -0.20035762
0.829739 0.7160849 0.336066
0.38631094 1.3150465 -0.11156891
0.22337827 0.8258004 -0.97412074
-0.76929 -0.25357044 -0.5261347
-0.30272114 1.3235316 -0.58955914
0.24913666 -0.39872587 -0.28519547
-0.5878334 0.5311371 0.12245788
-0.64089656 0.9369356 -0.3818683
0.4717336 1.0995877 0.4589122
0.10170946 -0.23426929 -0.7614902
0.2494505 -0.034550168 0.32824317
-0.09499503 0.94424844 0.22756012
-0.5475582 0.87392455 -0.07236123
-0.89320946 -0.410614 0.31314582
-0.86316013 -0.4023527 0.9057845
-0.69383645 1.3349664 0.253969
0.3339641 -0.41585934 0.7706189
0.7086671 0.7245672 0.50998026
-0.57316387 -0.25033367 -0.78991324
0.23299406 -0.22537048 -0.20168078
-0.8936762 -0.40510106 -0.7323464
-0.38253903 1.2168211 -0.81338674
-0.1596531 0.7789551 0.27255622
0.64871955 1.6021198 0.0009108017
0.5938505 1.0756621 -0.2608489
-0.5903088 -0.24416722 -0.009224108
0.7734432 1.053396 0.040295035
-0.8949261 -0.40851104 -0.32475534
0.8564447 0.82776904 -0.48898816
0.35411835 0.16426189 0.33286384
-0.62179077 1.5353832 -0.026329596
-0.7264427 -0.41496542 0.203441
-0.35500675 0.76046836 0.7154553
-0.7427194 -0.0842291 -0.6107402
-0.21402419 -0.41098416 0.9021044
-0.6353121 1.2600281 0.44315436
0.92208374 1.1678848 -0.0030820896
-0.7549367 -0.24044129 0.095094964
0.0486912 0.493052 0.2698322
-0.43111652 1.4932557 -0.19255689
-0.4955197 0.4447599 -0.22538681
0.26416463 0.59855324 -0.74319464
0.23999745 0.78009486 -0.79210734
0.33293158 1.156767 -0.91720784
-0.54105973 -0.41492215 -0.5293735
-0.39124736 1.0010931 0.5158118
-0.25136653 -0.011004832 0.29499254
-0.9008733 -0.0939267 0.3371631
0.081393555 -0.085629195 0.65297484
-0.43159968 -0.22421847 -0.10538997
-0.6415727 1.2872536 -0.54149175
0.5039185 0.60468566 0.064547226
0.40695548 -0.02581196 0.019105062
0.19961989 0.25042656 0.5066017
0.77662396 -0.24626762 0.12046749
0.54625046 0.6827544 -0.12981352
0.18806258 -0.07966433 -0.8908155
-0.3735206 1.3154128 -0.09409523
0.5969069 -0.24581353 0.42452472
0.3527072 0.748 0.3434286
0.5027338 1.5212579 0.06286864
0.10683784 -0.24032898 0.14297712
0.7213745 1.2405574 -0.009562623
0.59022117 1.1186312 0.11376597
0.051180117 0.9575118 -0.67908895
0.016842227 0.73718154 0.19299363
-0.3959839 -0.41291696 -0.39721024
-0.7156492 -0.08618203 0.61784256
0.53855765 -0.41327354 0.3289105
-0.8934093 -0.0904142 0.53005993
-0.6033116 1.4938176 0.1766311
0.013287579 -0.4117207 0.18278767
-0.62220573 0.92748946 -0.7030003
0.7554793 -0.25091204 -0.28785396
0.4477351 0.58495367 0.39763314
0.02791376 0.93120265 0.8342464
-0.92081493 -0.26600015 0.21242143
-0.23208356 -0.09115909 0.8997569
0.17024903 1.0954399 -0.6134433
-0.8504765 -0.40570736 -0.91460395
0.37256098 0.7201015 -0.22941682
0.27950722 0.51795816 0.2674888
-0.558204 -0.41211185 0.10377997
0.5315565 0.5698365 -0.48243338
0.22971816 1.6208575 -0.16353804
-0.35794985 1.067299 -0.40367702
-0.9248499 -0.2467254 -0.646265
0.8967518 -0.08607794 -0.2885688
0.67104053 0.5415561 -0.028254256
-0.6677911 1.0840998 -0.23053454
-0.24723682 0.92757314 0.37261486
0.27338523 0.58431625 0.4955731
-0.4758811 1.3137741 0.56181395
-0.0043293536 -0.056212656 -0.3748443
0.5621929 0.8032149 0.021484112
-0.5032804 1.2774277 0.07377911
0.1662421 0.662049 0.31506956
-0.724411 -0.41714066 -0.4277576
0.38507915 -0.4100677 -0.39450008
-0.0998178 -0.08204442 0.74642724
0.18582773 1.1354055 0.79143906
-0.47495198 -0.030274155 -0.0012745343
0.54000413 -0.41955268 -0.67079663
-0.41345203 -0.09015841 0.58718264
0.01406553 1.4677141 -0.0021601839
-0.6739959 0.35872385 -0.04981619
-0.42437744 -0.40561914 -0.008122303
0.2639522 0.44074997 -0.60848427
-0.64018905 0.34661603 -0.25649542
-0.08731472 1.6685126 -0.5682867
0.4858498 0.4807706 0.23719016
0.59665716 0.8669595 -0.19969228
-0.07132282 -0.23959154 0.09005727
0.5798648 -0.08410698 0.53537834
0.14459896 0.7546879 0.8020846
-0.7025104 -0.4125384 0.6019621
-0.19444923 0.85075355 0.78810215
0.5525944 1.237761 -0.48866737
-0.88900876 -0.0875095 -0.73771805
0.94098526 0.9521384 0.080223165
-0.56512725 1.1998758 0.25965643
0.22636601 1.2793252 -0.7157253
-0.08740032 -0.40377098 -0.33109123
-0.24779652 1.0671291 -0.73713034
-0.20389378 1.5404747 -0.69626683
0.6157121 0.9437829 0.43197262
-0.3944803 -0.04466909 -0.4314146
0.24573976 -0.107063994 0.91855943
-0.7668164 -0.24141787 -0.74429905
0.72503686 1.19544 0.19931574
-0.42089295 1.1545287 -0.59663755
-0.31687766 0.9687582 0.16154106
-0.29269582 1.4609395 0.29162902
-0.26756936 0.45386687 -0.80718803
0.11081034 0.73853445 -0.44421792
0.12181574 0.99452585 0.6777365
-0.55743164 1.1143849 -0.4171169
-0.0040640687 1.539485 0.56605446
-0.17788434 1.6054969 0.21846491
0.04131934 0.3734591 -0.07067455
-0.06519604 1.8062427 -0.25463706
-0.0369593 1.3114796 -0.15414888
0.05497948 0.51548755 -0.20712028
0.052952833 -0.07392417 0.030389419
-0.4999215 0.8757991 0.6400871
0.25748533 0.8599403 0.6338111
0.72470057 -0.41793025 0.22630793
0.4199199 -0.21884605 0.077955626
-0.8426819 0.6710105 -0.08775608
-0.47795168 0.4107905 -0.02350878
0.23414908 0.42621163 -0.09488927
0.105738886 1.0945303 0.00023894897
-0.42045653 -0.085438505 0.8892535
0.30223805 1.1880414 -0.25063595
-0.3322841 1.7058909 0.20992179
-0.444019 0.7221434 -0.82271385
-0.18604673 0.4710154 -0.27454066
-0.9253416 -0.2495966 0.8658461
-0.27590042 0.6759788 0.5535453
0.35555202 -0.4156809 0.42505848
-0.20448111 1.1074532 0.16061753
0.03316192 -0.4165895 -0.013794291
0.39793307 0.2780205 0.48085225
-0.4250446 0.81483394 0.06386216
0.18870987 -0.4055041 -0.4540182
-0.43182778 0.54372346 0.2903918
0.21108523 1.4442484 -0.056329146
0.045857735 0.647104 0.45013362
0.90879834 0.6519204 -0.18763861
0.21820669 -0.058952224 -0.095716506
0.70973957 0.30032694 -0.060215104
0.2373923 0.9588468 -0.75545675
0.4475675 0.397947 -0.70628864
0.1370229 0.99234974 0.48644555
-0.15862915 -0.4125201 0.06667471
-0.16484609 -0.032064833 -0.24078427
-0.4993741 0.6795441 0.6075169
-0.50323725 1.3145249 -0.6926931
0.8989408 -0.4076875 0.12274858
0.8487675 1.2989881 0.12874895
0.55666894 -0.41426766 0.74199295
0.08173981 1.4143801 -0.84547377
-0.23941207 -0.24191707 -0.59312475
0.55406153 1.2553952 0.28907967
0.89582866 -0.40840465 0.53520405
0.29436815 1.6082702 0.035894282
0.35946774 -0.087739125 -0.9085827
-0.033281907 1.264647 -0.9118837
0.09959279 -0.07520406 0.85033596
0.032926694 1.6490672 -0.1573675
-0.18253663 1.7763557 0.11498564
0.30356625 1.6554981 0.38371223
0.6440694 1.5495381 0.20134938
-0.5257264 0.9697603 -0.5354265
-0.25527012 -0.08758639 -0.7524291
0.7217799 -0.08091546 0.8729777
-0.7231223 -0.082282886 -0.230694
-0.44569802 -0.2406945 -0.6349553
-0.4375331 1.6672347 -0.28455895
0.67185694 1.0346687 -0.7281703
-0.586597 0.8561863 0.1878851
-0.2851774 0.85961133 -0.73876125
0.40841973 0.58554065 -0.6164386
-0.07054286 0.6978775 0.62719536
-0.2681612 0.5143384 -0.62690926
0.45769536 0.12099442 -0.21018702
0.9078304 0.7443871 0.14333096
-0.35841703 -0.413924 0.3559146
-0.3069333 1.380889 -0.78388476
0.24771598 0.9378651 0.8133216
0.73967445 -0.082772836 0.43345985
0.40251535 1.5366573 -0.10841437
-0.92345524 -0.25372675 -0.42884326
0.45150766 1.5256447 0.44766337
-0.12963584 0.29442084 0.55174565
-0.8857719 -0.40955192 0.5190138
0.55763745 0.908684 -0.6078446
0.54298925 0.7543247 0.43640444
-0.31296813 0.24763095 0.42655933
0.52829385 0.7412523 0.662591
-0.14845471 -0.25673306 -0.7656215
-0.7106056 -0.261489 -0.92851883
0.4318371 1.2158532 0.0873407
-0.09338822 -0.23939437 0.6273068
-0.16376494 -0.09118933 -0.9188014
-0.8206026 0.9115125 0.19759208
0.1408334 0.37816447 -0.29280543
0.5763311 -0.08826688 0.74455583
0.044505276 0.7780321 -0.63387144
0.19499484 1.7961764 0.09611599
0.23087186 -0.41876826 0.6008849
-0.43612784 0.38460982 -0.6511645
-0.2658227 0.49031535 0.029591968
-0.5567708 1.5295831 -0.37795046
0.042316932 -0.2063874 0.46629775
-0.6079942 0.96915406 0.5323623
-0.7455268 0.75041145 0.30953032
0.7443054 -0.2509877 -0.08510718
-0.22943912 1.133131 -0.5513829
-0.012290634 1.1054263 0.1487706
0.7229042 -0.083271906 -0.39129925
-0.638674 1.1297467 -0.6307967
-0.7696187 0.52878255 0.03245151
0.5727167 -0.07608269 0.3269413
0.2822247 1.4026787 -0.5751256
-0.077597015 1.382873 -0.3352947
-0.25552887 1.6334167 0.389848
0.4393761 1.4300313 -0.42842576
-0.46314782 0.9984093 0.3037082
0.35054 0.29066414 0.030146018
-0.163787 0.28414404 0.20691279
-0.38590422 0.82393456 0.47781414
-0.038328826 0.6260185 -0.32654852
0.31129766 -0.23964894 -0.77999467
-0.090861395 0.6003654 0.3160743
0.6096785 -0.26076153 0.06444684
0.6394863 -0.25006732 0.24401717
-0.37042004 1.4361386 -0.42081755
-0.11935612 1.4045765 -0.8311412
0.10296777 -0.40592277 -0.6147802
-0.12619136 0.76706916 -0.96767926
0.6458268 -0.24433702 -0.9188932
-0.6066158 0.4464132 0.33211723
-0.5969218 -0.25321656 0.20481828
0.5671345 -0.4150281 0.52243507
-0.109590605 0.99420464 -0.005643015
0.3418568 1.1226292 -0.7348126
0.0557224 0.82886636 0.58571446
-0.6519675 1.0257783 0.21000233
-0.13162674 0.5411887 0.508148
0.8977405 -0.09028442 0.73491526
-0.5404388 1.4435269 -0.53730357
-0.5715322 -0.08780183 0.30966884
0.4581856 0.15964383 -0.38281074
0.34937713 1.2080088 0.56083465
0.28893667 1.3138118 0.70527256
0.7298591 0.9911162 0.22883272
-0.1246519 0.61074406 -0.12045409
-0.11252563 0.6176499 0.10305546
-0.6065697 -0.25584692 0.40194064
0.18234372 0.6595393 -0.28303027
0.91887033 -0.25018796 0.6485374
0.19095547 1.0228177 -0.97529113
0.41032287 -0.22993809 -0.29338527
-0.52899486 0.23233457 0.07905777
-0.53818935 -0.2575053 0.59329194
-0.3059696 0.50458294 0.43140084
0.9249308 -0.24870256 0.44089997
0.59037125 -0.25282753 0.645706
-0.5266806 1.1606055 -0.09442468
0.5699668 0.93264854 0.1573319
0.8868984 0.9010798 0.26854172
0.20182288 0.32798767 0.31685272
-0.34077865 0.5401007 -0.35745668
-0.7444526 -0.24859391 0.52951914
0.24508148 1.7408943 -0.42633235
0.0031860024 1.6046034 0.1922184
0.5455994 -0.08673616 -0.91037446
0.26413012 0.39723483 0.62039196
0.107344225 -0.24512291 0.9284133
0.6497046 -0.08110517 -0.73383033
0.043864883 1.0855336 -0.40538317
-0.058175154 0.08226295 0.022095267
0.52017033 1.0908518 -0.840469
0.1806202 -0.06867887 -0.30795383
-0.7893541 -0.2509423 0.72496843
-0.7348703 -0.082675055 0.41411033
0.54051554 1.039089 0.6591238
0.23652244 1.0811739 -0.4020978
0.12344828 1.2074277 0.21001017
-0.3382421 0.5464985 0.65454376
0.57906884 -0.23441684 -0.20740871
-0.18309283 1.0448208 0.7876121
0.8139576 1.0683423 0.3829385
-0.5471512 0.6826552 0.24189067
-0.15622458 1.664535 -0.17620097
-0.6259657 -0.4032303 0.9075953
0.2584842 -0.2110771 -0.41348606
-0.5489213 0.3463899 -0.46536696
-0.40868634 1.6115904 -0.46120262
0.77674365 -0.24914044 0.34038064
0.9175415 -0.24168117 -0.5947809
-0.1284746 -0.07924132 -0.04846205
0.06536594 1.1654253 0.42705786
0.36964878 -0.025544215 -0.38068014
0.64047563 0.8894695 0.60928774
0.57924855 1.405375 -0.06870756
-0.6655865 1.0452237 -0.040142637
-0.3589959 1.0338559 -0.89430726
0.8964642 -0.4076118 -0.08206918
0.7249452 0.5466837 0.41508254
-0.10366745 0.40410957 -0.5901418
-0.32728285 0.3565029 0.28963435
-0.3369223 0.41818488 -0.49460515
0.08155011 -0.2528006 -0.35476094
0.76661384 0.660029 -0.5887716
-0.4537463 0.80383384 -0.6196853
-0.017846938 1.1253992 0.61313736
-0.64745355 1.1845355 0.07615371
0.26238883 -0.07831989 -0.71287245
-0.89380044 -0.40706378 -0.5330789
0.07401337 0.489393 -0.69547397
-0.23388419 0.86730194 0.5913986
-0.0042049177 0.6019416 -0.539752
0.8915467 -0.40777165 0.7351558
0.23625858 -0.065837994 0.1105077
-0.18318756 0.56837624 -0.4638481
0.087497026 1.4559416 -0.21161757
-0.4295437 -0.23108786 -0.29556862
0.901335 -0.08840072 0.5360054
0.88287973 -0.40138203 0.9071404
-0.021181837 1.1203398 -0.15619594
-0.46043235 0.671873 0.4208634
0.60405064 1.5342274 -0.48072696
0.3052486 -0.4039361 -0.91610754
-0.2639397 1.389427 -0.24740085
-0.50660855 0.27945095 0.26805106
-0.31942636 0.7245141 -0.47000358
-0.14099957 -0.40968508 -0.9100657
-0.14029461 1.4457203 0.15078093
0.5032692 0.7237977 0.21378481
0.30034706 1.5104691 0.5620259
-0.37921947 -0.41407466 0.5602944
0.61272967 0.45547587 -0.35767072
0.20415327 -0.41248187 -0.7532619
-0.11521378 1.6197159 0.014651632
-0.52606297 -0.05315657 -0.16661297
0.54946136 -0.1037591 0.92022693
0.7935396 0.41510224 0.078631505
0.5563686 -0.00288711 -0.10792495
-0.2142917 -0.25280866 0.7603943
0.015945934 0.8992772 -0.9948416
0.114800766 -0.41789466 0.7466593
0.26269615 -0.23081475 0.010400241
-0.3487186 -0.40789157 0.155841
0.30086628 0.2687908 -0.2404266
0.065183 0.69347394 -0.9642097
0.23078349 -0.24338189 -0.59971106
-0.09128902 1.3986225 0.66523504
-0.040004075 1.6595757 0.42587262
-0.1799998 0.9993651 -0.96879613
-0.43315881 -0.2551081 0.44144946
-0.1386807 1.8120584 -0.06101232
-0.12386055 -0.25245026 0.45949984
-0.29880387 0.6813232 -0.69424736
0.13959746 0.5972915 0.12598357
0.221387 -0.25208026 0.7811227
0.93229437 -0.2459174 -0.7827078
0.4239924 -0.25103837 -0.6351813
-0.2683314 -0.23549247 0.009374127
0.33013344 1.17469 -0.54822326
0.7234503 -0.39967948 -0.91874826
-0.6843654 1.3741918 -0.36958313
0.10444626 1.635081 0.018475432
-0.32774746 0.30845487 0.093292356
0.20461632 1.5258492 -0.7442602
-0.9176693 -0.25632167 0.4224463
0.44515753 -0.2450942 0.52323544
0.40272433 -0.24394146 0.35145384
-0.9119463 -0.10309614 0.15849018
-0.4455059 0.54620713 -0.75668305
0.48772478 0.15484795 0.15283722
0.45404807 0.34494233 -0.3229534
-0.2755742 -0.035292603 0.07660715
-0.01017463 0.05929758 -0.53611887
0.74496275 0.7253243 -0.07084338
-0.4142758 -0.24308753 0.74253523
-0.21688709 0.25361168 -0.2260771
-0.07051081 -0.22372442 0.28106692
-0.1873326 1.3923703 -0.033385962
-0.37573242 0.83220613 -0.1802339
0.82436866 0.5126486 -0.32027787
0.9030938 -0.085690856 -0.4922345
-0.28631377 1.107208 0.36381897
0.16639012 0.68461645 0.62298805
-0.28865993 1.3664927 0.63780415
0.5783249 0.40980834 0.4376164
0.30055988 0.48818743 -0.26991007
-0.59621465 0.6956364 -0.6922111
-0.19222866 0.15256447 -0.54330873
0.38150904 -0.4111089 0.016315434
0.08883927 -0.40545925 -0.9104891
-0.110971 1.175613 -0.32977736
-0.68950117 0.7261021 -0.114649415
0.44505107 0.44179165 0.57076263
0.012222109 -0.4069457 0.90699786
-0.0068067834 1.1150613 0.8043855
0.5008614 1.692369 0.10173911
0.41467005 -0.030204251 0.23448335
-0.3903225 1.1660182 0.20038915
0.11520007 0.31265548 -0.76343715
-0.4332767 0.605353 0.054345056
-0.19928388 0.82518953 0.10652585
-0.036906973 0.20823333 -0.12085171
0.25726634 -0.0827606 0.72628605
-0.8637326 0.8711479 -0.019782487
0.5094849 1.2153448 0.6456133
-0.6967529 0.8859578 0.04629653
0.006701175 1.803944 0.117473386
-0.73147357 -0.0849224 -0.90087986
0.3975801 -0.41363692 -0.18322934
-0.0478454 0.3353312 -0.26266044
0.122395635 -0.26048616 0.60929096
0.89674985 -0.08669094 -0.08703108
0.8848047 -0.08054792 -0.70633274
0.5536928 -0.41169167 -0.28825256
-0.13087541 1.225024 0.518108
-0.44276327 0.870036 -0.39339527
0.37179905 0.87220323 0.14276156
-0.29641563 -0.24968986 0.5743394
-0.36298004 0.3446069 -0.3147903
-0.38039577 0.23392037 -0.51307255
0.44505328 0.5654977 -0.8211926
-0.5965351 0.5072988 -0.5960461
0.62532884 0.61508095 0.30772185
-0.61419654 1.5373294 -0.21462458
-0.041508228 1.2953312 0.32927316
-0.5930292 -0.08571529 0.11834559
-0.729802 -0.08047569 0.7912954
0.4862166 -0.22490756 0.22027105
0.02873151 0.048452087 -0.1878958
0.2486145 0.29862604 -0.43481582
0.25662053 0.61795235 -0.92541623
-0.001122775 1.5620124 -0.7277223
0.76644933 1.2525499 0.37233877
0.39033756 0.4396603 -0.46892118
-0.36058426 -0.035607956 -0.27079332
-0.80125415 1.2432208 0.124370575
0.2121424 0.80373454 0.45325708
-0.050089456 0.2265495 -0.6694726
-0.40562212 0.124987066 -0.18366113
-0.7896602 0.8162433 -0.40976176
-0.5131581 0.52286315 -0.4159032
-0.3835448 1.4825922 0.47980273
-0.14105773 0.42334837 -0.09550421
-0.09651232 1.7480513 0.28221685
-0.9212663 -0.25658745 -0.22146653
0.5566292 -0.40180516 -0.076185785
-0.8280693 1.0074065 -0.33459845
0.8552176 -0.24940263 -0.9289863
0.50719225 1.1010518 -0.6256591
-0.18915662 0.31710604 -0.42797753
-0.34106073 0.5361083 -0.14855167
-0.30451086 0.6631812 0.16700292
-0.06526043 0.97198904 -0.263429
0.10552211 0.21271619 -0.25134236
0.6146568 1.0959604 0.33531943
0.7525166 -0.25171572 0.5443157
0.8929663 -0.40777168 -0.6865573
-0.009261302 0.9056357 -0.47678256
-0.34523934 0.32020634 -0.113374166
0.3917279 1.454889 -0.73906255
0.40146053 -0.24091417 -0.104172885
0.43237686 1.670563 -0.44442767
-0.16564184 0.16881359 0.37677157
-0.2433807 -0.079956494 0.507018
0.21408716 -0.4103201 -0.09846486
0.14547837 0.09669581 -0.032876678
0.70332193 0.6841622 0.12547529
0.37167293 1.7631503 -0.2511114
-0.8528068 0.83246493 -0.22046423
-0.04631976 -0.096982196 0.9149442
0.9489121 0.79530317 -0.059662513
0.037594356 0.55305797 -0.009118991
-0.2892035 -0.08167127 0.7134242
0.4373253 0.32328346 -0.12909898
-0.29301295 1.5577837 -0.09316782
0.4205388 0.52766097 -0.10091086
0.1953626 -0.24811426 -0.92731833
0.1329516 0.9184128 -0.32277435
-0.21292473 1.7390616 -0.38603875
0.54892623 -0.07469552 -0.5214369
-0.29767868 1.3148289 0.098732956
0.4563962 1.5410911 -0.5918105
0.62813795 1.039481 -0.47726917
0.9018154 -0.08631139 0.118504465
0.6781876 0.81282765 0.28206235
0.6438757 0.49723142 0.14815333
-0.29695797 0.3859799 0.5687567
0.25058684 1.5291802 -0.45449337
-0.42872673 -0.4079007 0.89674985
0.15902638 1.3248222 0.33843935
-0.73904365 -0.24677566 0.92034495
0.41701716 0.7562829 -0.9002336
0.5937363 -0.24000257 -0.3969226
0.7425605 0.9619206 -0.3209778
0.5842048 1.4036368 -0.63422585
0.38174972 1.3952296 0.058890156
-0.7925556 0.65304077 -0.30211064
-0.7602835 0.4994743 -0.17854485
0.3936562 -0.41273803 -0.76286995
-0.60934526 0.60564625 -0.27270687
0.73405254 1.3971825 0.25447357
0.7219425 -0.41660213 -0.18369544
0.7600715 1.4665954 0.05503954
0.73775136 -0.08301031 0.64899373
-0.6176771 -0.25502163 -0.6170237
0.051050458 0.91501504 -0.10250606
-0.2538414 -0.40131354 -0.27112716
-0.36087635 0.16122021 0.23520398
0.1901724 -0.021380307 -0.5206759
0.20628901 0.5441042 0.7356498
0.117607474 1.6596415 -0.58356166
0.4890551 0.9185637 -0.36075163
-0.6444409 -0.08076556 -0.7425922
0.1825859 1.5979009 0.21176308
-0.5428494 0.22892067 -0.118885115
0.3036291 -0.2466357 0.6163391
0.02189941 1.7549995 -0.4275094
-0.27302384 0.67363226 0.3629948
-0.30940464 1.5364757 0.09908761
0.89923126 -0.4081939 0.32813817
0.25270534 1.0584116 0.15927711
0.015174279 -0.2446947 0.7686131
-0.7443098 1.1674232 -0.43585336
-0.48989213 0.9945682 -0.2503435
-0.48643947 1.134706 0.42444128
0.3213083 0.67192525 0.16197115
0.6874373 0.64560795 -0.41270566
0.5554762 -0.16171798 -0.05452236
-0.6562911 0.37617093 0.1472767
-0.56325996 0.7309097 -0.46057558
-0.2736417 0.70428526 -0.041925516
-0.25884128 1.6319501 -0.5395528
-0.8024074 1.2145121 -0.25954127
0.21739095 0.81938493 -0.16534635
0.71071935 1.5140245 -0.34182984
-0.92682254 -0.251126 0.6223727
0.4654588 -0.410223 0.9064461
0.7528015 1.103464 -0.15654147
0.19957566 1.4227852 0.13891847
-0.32052094 -0.054623008 -0.09746311
0.05916676 1.2940757 0.7387627
-0.73663723 1.3888754 -0.16700259
0.099976495 1.0172284 0.29414824
-0.15437764 0.7397092 -0.58927774
0.07262768 -0.07530883 0.25047207
0.17272764 0.461614 0.43946266
-0.12656116 -0.41510797 -0.6127379
0.29223177 1.458534 0.35010207
0.8997283 -0.40668648 -0.4872187
0.2288168 1.3493955 0.50234616
-0.41891772 1.0053421 -0.08391413
0.41927704 1.3026811 0.41104603
-0.14380154 0.39005983 0.36745423
0.15520261 0.40655828 0.10994861
0.48315132 1.2632565 -0.27860785
0.727072 -0.41871098 0.023271576
0.06476763 0.52656984 0.59055126
0.09809676 1.5037559 0.3738955
-0.22711009 1.2775346 0.28358224
-0.0035904392 1.0890146 -0.97429395
-0.27399212 0.636552 -0.88688576
0.1543335 1.6177096 0.4924508
0.6227969 0.2827337 -0.41733748
0.8967627 -0.40810034 -0.2849422
-0.5700468 -0.41199127 -0.31843045
0.02173902 0.29146862 0.277718
0.029351313 -0.090213105 -0.91595304
0.612257 0.99064285 -0.051266856
0.11954948 1.7433374 0.3033158
-0.6964146 0.4794131 -0.3896474
-0.19120596 -0.41249436 0.61182344
0.59720725 1.3391013 0.10857343
0.2632798 1.1496359 0.38343775
-0.382254 0.13435146 0.01791382
0.5871168 0.71429086 -0.58679515
0.0644771 0.9257176 0.108027756
0.757269 -0.24166432 -0.7343757
-0.10581872 1.493753 -0.17091754
-0.32077235 -0.41574144 0.7436872
-0.088884056 -0.41510764 0.75469816
-0.62030125 -0.2499668 0.74853003
-0.10639476 0.74713194 -0.7830549
-0.25113156 -0.257937 -0.92412794
0.72549045 -0.41256082 -0.58125746
-0.59161735 -0.24850672 -0.42527437
0.8286917 0.55774593 0.21844602
-0.1271039 -0.057386212 -0.60319316
0.030417187 1.2604699 -0.71092236
0.7399193 0.47299987 -0.49514562
-0.32484242 1.1349678 -0.005073294
-0.12818608 0.78458846 -0.41355637
-0.5527749 -0.091069676 -0.91603875
0.30018508 0.9612628 0.3619519
-0.8152398 0.7206806 0.11688583
-0.26061594 -0.20433834 -0.3840304
0.5281768 -0.41106534 -0.8985659
0.42792594 -0.22961712 -0.47042972
-0.7008029 -0.41816765 -0.80030084
-0.32361445 -0.25303668 0.92007947
0.37134737 -0.40742165 0.21502599
0.051901624 0.70369375 -0.12904686
0.097030565 0.3717196 -0.5564621
0.8355113 1.3719385 -0.08830432
0.6922593 -0.41677046 0.8806221
0.5568528 0.17436063 -0.023419421
-0.5540031 -0.0766273 -0.34576112
0.6886877 0.5925809 -0.21997568
0.56130576 1.6463387 -0.30539632
-0.061689153 1.0940601 -0.788483
0.7014189 0.3957343 0.28287944
0.10248269 1.4245927 -0.6166228
0.8961937 -0.40572903 -0.8809693
0.616889 0.5372399 -0.6745496
-0.7344127 0.570318 0.23055238
0.4769042 0.9100618 0.31679234
0.5466796 -0.2552055 -0.77498305
-0.35900867 -0.08868375 -0.9135909
-0.07828964 0.37759367 -0.8051263
0.013677765 0.3975699 0.45394883
-0.24391058 -0.20817974 0.18288139
-0.21767452 1.2261724 -0.17822742
0.016678646 0.56658626 0.7639189
0.2013869 0.84553146 0.22534081
0.36443758 0.40910178 0.39311114
-0.9256059 -0.24454969 -0.004370803
0.006602232 0.25314724 -0.45230043
0.13702449 1.4465207 0.64968884
-0.79169697 1.22552 -0.069661215
0.412143 0.9347962 -0.7274027
-0.05175108 0.77861834 0.008893449
-0.5996108 0.7941427 -0.27182108
0.61390007 1.4383271 0.4005178
0.012705833 0.19550836 0.46844882
-0.5243852 -0.4185008 0.71479905
0.7577977 0.86217344 0.07633041
-0.26626557 1.5667857 -0.31265032
-0.598173 0.54467916 -0.08086327
-0.13491017 1.1862128 -0.0148557965
0.5337496 0.7312807 -0.33843184
0.9032823 -0.08710526 0.32848856
0.24634114 -0.23347013 0.43355623
0.2943815 0.8296398 -0.38616455
-0.49608445 0.5083597 0.5242665
0.14711773 1.8015513 -0.26794893
0.062543064 0.35415983 0.64348626
0.13786379 0.17709038 -0.60212946
0.54449224 1.1928376 -0.0764408
0.37886655 0.72009003 0.55183244
0.609588 -0.2429888 -0.5984423
