0.6248388 1.363207 0.46229354
0.5215913 0.44461593 0.048898585
0.47541854 1.4924 0.2085793
0.7433761 -0.25177366 0.7556473
0.44412887 0.98395336 0.5041913
-0.5453635 0.9128451 0.3946923
0.10983227 0.109153196 -0.35940725
0.69758904 1.1836987 0.50363916
0.25576997 1.6512864 -0.6536211
0.7664395 -0.24787758 0.9327867
0.45508566 -0.0842763 -0.7230874
-0.00066523155 -0.40677485 -0.46619236
0.03968688 1.3403802 0.0032978063
-0.7168703 0.9425129 -0.15347198
0.32105124 1.3497657 0.20681036
0.0826242 -0.19580047 -0.5137676
0.37984872 0.39184457 0.21438842
-0.33256003 -0.0817127 -0.5741253
0.1512256 0.54430664 -0.4061998
-0.9038534 -0.09351522 0.7263278
0.48274535 1.6973007 0.24204113
-0.5983293 1.3750491 -0.09880799
-0.46657333 -0.25165707 -0.9227717
0.42127752 -0.081903994 0.63844275
0.267045 0.27937806 -0.631394
0.8773955 1.2750394 -0.2406793
0.8996048 1.1035457 -0.32209483
-0.2686035 0.9572613 -0.037605897
-0.22531235 1.4889629 -0.50020725
0.2590505 0.10751055 -0.21547797
-0.4211525 1.2120844 -0.24867335
-0.7303481 0.6481875 -0.45900652
0.017908268 -0.097080275 -0.1420097
-0.72947353 1.4244843 0.049097694
-0.723809 -0.084218815 -0.4242205
0.33580923 1.0035666 -0.55419
-0.5851726 -0.41469342 -0.10662371
-0.31689894 1.2790984 0.5223532
0.0993068 1.2745712 -0.5368912
-0.24704215 0.7157272 -0.24962237
-0.06286704 1.1290092 -0.5923872
-0.19885413 1.1353309 0.5750203
-0.74269617 -0.07826264 0.21348268
0.25035563 0.43565086 -0.7965438
-0.06357032 -0.0901065 -0.76200855
0.7619368 -0.2509101 -0.490789
-0.50757587 1.1871018 0.6216768
0.59754527 1.2570335 -0.7399622
-0.09581341 -0.21507259 -0.4537028
-0.15122096 0.9301233 -0.8196243
-0.09386562 -0.047255456 0.17429686
-0.7705566 1.0076723 -0.50979984
0.41222686 0.93563545 -0.120938174
0.14763534 1.3146462 -0.15635002
0.22939424 0.8220301 -0.6096133
0.92278945 -0.2468417 0.0132246
0.06589823 0.49554533 -0.86507773
0.85329705 0.7159239 -0.41486746
0.68883747 1.584362 -0.21459378
-0.19019991 0.114799224 -0.07219362
-0.40488923 1.3647887 0.36421663
-0.109856546 -0.2187519 -0.26748934
0.89180815 1.1904583 0.1617567
-0.7232246 -0.4206204 0.7751583
0.3847697 1.201097 0.7235303
-0.49868757 -0.41922474 -0.7286646
-0.7228248 0.8233844 -0.5502751
0.20933756 0.27570918 0.17469788
0.3553393 0.8248452 0.7563101
-0.56808615 -0.08688828 0.5180342
0.7389406 -0.085814685 -0.58064514
0.8458837 1.0573566 -0.487538
-0.13558851 1.4252081 -0.6610061
0.35832718 0.14384702 -0.018916998
-0.022002708 -0.41443163 -0.76000416
0.7266583 -0.41864687 0.64905167
-0.12128645 0.562961 -0.884026
-0.450568 0.621477 -0.5317746
0.044904687 0.9047313 0.35891557
0.5697254 -0.07607919 0.118465856
0.19751284 -0.4119653 0.28420424
-0.35190243 -0.415385 -0.58975327
-0.33030665 1.252632 0.7030375
0.10417697 1.2363759 -0.9563335
-0.8911356 -0.09886457 -0.9120761
-0.73319423 0.982124 0.3966859
0.0779477 -0.42789724 -0.250853
0.42471987 1.0825264 0.019762883
0.546194 0.34182447 0.32053006
-0.070688024 -0.078791186 0.5606586
0.09594539 1.6427193 -0.37766027
0.13903819 1.1044991 -0.20834601
-0.7617524 -0.2448405 0.31381795
-0.5053749 1.6850107 0.08790785
0.43341178 1.1140987 -0.19786985
-0.4363231 0.42369604 0.46860176
-0.8554374 -0.077873245 0.020308023
-0.48228204 0.72035825 -0.0857245
0.75575686 1.0015085 -0.63168
-0.21055116 1.2556485 -0.72189724
-0.19145499 1.6078463 0.5210486
-0.35359335 1.782943 -0.023326056
0.56576455 0.714605 -0.7877543
0.34538162 1.6070269 0.15425622
0.6926501 0.8483907 -0.70775807
-0.39815226 -0.08482417 0.4057266
-0.6185589 -0.08991414 0.9123459
0.40776038 -0.08174288 0.43090555
0.587884 -0.2665364 0.8986023
0.92172223 -0.24550445 -0.38708848
-0.89588 -0.40599674 0.10448423
0.77527064 0.9671993 -0.15347463
0.9191371 -0.24632707 -0.1856322
0.55856895 0.40911698 -0.56022406
-0.54068226 -0.4232818 0.48970494
-0.0897949 0.14225465 -0.29059908
-0.7185428 -0.4169008 0.4025123
-0.06087041 0.4681673 0.13993274
-0.3229759 0.9394572 -0.52279186
-0.872203 1.0705165 -0.11356944
0.0010571013 -0.41442025 0.57278675
0.1860938 0.2769541 -0.033494066
-0.68035805 -0.08229485 -0.03647706
-0.71468043 -0.41787535 -0.6228635
0.048880816 0.67972463 -0.76111543
-0.89903444 -0.40503973 0.7171394
-0.90325046 -0.09142089 -0.5268059
-0.6006031 -0.2454461 -0.2059236
-0.3390731 0.8347213 -0.9043746
0.424462 -0.254083 -0.9214879
-0.5578519 1.4868791 0.37157947
-0.009054833 -0.41143146 0.36799502
-0.16862959 0.71836704 0.76668286
0.3416632 0.96289295 -0.93937707
0.39507505 1.3297133 -0.6514015
-0.5097637 1.3876679 -0.29215997
-0.5233774 -0.24510944 0.9122815
-0.43750918 -0.2304421 0.0937271
0.642339 0.87910134 -0.47608507
0.028065171 1.4781716 0.1744532
0.020530943 0.27442342 0.116495214
0.17253295 0.18430403 0.36190534
-0.25752497 -0.42134094 -0.7504207
0.38310248 -0.2578813 0.9220208
-0.21258363 1.4358535 0.43870562
0.36073905 -0.077954635 -0.5444555
-0.15936798 0.952654 -0.61971045
0.8830514 0.6629993 -0.002693066
-0.4597701 1.4431067 0.19903609
0.3884381 -0.072904214 0.8630173
-0.011692565 0.8394681 0.81121427
0.2795251 1.3272218 -0.43734905
0.3178741 1.8073201 0.15011877
-0.35642493 -0.26134163 -0.7664547
0.7380986 -0.08313787 0.22205195
0.305617 1.009156 -0.2664692
0.4559373 0.99740463 0.71678257
-0.4617088 1.6375471 0.28425747
0.54690874 -0.41993362 0.12882353
-0.66639096 1.1502619 0.4438374
-0.09933969 1.1796259 0.34006098
-0.038371176 -0.24582319 -0.62748957
-0.5353467 -0.080512494 0.7297523
0.78595304 1.4180859 -0.34793022
0.2242561 0.65539056 -0.07560122
0.94079655 1.0637002 -0.14830385
0.58197737 0.4807759 -0.15557119
0.5839273 1.4012992 -0.41747457
-0.10344188 1.6305349 -0.3786885
0.42294848 0.27995676 -0.5218519
-0.09650953 -0.41550705 -0.14201435
-0.7413037 -0.4164286 -0.21259576
-0.26754907 -0.41006353 -0.07166651
-0.21746519 0.5462812 0.24339095
0.90266 -0.08837581 -0.89607775
-0.37063482 -0.41139156 -0.90089434
0.120000765 -0.24038365 0.3148064
-0.89530873 -0.091283545 -0.3306743
0.0042984774 0.83519113 -0.27377805
-0.1039689 0.5319629 0.6987473
-0.61955935 0.7440125 0.089933775
0.01921917 1.8787518 -0.118596025
-0.09936498 1.3084592 -0.51624
0.9260669 -0.24661861 0.22795561
0.15208343 -0.41039407 0.4546961
-0.033506915 -0.25606757 -0.9135947
-0.91585994 -0.2597246 -0.8704491
-0.17504063 -0.4068137 0.25264823
-0.63006055 0.6657512 0.4546853
0.037632804 0.8848052 -0.8366391
-0.256253 1.2012138 -0.91719604
0.7329466 0.8192557 -0.293307
-0.28768095 0.14583157 -0.31347543
0.6492946 1.3493304 -0.23783183
0.43934858 -0.24073482 0.75452507
0.024746414 1.4296821 0.48944968
-0.42646766 1.5092243 -0.650741
-0.10743112 -0.24300352 -0.07950476
0.7963114 0.979895 0.42202735
-0.19162741 0.13240737 0.17797242
-0.18998852 -0.4191261 0.4408154
0.24465013 -0.08365657 0.53382283
-0.26157945 1.0833061 -0.19822888
-0.2947556 1.2871614 -0.40336686
-0.49507236 1.2925618 -0.45640767
-0.34532768 1.0562423 0.7327951
0.4182822 0.66163933 0.6775241
-0.54775965 -0.08424193 -0.54671836
0.08031401 -0.07307175 -0.6639874
0.23678583 0.99060917 -0.019892858
-0.7749491 1.1778162 0.2937935
0.39638212 0.7718997 -0.71309626
-0.62856114 0.8405011 0.5305077
-0.44033065 1.0047476 -0.6690362
-0.05779714 1.0420523 0.45987293
0.05276068 -0.27265513 -0.1845085
-0.76325107 -0.24784979 -0.10369766
-0.030498289 1.5465577 -0.52623886
-0.28482318 0.9208957 -0.3077404
0.31874588 1.1168973 0.56116915
-0.2568307 -0.23347579 0.36584955
-0.4306416 0.47250128 0.191405
-0.50425386 1.0744051 0.100517265
0.32001024 0.12629564 0.17894569
-0.10177088 1.3377466 0.12148915
-0.8988634 -0.40477943 -0.10417606
-0.57971084 -0.40528 -0.9150231
0.59887755 0.6660888 0.5535041
0.089640036 1.1186384 -0.8187187
0.23569238 1.3633082 -0.890803
0.42564654 1.2974453 -0.83954656
0.07396664 1.2820754 -0.32787415
0.3755427 -0.050798275 -0.18062156
-0.5311836 -0.4161264 0.29247126
0.09201303 -0.056013662 0.43152678
0.12377257 0.10426545 0.18683523
0.91678524 0.902032 -0.31144226
0.73074156 0.39994985 -0.2678089
0.7340232 -0.08541726 -0.8992363
-0.41521052 -0.2476798 -0.47303182
0.19976892 1.8565736 -0.14894643
0.10104962 -0.23220205 -0.031948283
-0.21593186 -0.40476626 -0.45242333
0.4626304 0.5972865 -0.2830544
0.42316237 1.1633017 0.2275854
0.33202642 -0.41702783 -0.57714343
-0.25813806 0.30474222 -0.62837684
-0.5068649 1.6993206 -0.116057724
0.41952485 -0.4130996 0.6153759
0.5114982 1.730454 -0.18208486
-0.085378036 -0.057982888 0.37054208
0.40981874 0.81295884 -0.5166165
-0.32788023 1.7987418 -0.22572905
0.23084943 -0.39584845 0.9136473
-0.19895312 -0.023536606 -0.41185308
-0.022037337 0.13227347 0.29797828
0.171125 0.64901793 -0.56850636
0.41468135 1.1404607 -0.4206001
-0.63031256 1.2647994 -0.26274645
-0.26801968 -0.22008087 -0.17700472
0.8342515 1.2540929 -0.44838008
0.5403793 -0.41194123 -0.48992586
-0.37977073 0.8664004 0.27789265
0.14389336 0.9625431 -0.52598774
-0.39995575 -0.2429887 0.25666985
-0.41843185 -0.068214014 0.20823109
-0.18416438 1.044871 -0.4210218
0.8929203 -0.094529405 0.90811455
-0.031216048 0.47595865 -0.3798043
0.92734045 -0.25010872 0.8602761
0.088384315 1.4357404 -0.43095946
0.20419255 -0.40879655 0.09692273
-0.054731973 1.0090252 0.6638006
0.36150104 1.8174407 -0.08494461
0.27593154 0.15595903 -0.43820578
0.6817415 1.2210627 -0.3942914
-0.44302714 0.70908237 -0.27696764
0.46139592 1.4757414 0.53995234
0.72831607 -0.41708648 0.4290893
-0.56166524 1.1054716 -0.7675144
0.5317846 -0.07250773 -0.3126406
-0.52175593 0.89303386 -0.80454266
0.7221308 -0.4172605 -0.3865712
-0.89658856 -0.092342466 -0.14220175
0.8241256 0.5208194 -0.13153824
-0.8680137 -0.092245236 0.9092481
-0.84507227 1.0938221 0.09113009
-0.15213257 0.8587243 -0.1595313
0.33236745 0.54923373 0.08088612
-0.16499028 0.290523 0.033539332
0.325518 1.6212721 -0.34644073
0.28224948 -0.2266626 0.21352956
0.15566632 0.8165126 0.03778884
-0.11233835 0.8431208 0.46916586
-0.11454807 -0.2586742 0.91715467
0.5335096 0.9029221 -0.84622884
0.7308221 1.1955168 -0.6152355
-0.09959349 1.5510688 0.33672035
0.23126496 1.3077714 0.027062774
-0.1431787 1.3195522 0.7296412
0.29343298 1.1695485 -0.08474081
-0.13220742 0.5864392 -0.68798316
-0.48200166 0.24113263 -0.27418503
-0.7361913 -0.4152994 0.0033862789
0.17030069 1.2731721 0.57653654
0.71535635 -0.08464125 -0.19046262
0.72842896 -0.08345827 0.012425536
0.4894808 1.5093958 -0.28475466
0.7004641 -0.41550496 -0.76016283
0.35808188 0.78664374 -0.019885128
0.25599545 1.4533703 -0.29203093
0.59729147 0.2692185 -0.20812199
-0.45666814 -0.08261019 -0.7350128
0.64966315 0.3405699 0.144102
0.31390378 0.67061317 -0.4218797
0.700217 1.3875556 -0.55641544
-0.47002634 1.5038905 0.00039921937
-0.757144 -0.25127345 -0.31744897
-0.4202611 -0.4098103 -0.19588813
0.83610046 0.79718626 0.31357235
0.36678454 1.3676227 -0.1446343
0.18467516 0.82792604 -0.977493
-0.77040553 -0.2535561 -0.5230206
-0.3372771 1.3419974 -0.59981185
0.2471682 -0.39953724 -0.2797531
-0.57885635 0.57251894 0.15518066
-0.6607638 0.95714015 -0.36105213
0.47639495 1.1823386 0.4318648
0.09883675 -0.23869334 -0.75551367
0.24581623 -0.044025876 0.31890538
-0.09349726 1.0084791 0.22947252
-0.55533373 0.9108173 -0.051704597
-0.89339966 -0.41035205 0.31835783
-0.86210054 -0.40329772 0.9044266
-0.6968683 1.3823991 0.25670856
0.33721465 -0.4166052 0.77502936
0.7233206 0.8121908 0.4917137
-0.5743355 -0.250333 -0.786722
0.23513983 -0.22073494 -0.196031
-0.89422584 -0.4046897 -0.7312141
-0.42124113 1.2208371 -0.813118
-0.1579937 0.8475249 0.28821796
0.62909544 1.6640189 -0.05418577
0.57368743 1.1239483 -0.29090142
-0.5931609 -0.24921636 -0.0030023956
0.76524687 1.1202325 0.0057776608
-0.8961835 -0.40803087 -0.32165235
0.83014464 0.8648468 -0.5156721
0.36116222 0.23814538 0.34758818
-0.64475113 1.5729527 -0.03195808
-0.72707415 -0.41493866 0.20830564
-0.3348784 0.8360586 0.73380566
-0.7430546 -0.084197044 -0.60570204
-0.21445915 -0.41087353 0.9004917
-0.6264156 1.3208368 0.4439639
0.9099513 1.2358297 -0.04872044
-0.7515742 -0.24140656 0.1041967
0.056749217 0.550445 0.2874239
-0.45695066 1.5275018 -0.20539492
-0.4927767 0.47074205 -0.19016737
0.23719817 0.6172718 -0.73364246
0.20992512 0.797848 -0.7953727
0.28846407 1.1630362 -0.93968886
-0.54298544 -0.41610307 -0.5255879
-0.38147953 1.0688756 0.5239723
-0.24237362 -0.04131844 0.2898196
-0.90051866 -0.09382351 0.34262344
0.08620924 -0.08568289 0.6563853
-0.43154347 -0.22847661 -0.098698474
-0.67567647 1.3028543 -0.536336
0.5004281 0.6657991 0.061101858
0.4067212 -0.025538107 0.025424872
0.21946615 0.32196862 0.5210178
0.78009784 -0.24845506 0.12176285
0.5364537 0.7366283 -0.13785456
0.18425465 -0.07881813 -0.8829979
-0.39290583 1.3542656 -0.10218787
0.5966873 -0.2482152 0.42556655
0.3583741 0.8200911 0.33651856
0.48539287 1.5852532 0.015542646
0.11060306 -0.23478116 0.14444397
0.70818573 1.3046653 -0.050687708
0.5837118 1.1868383 0.08257654
0.023625877 0.9692988 -0.6818166
0.01572233 0.8005407 0.19880256
-0.39656144 -0.414674 -0.3923356
-0.71845835 -0.085104436 0.6218159
0.54044 -0.4152941 0.3306587
-0.8953872 -0.09095527 0.5340061
-0.61841625 1.541898 0.17045328
0.017900756 -0.4115653 0.18127474
-0.6534878 0.933864 -0.68064106
0.75506586 -0.25237763 -0.28717285
0.4597375 0.6609483 0.3972008
0.05042879 1.0214051 0.8294872
-0.9205799 -0.2649877 0.21772468
-0.22753908 -0.09060243 0.898383
0.13897881 1.1178758 -0.62809336
-0.8505962 -0.406094 -0.91347265
0.3610071 0.76752317 -0.23226845
0.28893203 0.5872517 0.27367043
-0.5623333 -0.41327828 0.10736946
0.5112727 0.60231113 -0.48267987
0.20154245 1.6694069 -0.2063693
-0.38190633 1.0941582 -0.39845967
-0.9252709 -0.24568444 -0.64343274
0.89463794 -0.085455306 -0.28841463
0.6664578 0.60280275 -0.035732634
-0.6865536 1.1114374 -0.21683413
-0.24537374 1.0000088 0.37555748
0.28832304 0.66233015 0.49936652
-0.46855295 1.3838902 0.5579716
-0.009034956 -0.061170526 -0.33440894
0.5559 0.8639359 0.008894699
-0.5131458 1.3212433 0.0732097
0.17156875 0.72999275 0.31770688
-0.7266891 -0.4176317 -0.4248247
0.38393092 -0.41125685 -0.39081076
-0.09049255 -0.08199692 0.7469696
0.20402022 1.2306814 0.77265525
-0.45916706 -0.05436914 0.011099504
0.5386952 -0.4205642 -0.6706353
-0.40864462 -0.08759467 0.5985705
-0.0053794794 1.5205226 -0.029669201
-0.6603791 0.38796955 -0.0047361497
-0.42674756 -0.40837568 -0.0064741224
0.24338394 0.4637333 -0.5897126
-0.63569975 0.36507434 -0.20958218
-0.12879625 1.6941109 -0.60362875
0.49238244 0.5482905 0.23887065
0.5792488 0.91790664 -0.2190086
-0.06255001 -0.2358438 0.0900013
0.5798444 -0.084220916 0.5343735
0.16856928 0.84511065 0.8001932
-0.6982578 -0.41184878 0.60073495
-0.17431079 0.93372476 0.79798424
0.5218982 1.2715774 -0.5245619
-0.88897574 -0.087247364 -0.7346014
0.9366125 1.0238575 0.043453272
-0.56742257 1.2498983 0.26263526
0.18605328 1.2978673 -0.7391286
-0.08608252 -0.40360087 -0.32433227
-0.28217614 1.0781962 -0.73335916
-0.24697447 1.5548098 -0.7228508
0.6222398 1.0260857 0.40677923
-0.39367062 -0.06764805 -0.41622007
0.24890038 -0.1352993 0.9240194
-0.76732844 -0.24113208 -0.7415029
0.7216655 1.2698379 0.15884373
-0.45030984 1.1684234 -0.5931138
-0.317277 1.0214796 0.16246042
-0.30134648 1.5257075 0.27676415
-0.28819805 0.45603532 -0.76690555
0.09443952 0.7693121 -0.4363389
0.13697913 1.0804442 0.6672909
-0.5842253 1.1362334 -0.40749636
-0.0036681816 1.6217642 0.53750944
-0.19007835 1.666197 0.19294775
0.047598485 0.40428522 -0.043711144
-0.09895015 1.847406 -0.29784548
-0.056690633 1.3576424 -0.17129359
0.049911633 0.55024815 -0.18797201
0.057633415 -0.061371148 0.045238674
-0.48282897 0.9473181 0.6562109
0.27274165 0.94507444 0.62362397
0.7270652 -0.4191453 0.2270517
0.42468303 -0.23225695 0.077259496
-0.8430083 0.6973556 -0.04859078
-0.46698886 0.44716388 0.012401157
0.23294136 0.46333155 -0.074097455
0.09506874 1.1486688 -0.010681948
-0.41554478 -0.08397651 0.88589835
0.28137916 1.2314328 -0.27403158
-0.34645835 1.7616012 0.18623501
-0.47478724 0.7212284 -0.795382
-0.18861449 0.49882454 -0.24481444
-0.9259517 -0.25137854 0.86763906
-0.25878912 0.7449099 0.5726026
0.35759985 -0.41783643 0.42848814
-0.2085568 1.1659822 0.16266845
0.036311656 -0.41283858 -0.015438692
0.41634467 0.35610527 0.49077776
-0.42329353 0.85906553 0.080263376
0.18553373 -0.40739775 -0.4472782
-0.41603404 0.59914845 0.31479734
0.19051 1.4981136 -0.08980569
0.058002964 0.71853304 0.45750418
0.89564866 0.7068429 -0.20926797
0.21766478 -0.051171966 -0.08678149
0.70455956 0.3594703 -0.05639133
0.20480126 0.9786794 -0.7679347
0.42002973 0.413059 -0.6896728
0.14390314 1.070114 0.47593826
-0.15223062 -0.4110844 0.06699616
-0.16548565 -0.027775165 -0.21416754
-0.47943002 0.748065 0.6304108
-0.5411736 1.3218347 -0.6922934
0.9001847 -0.4077323 0.123135686
0.8434669 1.3737669 0.07950007
0.5594146 -0.41329026 0.74183875
0.036797345 1.4229634 -0.8712113
-0.24281096 -0.24669792 -0.5850936
0.55159146 1.3321706 0.25242686
0.89592016 -0.40822625 0.535136
0.2745083 1.6686144 -0.008460175
0.35370076 -0.0869223 -0.90515435
-0.080423385 1.2691119 -0.92910373
0.11636371 -0.07236901 0.8578793
0.004769354 1.69448 -0.1957945
-0.20282102 1.8300245 0.08021368
0.29536068 1.7328683 0.3364329
0.6322156 1.6226945 0.14878836
-0.5519801 0.98624396 -0.5187895
-0.2592817 -0.089017436 -0.7458739
0.71922755 -0.08211952 0.8747041
-0.72170496 -0.08247252 -0.22397733
-0.44715238 -0.24367052 -0.6316452
-0.4673711 1.6981244 -0.30675972
0.6369662 1.058804 -0.76015806
-0.58432245 0.9029623 0.20782435
-0.3153094 0.8705288 -0.72231805
0.38445702 0.6098585 -0.6125188
-0.053099234 0.7743691 0.63586247
-0.28766128 0.5330922 -0.59304833
0.44987434 0.15212256 -0.1725398
0.9076917 0.8182052 0.115730084
-0.35457623 -0.41637436 0.3551392
-0.34936014 1.3886368 -0.7975371
0.26742178 1.0327328 0.7986654
0.73809534 -0.08287594 0.43104076
0.37787873 1.5900886 -0.15345383
-0.9240017 -0.2526248 -0.42498216
0.4486161 1.6094923 0.40211442
-0.10478014 0.3631998 0.5764387
-0.8845329 -0.41024214 0.52211094
0.52805346 0.93687934 -0.6260135
0.5529777 0.83483803 0.42357576
-0.2859305 0.31064057 0.45989087
0.551328 0.8295183 0.6524187
-0.15344897 -0.25944722 -0.7621832
-0.7110723 -0.2611428 -0.926036
0.42248988 1.2812304 0.057927523
-0.09404656 -0.24016118 0.62835634
-0.16549623 -0.09001316 -0.915051
-0.821952 0.95168185 0.22502491
0.13698484 0.40843362 -0.26108024
0.5751405 -0.08717792 0.7449319
0.012158593 0.79629993 -0.6195847
0.1739223 1.8603125 0.047187258
0.2319772 -0.4193089 0.60575473
-0.44609585 0.39164352 -0.603583
-0.25862932 0.53377837 0.055041127
-0.5876081 1.5545638 -0.3878455
0.039780207 -0.22356328 0.46622068
-0.59915173 1.0324593 0.5487083
-0.7375487 0.79803115 0.339234
0.7460493 -0.2542596 -0.08482452
-0.25599766 1.1556776 -0.55283886
-0.018896969 1.1692424 0.14246733
0.7174326 -0.083436 -0.38872176
-0.6704072 1.1406056 -0.6194563
-0.76132464 0.5611778 0.07325531
0.5704719 -0.08328411 0.32665712
0.2448135 1.4299312 -0.60886484
-0.10658112 1.4182402 -0.35598272
-0.26381212 1.7026904 0.36753297
0.40528834 1.4658561 -0.46963936
-0.4620068 1.0543215 0.31534225
0.3519206 0.3312346 0.044820942
-0.14965725 0.31879592 0.2354005
-0.3712235 0.8890785 0.4902642
-0.048657134 0.6601152 -0.30821794
0.30828846 -0.23906264 -0.77695686
-0.08129649 0.6658553 0.32686043
0.616941 -0.2686015 0.06883505
0.64338577 -0.25454685 0.24776116
-0.4023835 1.4630753 -0.43514055
-0.16487156 1.4158167 -0.8553394
0.09991457 -0.40666673 -0.61137676
-0.16391529 0.76428723 -0.95424986
0.64282227 -0.2435911 -0.91699225
-0.58787835 0.49992013 0.3698932
-0.59019125 -0.25614354 0.22417524
0.5681618 -0.41570303 0.5238941
-0.11872865 1.0466036 -0.0046245903
0.30627638 1.1443834 -0.7562326
0.07012464 0.9078101 0.5847151
-0.6541655 1.0712445 0.22202998
-0.11236577 0.60957754 0.52342975
0.89676964 -0.089685336 0.7344986
-0.5764356 1.4606351 -0.5438256
-0.5707576 -0.090266496 0.32223827
0.4355207 0.19595069 -0.3464248
0.35537973 1.2944238 0.53355813
0.30066726 1.4054695 0.67654955
0.7291573 1.0657725 0.198825
-0.12825236 0.6463214 -0.102222055
-0.10443379 0.66609085 0.116646826
-0.6170783 -0.25761768 0.4229123
0.1723947 0.696615 -0.2737528
0.9179112 -0.24959074 0.6477055
0.1468884 1.0242043 -0.9855884
0.40928665 -0.23357114 -0.28688294
-0.50718033 0.27221414 0.12218789
-0.5222455 -0.26071647 0.59330773
-0.28749362 0.56705546 0.45624936
0.92484176 -0.24769518 0.44219294
0.5908211 -0.2523868 0.6457695
-0.5389935 1.1927834 -0.08914284
0.56684077 1.0023398 0.13566543
0.8893267 0.9804652 0.23491019
0.21266633 0.3917694 0.33246735
-0.3480871 0.5650692 -0.32887506
-0.75054824 -0.2480286 0.53899455
0.20472886 1.7744112 -0.47785816
-0.010847319 1.66732 0.15869084
0.5404706 -0.08621234 -0.907372
0.28661925 0.47801653 0.6297206
0.09594606 -0.24867836 0.9250253
0.6467656 -0.081100896 -0.73174083
0.019350821 1.120199 -0.41229495
-0.039744504 0.10112991 0.05923689
0.47952634 1.1056828 -0.86851656
0.17035344 -0.063346624 -0.2836379
-0.7911619 -0.25092748 0.73142743
-0.7345973 -0.08197884 0.42187223
0.5532286 1.1314507 0.63017994
0.21249883 1.1168747 -0.417508
0.119534515 1.2738237 0.19091243
-0.31538635 0.6177409 0.6806446
0.5802711 -0.24010272 -0.20624429
-0.16424373 1.1283596 0.7868264
0.81874514 1.15257 0.34450868
-0.53996 0.7311815 0.2683581
-0.18464124 1.706635 -0.21000394
-0.6247721 -0.40360522 0.9054563
0.25403228 -0.21580449 -0.39996284
-0.5472511 0.35840827 -0.41650236
-0.44524264 1.6390967 -0.4832581
0.77880675 -0.2502914 0.34201264
0.9161842 -0.24109443 -0.59382796
-0.13452013 -0.06469845 -0.017225273
0.06891495 1.2416391 0.41240424
0.3517141 -0.026200527 -0.36200193
0.65431064 0.9800277 0.58545065
0.5586784 1.462496 -0.11193399
-0.67677677 1.0795021 -0.024479475
-0.39737803 1.0329268 -0.884848
0.8971391 -0.4075341 -0.083266124
0.7408109 0.6310444 0.40350878
-0.118120685 0.42711633 -0.5568839
-0.3088933 0.41193634 0.31958207
-0.33861625 0.43529403 -0.45491904
0.07812551 -0.24901897 -0.34913114
0.7399584 0.68639904 -0.60255075
-0.47868326 0.8170725 -0.5965339
-0.007254338 1.2019818 0.60114866
-0.65505505 1.2259285 0.080853425
0.25845128 -0.08107844 -0.7019389
-0.8947724 -0.40670976 -0.5312904
0.053188495 0.50922346 -0.6718406
-0.22085011 0.9417104 0.6001569
-0.020754691 0.6244941 -0.5189198
0.89118797 -0.40801173 0.73424435
0.23742187 -0.052756824 0.11368644
-0.1942594 0.59459066 -0.437128
0.061621718 1.5004735 -0.2420921
-0.43230456 -0.23742668 -0.28903243
0.90033245 -0.08786537 0.53584313
0.8846942 -0.40173438 0.9062356
-0.036743455 1.1665004 -0.16483867
-0.4468491 0.7307799 0.4441585
0.5637424 1.5692999 -0.530407
0.30061412 -0.40402728 -0.914453
-0.29086328 1.4272197 -0.26273504
-0.48547786 0.32986546 0.30962425
-0.33743927 0.7485906 -0.44788712
-0.144696 -0.40949535 -0.9082823
-0.1542931 1.5056717 0.12933844
0.5016756 0.78929114 0.20471182
0.30220115 1.5954328 0.52490395
-0.37489736 -0.41509557 0.5558033
0.59492725 0.49501622 -0.35513175
0.2013665 -0.41315266 -0.75078976
-0.13638903 1.6712325 -0.016647361
-0.51995516 -0.07191601 -0.15755668
0.5428288 -0.101785265 0.9171629
0.79443836 0.4818274 0.071566895
0.53555727 -0.038289085 -0.11020666
-0.21395665 -0.2546949 0.7595798
-0.024989855 0.89605474 -0.99798155
0.11549814 -0.41875 0.74971044
0.26559955 -0.2247611 0.012760075
-0.3462612 -0.41129234 0.15524259
0.29524815 0.29588455 -0.20421916
0.02838437 0.6941613 -0.9521786
0.23601428 -0.24737586 -0.5940322
-0.08274991 1.4843938 0.64801764
-0.0474327 1.7344725 0.393557
-0.2205786 0.9968381 -0.9649503
-0.44335318 -0.2589603 0.42681068
-0.16788584 1.8575604 -0.10158748
-0.12450598 -0.25695223 0.46176493
-0.3247139 0.6931495 -0.6733397
0.13569304 0.650566 0.1371789
0.22128996 -0.25545442 0.7788637
0.9314011 -0.24572468 -0.7815745
0.4265743 -0.25401095 -0.6316683
-0.27221185 -0.23455128 0.016601678
0.29890007 1.2041357 -0.57180893
0.7210606 -0.39966136 -0.917232
-0.7146512 1.3985434 -0.36874828
0.08344774 1.6907704 -0.021115664
-0.30927196 0.3515578 0.12635314
0.15867868 1.5435579 -0.7810677
-0.91885364 -0.2566194 0.42705953
0.44593355 -0.2487272 0.5243506
0.3995475 -0.25062603 0.3510933
-0.9116216 -0.102313966 0.16420346
-0.46934074 0.5483819 -0.7201361
0.48585474 0.21910934 0.16732128
0.43701977 0.383048 -0.30674428
-0.2838401 -0.030062415 0.10019472
-0.0116626425 0.024093792 -0.4863044
0.7351795 0.7865698 -0.08970626
-0.41140896 -0.2406148 0.7463938
-0.20403165 0.2785332 -0.1828028
-0.06368865 -0.23111226 0.27945173
-0.20790234 1.442425 -0.051881433
-0.38762993 0.86340225 -0.16419691
0.8126966 0.5565276 -0.33184642
0.9018884 -0.08518626 -0.4904069
-0.28323188 1.1808474 0.36673266
0.18409654 0.7665715 0.62477195
-0.2809332 1.4448934 0.626153
0.5947751 0.49116546 0.43815976
0.29034716 0.5257643 -0.2540323
-0.62047744 0.700752 -0.6589172
-0.16713853 0.17528862 -0.4851675
0.38024104 -0.41314274 0.016450476
0.08363974 -0.40583542 -0.9085491
-0.13399446 1.2108543 -0.33858013
-0.6932457 0.7541472 -0.08427483
0.46532992 0.52487403 0.5743575
0.009855995 -0.40867895 0.9061042
0.0129261 1.2032971 0.7931583
0.4821211 1.7569194 0.04636427
0.40585423 -0.055955872 0.2204552
-0.39361948 1.2180572 0.20225218
0.094579116 0.32610857 -0.727175
-0.42589736 0.6479666 0.08483165
-0.19545123 0.8777423 0.11747801
-0.02293546 0.23199117 -0.08482335
0.2602896 -0.08393752 0.726827
-0.8699907 0.90099657 0.009336146
0.51846504 1.3085486 0.6125231
-0.7021023 0.9212613 0.06950097
-0.013567619 1.8603537 0.074457854
-0.7321092 -0.08468591 -0.8981906
0.3968945 -0.41410893 -0.18022048
-0.045008093 0.35940114 -0.2286306
0.123169065 -0.25973687 0.60840327
0.89598715 -0.08612843 -0.08855041
0.88399756 -0.08027938 -0.70496595
0.55366147 -0.41352162 -0.28646863
-0.12267268 1.30423 0.5126103
-0.46145678 0.89414954 -0.37494236
0.37013483 0.9369433 0.13170666
-0.30047932 -0.24988803 0.5711248
-0.3561675 0.36737615 -0.27439234
-0.37211418 0.24625689 -0.46347165
0.41432655 0.5760014 -0.8166645
-0.6087687 0.5154697 -0.55282825
0.6324483 0.6905217 0.29839367
-0.6418169 1.5634546 -0.22161865
-0.046249792 1.3610303 0.3102678
-0.5942782 -0.09130227 0.12637703
-0.7297758 -0.08039265 0.7957473
0.48904735 -0.23633158 0.22345692
0.034765847 0.06802438 -0.15288463
0.23423058 0.3289004 -0.40407598
0.2226356 0.6253644 -0.91489923
-0.045810007 1.5793673 -0.76013404
0.7666633 1.3345367 0.3270282
0.37138915 0.4724267 -0.4546154
-0.3546902 -0.040623214 -0.25363022
-0.80705583 1.2746406 0.13483413
0.22217298 0.8795748 0.4483841
-0.059957787 0.24679855 -0.624254
-0.3719964 0.14955142 -0.13858396
-0.8073695 0.8298745 -0.37881857
-0.5200943 0.5408141 -0.3811654
-0.38511592 1.5534651 0.46768117
-0.13460687 0.45619535 -0.064477146
-0.112437785 1.8139329 0.24695072
-0.92204165 -0.25512147 -0.216417
0.5572579 -0.4034639 -0.07485689
-0.8467289 1.0256798 -0.31266466
0.85424364 -0.2493627 -0.9273497
0.47522488 1.1283498 -0.6530689
-0.187357 0.33781987 -0.38718122
-0.34205627 0.57188356 -0.12008004
-0.29123712 0.71685624 0.18629345
-0.083557725 1.0101907 -0.2592199
0.11265664 0.23427153 -0.22377053
0.61572456 1.1745927 0.3033663
0.7520862 -0.25121576 0.544027
0.8924385 -0.40764576 -0.68513215
-0.03102958 0.936732 -0.47149116
-0.33274454 0.35611093 -0.07643536
0.34801424 1.4735816 -0.778624
0.40160793 -0.23766273 -0.103436455
0.3920232 1.7025533 -0.49824113
-0.14378244 0.2217283 0.40136084
-0.23725006 -0.08466369 0.50548506
0.21384086 -0.406745 -0.09560849
0.16236404 0.10990584 -0.003791837
0.7024324 0.75300664 0.11013063
0.34031072 1.8039234 -0.3035928
-0.8646412 0.8532797 -0.18901142
-0.039885245 -0.095076814 0.9118068
0.9379503 0.86018753 -0.08964045
0.03919605 0.5921459 0.0047022933
-0.27595675 -0.082273416 0.7103894
0.43373352 0.37152892 -0.1144481
-0.31713626 1.6022282 -0.11588329
0.41392034 0.57974315 -0.09567518
0.19049498 -0.24711841 -0.9243256
0.11581241 0.9596411 -0.3250265
-0.2493757 1.7711159 -0.42114782
0.54943395 -0.08135447 -0.5231334
-0.31005418 1.3659666 0.08702146
0.41597992 1.5696373 -0.6402763
0.60172594 1.0762846 -0.5060537
0.9017535 -0.08599822 0.11707872
0.67949367 0.88811255 0.26034677
0.6460565 0.5665016 0.14219281
-0.2727859 0.45365345 0.59870803
0.21350597 1.5626018 -0.49547678
-0.426723 -0.4079221 0.8958817
0.1542376 1.3993702 0.3123751
-0.73629034 -0.24711329 0.91914034
0.3816003 0.7654136 -0.90520704
0.592376 -0.2458922 -0.39712033
0.7210385 1.0082328 -0.34935606
0.5454954 1.4315741 -0.6805546
0.36637828 1.4580052 0.021938015
-0.8018385 0.671324 -0.26344618
-0.7578138 0.52082086 -0.13603187
0.39070308 -0.41260213 -0.7610581
-0.6155523 0.6285528 -0.23952016
0.7304177 1.4743267 0.20399755
0.72295785 -0.41779202 -0.18307564
0.74400353 1.5299625 0.0022846744
0.73659074 -0.08257017 0.6484386
-0.6183572 -0.2558062 -0.6134231
0.03993228 0.9623994 -0.103863694
-0.2528288 -0.40368938 -0.26432705
-0.33398235 0.2112503 0.27208072
0.18203115 -0.034928598 -0.48781848
0.23249792 0.63065326 0.741603
0.07462932 1.6883147 -0.6281197
0.46810934 0.9587358 -0.38009632
-0.64537156 -0.080377385 -0.7382482
0.16977784 1.6663606 0.17107093
-0.52208275 0.25821403 -0.07443907
0.30625266 -0.24956527 0.618592
-0.017049082 1.7897878 -0.47285825
-0.26183677 0.7333446 0.3805656
-0.32644504 1.5885434 0.07986211
0.8997958 -0.40801343 0.32955843
0.24831516 1.1233323 0.14360678
0.016752344 -0.24479645 0.7666085
-0.77540624 1.185681 -0.4251904
-0.5056214 1.0247605 -0.23602718
-0.47951546 1.197856 0.42910174
0.31620777 0.7365255 0.15677574
0.6688837 0.68362606 -0.42376202
0.56019115 -0.17770961 -0.04881084
-0.6413214 0.41602182 0.19089922
-0.58093184 0.7492585 -0.4311803
-0.27422553 0.7456858 -0.02399413
-0.29876113 1.6550283 -0.5684886
-0.82579637 1.2382061 -0.24977048
0.20585269 0.864698 -0.16669662
0.67313004 1.5550475 -0.3925357
-0.9285739 -0.25223166 0.6273619
0.47308064 -0.41190493 0.9054812
0.7356936 1.1599412 -0.19196197
0.1863457 1.4872322 0.10715143
-0.31621572 -0.041583914 -0.08153947
0.07034119 1.3806624 0.71789706
-0.75871944 1.4168547 -0.1641863
0.100635424 1.0866933 0.28502676
-0.18179199 0.7587258 -0.5731319
0.07373433 -0.061557144 0.2473276
0.18822779 0.53454417 0.44923973
-0.12799397 -0.4155174 -0.6082357
0.2868622 1.5347865 0.31426635
0.8993826 -0.40638888 -0.48646614
0.22999267 1.4314518 0.47272915
-0.4237085 1.0395274 -0.071153946
0.41912872 1.3830138 0.37659213
-0.12554964 0.44952574 0.3881456
0.16065507 0.45299995 0.12962286
0.45810556 1.3071731 -0.3130676
0.72997236 -0.4205347 0.023430824
0.084880814 0.6034378 0.6012782
0.092073336 1.5798697 0.34051847
-0.23186958 1.3441849 0.26765394
-0.04747413 1.088819 -0.98237306
-0.30421898 0.634074 -0.859015
0.15172377 1.6969365 0.45421448
0.59942234 0.31653655 -0.40308088
0.8968185 -0.40796995 -0.28529948
-0.5721282 -0.4136604 -0.31435013
0.03400179 0.34058702 0.2997573
0.027634611 -0.08932401 -0.9118923
0.6011617 1.0488114 -0.07645725
0.10685573 1.8135546 0.26025128
-0.70012295 0.49110448 -0.34536242
-0.1900746 -0.412026 0.61148244
0.5860654 1.4071455 0.06762843
0.26464978 1.2262597 0.36212742
-0.35741746 0.16395845 0.055348225
0.5604949 0.7418768 -0.5961031
0.058404997 0.98474663 0.10442208
0.75651026 -0.24128616 -0.7341283
-0.13132226 1.5369875 -0.19691533
-0.32130772 -0.41579944 0.74062854
-0.08933732 -0.41541326 0.7547485
-0.6205461 -0.24969769 0.73868203
-0.13543163 0.75789195 -0.76940584
-0.2539747 -0.25630012 -0.92156696
0.7255845 -0.41323924 -0.5795327
-0.5952821 -0.25179476 -0.4210341
0.8331717 0.63310134 0.20249854
-0.1345931 -0.07311911 -0.5905875
-0.00905785 1.2771935 -0.72923154
0.7173302 0.50592107 -0.49819478
-0.33425695 1.1789613 -0.0049152398
-0.1447185 0.81453604 -0.40183184
-0.55398965 -0.09060543 -0.9129441
0.30399108 1.0357957 0.34798545
-0.81205463 0.75691015 0.15095684
-0.26258707 -0.2140649 -0.37433124
0.52525395 -0.41103622 -0.8975644
0.42366123 -0.23258905 -0.4641891
-0.7021495 -0.418123 -0.7980106
-0.32296246 -0.25152272 0.9200572
0.37301368 -0.4114337 0.21672185
0.04466775 0.74429035 -0.12026772
0.081558555 0.3933773 -0.5267464
0.81982064 1.4331821 -0.14039823
0.6957725 -0.41732922 0.8787069
0.5529506 0.22770983 -0.010404983
-0.55774045 -0.08563789 -0.33909762
0.67696583 0.6424478 -0.23012358
0.5277291 1.6903691 -0.35962713
-0.09875159 1.1033392 -0.7937224
0.710142 0.47203732 0.2794109
0.06311698 1.4477899 -0.64551955
0.8951695 -0.40606794 -0.8796412
0.58704734 0.55485165 -0.6773741
-0.724218 0.6127355 0.26915622
0.47985423 0.98391974 0.29872942
0.5441395 -0.25509143 -0.77369
-0.3608007 -0.0874783 -0.90958357
-0.09930615 0.38738725 -0.7689414
0.033012353 0.463288 0.47300318
-0.22786076 -0.21808591 0.18126106
-0.23622668 1.2693496 -0.18706042
0.04315035 0.6513057 0.77375364
0.201366 0.9123985 0.21942112
0.3771386 0.48375058 0.4001568
-0.925402 -0.24305442 0.0022622542
0.0060636858 0.2714516 -0.40878004
0.14237508 1.5325584 0.62077284
-0.80893755 1.2555354 -0.059384793
0.3799545 0.9561092 -0.7432915
-0.057257462 0.82796496 0.012294421
-0.6114332 0.81941426 -0.24530107
0.6112781 1.5222281 0.35256028
0.035616916 0.2627403 0.4887528
-0.5220479 -0.41858685 0.7145715
0.7531766 0.93040866 0.05104712
-0.29724774 1.600905 -0.33749008
-0.59300625 0.57538134 -0.04700522
-0.14833294 1.2368724 -0.023811437
0.5165983 0.77222663 -0.3495138
0.9031808 -0.086506486 0.32796627
0.24632101 -0.23954487 0.4359612
0.27435893 0.86702454 -0.39171952
-0.47435495 0.5723969 0.5547056
0.111940324 1.8427248 -0.3165076
0.08739267 0.43264222 0.66156495
0.11165519 0.19193915 -0.5513903
0.5286276 1.2491119 -0.109088905
0.3947047 0.8030534 0.5459955
0.6114867 -0.24662925 -0.59831285
