0.58800966 2.3739076 0.6208718
0.44712055 1.5388908 0.07488324
0.4524868 2.5567021 0.38210142
0.74785686 -0.25173628 0.75610644
0.37813315 2.0156393 0.6049149
-0.6098889 1.9989268 0.44321603
0.0013071967 1.268658 -0.3824795
0.64930797 2.1898413 0.6368468
0.28535235 2.833431 -0.47303036
0.77608556 -0.24923913 0.93381923
0.46322817 -0.08541981 -0.7280435
0.0067981347 -0.4163986 -0.46872762
0.023635793 2.4549952 0.13581595
-0.75045526 2.1241264 -0.09332139
0.28913075 2.4319592 0.35336763
0.102052346 -0.2458422 -0.52908534
0.29209226 1.4766495 0.22299236
-0.33527642 -0.08550148 -0.58190084
0.10273387 1.7158034 -0.36741906
-0.90554583 -0.096252196 0.7347805
0.46177068 2.767853 0.43088263
-0.60990655 2.54322 0.028236445
-0.4720427 -0.25246048 -0.92482364
0.42825997 -0.0821809 0.64451826
0.20641354 1.4706848 -0.61778206
0.86025876 2.3801486 -0.08141233
0.87424046 2.2256234 -0.19128688
-0.28993404 2.091819 0.023733836
-0.21385118 2.6909876 -0.34888995
0.18137863 1.2397819 -0.23087205
-0.44141346 2.3947272 -0.14343253
-0.7617422 1.8785454 -0.443852
0.0038841607 -0.08550194 -0.12782547
-0.7473848 2.5820417 0.17239979
-0.7237185 -0.08434357 -0.41955352
0.31660616 2.1797252 -0.45523208
-0.590123 -0.41536584 -0.104792684
-0.37649763 2.3574245 0.6587675
0.096277766 2.456106 -0.4051028
-0.30036816 1.8747747 -0.22566745
-0.057332575 2.326845 -0.48510072
-0.2560323 2.1959424 0.6710359
-0.7542404 -0.07814662 0.22132686
0.20938902 1.6557491 -0.7665895
-0.055232763 -0.08819784 -0.7620408
0.7566478 -0.25041252 -0.4942515
-0.56053555 2.2573864 0.7136886
0.5939149 2.4338295 -0.6055032
-0.103208825 -0.24665105 -0.46115303
-0.16475163 2.172545 -0.7399358
-0.11263844 -0.081225626 0.18913606
-0.7869005 2.250844 -0.43813312
0.37504297 2.044188 -0.0049745906
0.13501275 2.451675 -0.020400554
0.19544193 2.0168536 -0.52992535
0.92275625 -0.24805704 0.0071018697
0.032541595 1.7401347 -0.8331761
0.8174798 1.8580818 -0.33589214
0.6893958 2.6912584 -0.011707835
-0.25827008 1.2352614 -0.108362734
-0.44122636 2.4679244 0.48285776
-0.12750289 -0.24540354 -0.26331782
0.8547818 2.2385566 0.30238757
-0.7184379 -0.42026561 0.7749393
0.33043224 2.1987238 0.8447934
-0.4977237 -0.41900563 -0.7291359
-0.7469425 2.0706334 -0.50485146
0.12055415 1.378042 0.17241098
0.26912 1.8312063 0.8269982
-0.56246626 -0.08517492 0.5523442
0.7515526 -0.08799259 -0.59038836
0.82311845 2.207841 -0.36342704
-0.12582687 2.6398025 -0.5140153
0.28719527 1.2458808 -0.019645195
-0.026720215 -0.41423646 -0.76713145
0.73220956 -0.41802412 0.6456784
-0.14969814 1.8174183 -0.84601533
-0.5004506 1.8645642 -0.51396215
-0.020569265 1.985496 0.42856342
0.5652685 -0.08440385 0.10923833
0.20968798 -0.41605306 0.2935654
-0.35324526 -0.4169436 -0.58509755
-0.37714472 2.2940636 0.8146844
0.11583388 2.4750638 -0.8238713
-0.8913425 -0.09837067 -0.91123176
-0.78501093 2.098086 0.45246685
0.09203608 -0.4205814 -0.25286424
0.3866507 2.1845815 0.13830504
0.45918095 1.4016664 0.33698452
-0.06111385 -0.08207431 0.57255876
0.114547834 2.8050952 -0.20160711
0.111716084 2.2604377 -0.09823343
-0.76260775 -0.24066938 0.32646483
-0.50401175 2.8208504 0.25147086
0.41408736 2.222557 -0.077913806
-0.52223945 1.5164446 0.44973338
-0.8712034 -0.08341797 0.02306904
-0.5336616 1.8719467 -0.03741065
0.73661005 2.1805506 -0.5159391
-0.20948869 2.4833772 -0.5962106
-0.21447113 2.668416 0.68117416
-0.3447936 2.9282978 0.1590511
0.5405196 1.9075145 -0.70936006
0.32746345 2.682931 0.33638042
0.67266405 2.0285525 -0.60864925
-0.40188098 -0.08847427 0.44934005
-0.62048876 -0.092168 0.917498
0.41308105 -0.083130054 0.4332803
0.5994295 -0.26366723 0.9007695
0.92013603 -0.246739 -0.39346457
-0.8970597 -0.40736932 0.10855623
0.7436372 2.0732331 -0.039589025
0.9181559 -0.24765652 -0.1940297
0.50178 1.5777067 -0.52555037
-0.5332259 -0.41989914 0.47491157
-0.17867556 1.2779932 -0.29888082
-0.7050264 -0.4146893 0.4001549
-0.13870323 1.5794106 0.143673
-0.3460245 2.1634426 -0.4440931
-0.8990159 2.2575896 -0.043537363
0.008063305 -0.41599715 0.5815135
0.10909883 1.3742172 -0.032427967
-0.6925658 -0.07856581 -0.012724098
-0.7139149 -0.41685992 -0.6224772
0.027615435 1.9218407 -0.69089854
-0.89630467 -0.40731138 0.72130036
-0.90280724 -0.092257574 -0.5282929
-0.6117717 -0.25080138 -0.21147919
-0.3505852 2.1070871 -0.8412744
0.43004575 -0.2543553 -0.92495
-0.5835872 2.5961637 0.5021477
0.0017090952 -0.4168448 0.3762926
-0.25903264 1.7526202 0.80113184
0.33759016 2.1818042 -0.8389309
0.40693235 2.5140615 -0.5061964
-0.51678205 2.5793533 -0.1653856
-0.5224102 -0.24508888 0.9134382
-0.49120417 -0.25402108 0.11817434
0.6147932 2.033845 -0.3788296
0.0018911463 2.5717762 0.32527196
-0.0644134 1.3830872 0.097875655
0.07940118 1.2643074 0.3378272
-0.26317784 -0.41845232 -0.74902046
0.4030042 -0.26898277 0.9235654
-0.24979027 2.5086489 0.5716743
0.3971362 -0.08427813 -0.53502834
-0.17295624 2.179386 -0.53490907
0.8289804 1.7488494 0.06262384
-0.4753778 2.569594 0.32916167
0.37672335 -0.07643288 0.87594914
-0.096836604 1.8555477 0.86310387
0.26487917 2.48972 -0.28618622
0.31241775 2.8902936 0.35205296
-0.35772505 -0.2541911 -0.7723229
0.7369432 -0.081553295 0.21668944
0.26914367 2.1465855 -0.1421267
0.38515595 1.9939535 0.81246376
-0.4724868 2.7471294 0.44358522
0.5568299 -0.42294592 0.12778994
-0.71095955 2.2560806 0.53284204
-0.14654222 2.2656336 0.45690444
-0.03295754 -0.2496199 -0.63544965
-0.5471891 -0.08489637 0.74715066
0.78457713 2.5439644 -0.16191092
0.16397366 1.7755685 -0.031208524
0.9096985 2.1624393 -0.024604168
0.52229786 1.6128459 -0.10793969
0.5843723 2.5391512 -0.24607232
-0.08569391 2.8063264 -0.2082578
0.3581499 1.4470737 -0.506006
-0.08908743 -0.41672373 -0.13843676
-0.74337035 -0.41547173 -0.21494392
-0.2694263 -0.41647017 -0.05851945
-0.28827962 1.670707 0.2482886
0.9032612 -0.08908369 -0.89707506
-0.37379676 -0.41054976 -0.901897
0.119915664 -0.25409186 0.31892115
-0.8960033 -0.09189351 -0.33246398
-0.027791005 1.9983954 -0.19431633
-0.20354019 1.574216 0.7031381
-0.67247784 1.8930104 0.122775584
0.033829875 3.010682 0.08253595
-0.09763925 2.5031085 -0.384289
0.92523766 -0.24689358 0.22220165
0.16242474 -0.4140043 0.46600938
-0.036341555 -0.25618953 -0.9152478
-0.9154153 -0.2598539 -0.8717226
-0.16189216 -0.4146111 0.26096395
-0.70346165 1.767364 0.46697307
0.027915858 2.1309466 -0.76362026
-0.25367826 2.465856 -0.7969116
0.6986786 1.9496081 -0.20233215
-0.3486123 1.3410199 -0.35543847
0.63628304 2.465094 -0.074099384
0.4471869 -0.23950295 0.7574568
-0.013997856 2.489471 0.6290781
-0.4111333 2.7440686 -0.49859256
-0.11710051 -0.2513247 -0.0616495
0.7381406 2.0028849 0.52688956
-0.26620102 1.242879 0.124105826
-0.17797199 -0.42088366 0.4486208
0.25627905 -0.083980635 0.54096997
-0.28882146 2.2619424 -0.0972285
-0.30360064 2.4870405 -0.2822829
-0.5013572 2.5079904 -0.3415877
-0.41033292 2.098929 0.80955064
0.32232046 1.6751049 0.7333592
-0.54859185 -0.08422719 -0.5458232
0.093958825 -0.08269266 -0.66725934
0.19865297 2.0874853 0.092107184
-0.81214535 2.3049989 0.38048816
0.36864403 1.9831526 -0.62951756
-0.69967705 1.9311426 0.56940275
-0.45337915 2.2487493 -0.589656
-0.1262681 2.1046147 0.54487264
0.04261054 -0.26057708 -0.18581262
-0.7708851 -0.24241021 -0.10354251
-0.016215932 2.7409282 -0.366217
-0.3260365 2.1117291 -0.22177467
0.25589496 2.148699 0.674604
-0.25935924 -0.2532624 0.3805371
-0.5105713 1.5983856 0.1857979
-0.53508437 2.2055492 0.18624642
0.2271876 1.2363517 0.16168131
-0.1297105 2.4601998 0.23295312
-0.9024297 -0.40430778 -0.10932575
-0.5834063 -0.40601075 -0.915668
0.52717996 1.6881554 0.6043392
0.08793734 2.3385286 -0.6971712
0.25358146 2.5834622 -0.7391012
0.43612278 2.504569 -0.6949681
0.06036776 2.4467313 -0.19511607
0.3555637 -0.08450928 -0.18604927
-0.5154622 -0.4215781 0.26371598
0.09852754 -0.08298689 0.4540261
0.04298138 1.2078525 0.1415326
0.88355684 2.0258417 -0.2096417
0.6694757 1.5298451 -0.23477957
0.7370233 -0.08602277 -0.9052441
-0.42994523 -0.25585526 -0.47490224
0.21369174 2.9842277 0.052501887
0.09472038 -0.2420474 -0.03100501
-0.21393767 -0.41391933 -0.45170397
0.40233433 1.7417762 -0.23001564
0.38230568 2.2405992 0.35471684
0.33779472 -0.42123196 -0.59109414
-0.30021715 1.5251544 -0.6334256
-0.50010854 2.8646824 0.053131267
0.43069014 -0.41273522 0.62029785
0.52691066 2.8418353 0.023907464
-0.08201142 -0.0859922 0.38270763
0.38040364 1.9826412 -0.42857325
-0.30663115 2.971177 -0.041089002
0.23958266 -0.4011973 0.9132992
-0.20214063 -0.08176032 -0.40825602
-0.106395215 1.2384434 0.25043827
0.14351234 1.8413084 -0.5108684
0.391823 2.2867138 -0.29433465
-0.6454543 2.4602194 -0.14639598
-0.2829126 -0.25147837 -0.16563565
0.82631576 2.3962035 -0.2948629
0.5470015 -0.41286838 -0.5044596
-0.44750977 1.985255 0.32702968
0.116244406 2.1491108 -0.4251051
-0.3768093 -0.25899082 0.2387402
-0.44192904 -0.08751744 0.25074816
-0.20259789 2.229713 -0.31900483
0.8935752 -0.09530707 0.9087308
-0.09580527 1.6534762 -0.36189935
0.92852217 -0.24975619 0.85587656
0.08609913 2.6098385 -0.27992994
0.21610808 -0.41564202 0.099533506
-0.1253056 2.0450747 0.74306834
0.37066728 2.929142 0.11617337
0.18888468 1.3272254 -0.42699343
0.67789304 2.3570595 -0.24647062
-0.49004805 1.8872817 -0.24034098
0.43333846 2.4972892 0.7006014
0.7346139 -0.41621375 0.42537424
-0.5663558 2.3689456 -0.67134035
0.5254222 -0.082406536 -0.33479917
-0.53636825 2.157448 -0.73755306
0.72334725 -0.4161217 -0.39680728
-0.8977511 -0.09321419 -0.14384574
0.7676826 1.6253711 -0.08539711
-0.86771584 -0.09530494 0.9131566
-0.8803375 2.253208 0.16433355
-0.206236 1.9864302 -0.12500621
0.2703362 1.6601524 0.11839314
-0.2423225 1.4092965 0.0047597904
0.33451664 2.7623131 -0.17117664
0.29083917 -0.24951208 0.21626009
0.071055666 1.9228117 0.09494786
-0.18354185 1.9100718 0.5265225
-0.10793795 -0.2602002 0.9179706
0.5213754 2.1016598 -0.7472991
0.7176661 2.3761995 -0.47419804
-0.117411695 2.628892 0.49465406
0.21080925 2.414598 0.16265157
-0.18709974 2.3528743 0.8497657
0.26579377 2.280429 0.038531058
-0.1678496 1.8234986 -0.64637136
-0.5386046 1.433667 -0.30053458
-0.7523589 -0.41316673 -0.0036812136
0.11595631 2.3118496 0.70011413
0.7155762 -0.08450765 -0.20265678
0.7233871 -0.08273597 0.0032094447
0.4875542 2.6355295 -0.11026606
0.7057698 -0.41499177 -0.76486695
0.30219328 1.881676 0.05852437
0.25309283 2.5985994 -0.13130334
0.52812684 1.4004421 -0.19773939
-0.46188217 -0.08400406 -0.73490214
0.5733261 1.4215038 0.16345441
0.27478576 1.841724 -0.35901088
0.7088977 2.5507774 -0.37177068
-0.47380638 2.651538 0.13879384
-0.76412725 -0.24845694 -0.3184035
-0.42307144 -0.4163462 -0.1834934
0.77057636 1.8512504 0.3881957
0.35297066 2.4891603 0.007783255
0.17167348 2.0666342 -0.8993478
-0.77123773 -0.2534626 -0.5251171
-0.33196998 2.5663443 -0.46860152
0.26576558 -0.41121966 -0.28203124
-0.6417738 1.7159536 0.13246103
-0.6863031 2.1709006 -0.29240972
0.4271505 2.220392 0.56214595
0.101159364 -0.24152726 -0.76641214
0.24783942 -0.086549655 0.32853758
-0.13906801 2.1208901 0.32058078
-0.5949061 2.0718117 0.009484498
-0.8907891 -0.4114908 0.32596934
-0.8579936 -0.4052713 0.9060828
-0.71909875 2.513371 0.3681332
0.35133636 -0.4176463 0.77998567
0.65565 1.8348714 0.56625533
-0.5752028 -0.25139964 -0.78688955
0.23147233 -0.24164405 -0.1891469
-0.8941197 -0.40492457 -0.73295856
-0.41957998 2.4792511 -0.6972153
-0.23992264 1.9787489 0.3719561
0.6274134 2.7539415 0.15788028
0.55007046 2.263579 -0.16850671
-0.61252475 -0.24350896 -0.014101131
0.7272192 2.1944473 0.14458516
-0.8969325 -0.4075216 -0.32550257
0.8007978 2.0200777 -0.41866612
0.2701501 1.3136775 0.34719563
-0.6477574 2.735815 0.11721943
-0.7338817 -0.41474542 0.21560931
-0.4151532 1.882763 0.77728164
-0.73990273 -0.08568807 -0.60192215
-0.21155518 -0.412413 0.899336
-0.6645753 2.424305 0.5449198
0.88116467 2.3141186 0.10480987
-0.7451879 -0.24277338 0.1161938
-0.02806288 1.652333 0.30889678
-0.4550728 2.7014527 -0.05604872
-0.53681964 1.6496305 -0.21621674
0.20813848 1.8343124 -0.68128467
0.19397348 2.0226903 -0.7239367
0.29444164 2.386158 -0.8124756
-0.54609406 -0.4166288 -0.5254981
-0.43755674 2.1484947 0.60870135
-0.2604689 -0.08554278 0.3125198
-0.90284777 -0.09548612 0.35284483
0.09772672 -0.083916545 0.67102265
-0.44878745 -0.25081936 -0.08642262
-0.6774991 2.5436835 -0.41722813
0.452949 1.7463572 0.10566374
0.3897691 -0.08240306 0.009379134
0.12562592 1.3746822 0.5162008
0.7836908 -0.24278179 0.11417627
0.4871788 1.8517506 -0.061134167
0.18905109 -0.078405656 -0.87861466
-0.4108802 2.5048113 0.020328894
0.60387284 -0.24719247 0.4231732
0.30291528 1.8985533 0.41364646
0.47938746 2.6716962 0.20662066
0.12407686 -0.2517708 0.14564067
0.68424964 2.3919866 0.106008574
0.54882926 2.2719898 0.21325159
0.01295881 2.149064 -0.5924802
-0.02449495 1.8903813 0.26828897
-0.39807686 -0.4181329 -0.38773757
-0.7267199 -0.089657724 0.62440014
0.5519922 -0.4157294 0.33179122
-0.90079576 -0.09348051 0.54380906
-0.63126445 2.6780663 0.30978772
0.03150186 -0.4163345 0.18669933
-0.6689484 2.1970506 -0.6116086
0.75045776 -0.25150192 -0.3016016
0.37013137 1.7110162 0.45262042
-0.026020717 2.0297837 0.9124503
-0.9189926 -0.2692846 0.2218605
-0.2184571 -0.0924733 0.9016267
0.13870838 2.3072128 -0.51275617
-0.84952617 -0.4061233 -0.91431487
0.32494462 1.9185947 -0.15957332
0.22146992 1.6682858 0.3007902
-0.6021522 -0.4101836 0.099459305
0.47036242 1.7635813 -0.4250238
0.2128621 2.80237 -0.023135636
-0.3969342 2.2989113 -0.30144975
-0.92543745 -0.2466294 -0.6452838
0.89437556 -0.08700417 -0.2919833
0.6255896 1.7048893 0.02249774
-0.7095901 2.3031154 -0.12927876
-0.32045236 2.1305718 0.4431817
0.2045039 1.7037129 0.5575315
-0.51256275 2.4646814 0.6735234
-0.03679003 -0.08584366 -0.31046706
0.5044365 1.9476876 0.11902976
-0.5346771 2.4615493 0.1957829
0.1276488 1.8018659 0.38265336
-0.7281655 -0.41698575 -0.4247625
0.3994416 -0.41810885 -0.40014213
-0.07170394 -0.08437547 0.7599124
0.15360004 2.243939 0.88727224
-0.48305297 -0.084313996 0.038992353
0.5440038 -0.42130578 -0.6831225
-0.39749575 -0.0826268 0.6473122
-0.015892722 2.6440346 0.1277956
-0.7230768 1.5517876 -0.022212159
-0.44220895 -0.4159233 0.02306524
0.1908548 1.6573853 -0.56505674
-0.69155854 1.5560124 -0.22405252
-0.10261934 2.9010491 -0.42591673
0.42280817 1.602274 0.27934688
0.5419184 2.03928 -0.11714658
-0.04482682 -0.24923582 0.10478966
0.5837679 -0.084784634 0.533968
0.08327344 1.8546121 0.86563027
-0.6932272 -0.41242778 0.59800553
-0.25391304 1.9604623 0.8629844
0.51818323 2.4305153 -0.37288246
-0.8879181 -0.088409856 -0.733871
0.89627707 2.0913005 0.15620366
-0.6012289 2.3674238 0.36183074
0.1845032 2.5020046 -0.5992918
-0.0801613 -0.41313824 -0.3211244
-0.2880003 2.316773 -0.6344819
-0.22427404 2.7847252 -0.5632596
0.5640943 2.053004 0.5228313
-0.39740464 -0.084875256 -0.4225397
0.2591951 -0.1832346 0.9283368
-0.76775223 -0.2426225 -0.7409479
0.6879928 2.3187976 0.3088566
-0.44775128 2.3983436 -0.48759297
-0.34507447 2.12808 0.22472066
-0.31807026 2.6339407 0.4270879
-0.32265398 1.7004812 -0.7479608
0.06963915 1.9486606 -0.359749
0.06902072 2.1083455 0.76465565
-0.59923995 2.3525949 -0.30935067
-0.026207164 2.6722665 0.7048293
-0.19048432 2.7704926 0.36700335
-0.01965807 1.5185429 -0.043317772
-0.07274461 3.0132282 -0.10205108
-0.07073338 2.5083795 -0.029581424
-0.0077329236 1.6924989 -0.16759467
0.04046127 -0.08137884 0.058193028
-0.552477 2.012713 0.71281224
0.19671795 1.9720416 0.7092223
0.7329962 -0.4169916 0.22250208
0.43303838 -0.25470728 0.07939899
-0.89397556 1.8849804 -0.03445577
-0.52492267 1.6081226 -0.002855656
0.16486436 1.5794342 -0.05064226
0.06982245 2.264526 0.10708602
-0.4086626 -0.084364474 0.88748336
0.27254662 2.3688712 -0.1372567
-0.34293067 2.8728676 0.36835125
-0.49308416 1.9828335 -0.7523283
-0.246531 1.668852 -0.24074417
-0.92332923 -0.25551927 0.8696097
-0.33646053 1.8057395 0.605096
0.36963844 -0.41858253 0.43542123
-0.24528378 2.286301 0.27408832
0.04930129 -0.41559243 -0.018042859
0.33004355 1.4090242 0.50935745
-0.46692634 1.9956784 0.12893535
0.19750199 -0.4136231 -0.45480824
-0.482628 1.7074068 0.3272578
0.18342707 2.621562 0.07236475
-0.017146412 1.7872126 0.4932212
0.847716 1.817982 -0.13369095
0.19588298 -0.081140414 -0.07963218
0.6369568 1.4663181 -0.031686265
0.20235133 2.1933732 -0.6669935
0.36962634 1.6042078 -0.6571875
0.080779955 2.1247392 0.57170236
-0.13397858 -0.41425288 0.06772854
-0.18217495 -0.08322321 -0.19203517
-0.5579332 1.819454 0.6572832
-0.53540885 2.571875 -0.56657124
0.9010874 -0.40731317 0.11693229
0.8183832 2.4346528 0.25224286
0.57081246 -0.41240084 0.7425561
0.054005362 2.648764 -0.7226217
-0.24848443 -0.25150496 -0.5862452
0.52046615 2.3876457 0.4052006
0.89736044 -0.4087065 0.53175193
0.27739954 2.7739186 0.1762309
0.35739005 -0.08708209 -0.9080788
-0.07300534 2.508852 -0.80604994
0.14581212 -0.07658 0.8763867
0.018421581 2.8394337 -0.018449664
-0.19570827 2.9499147 0.27313143
0.2805608 2.7906473 0.52929175
0.61010253 2.6831157 0.35702696
-0.56884176 2.2208507 -0.44079745
-0.2564283 -0.08677973 -0.7480737
0.7192291 -0.08440311 0.87836134
-0.7216031 -0.082397684 -0.21500814
-0.4440317 -0.24945687 -0.6359521
-0.4492832 2.8869944 -0.13261697
0.6257353 2.2416525 -0.6423682
-0.640304 2.0311356 0.25775212
-0.33356968 2.1127577 -0.6558099
0.3507794 1.8014748 -0.56082153
-0.13701034 1.8140788 0.67891484
-0.34440178 1.7619603 -0.5625224
0.36928853 1.2951953 -0.16625677
0.85829663 1.8820322 0.19977309
-0.3493927 -0.41983968 0.3541457
-0.3373562 2.639041 -0.6585734
0.19263977 2.0372806 0.8930528
0.73884445 -0.08324927 0.42954656
0.38356826 2.7120547 0.026603173
-0.92461884 -0.2531094 -0.42856652
0.43604016 2.6545978 0.5753107
-0.20412694 1.4214487 0.55845803
-0.88209057 -0.41390297 0.52555597
0.50879365 2.114174 -0.51939976
0.47948945 1.8686528 0.5093174
-0.3773449 1.3958638 0.43033987
0.47062665 1.8260446 0.72853005
-0.15577868 -0.25505555 -0.7625327
-0.71214974 -0.2606957 -0.9259083
0.39530087 2.376841 0.1994105
-0.08060542 -0.24387798 0.6437579
-0.16223979 -0.08993141 -0.9158962
-0.8705741 2.0917804 0.27608714
0.07527365 1.5559046 -0.24959601
0.5778368 -0.087291345 0.7476905
-0.036963318 1.9825857 -0.5156387
0.18290715 2.9634774 0.24634561
0.24323985 -0.41851366 0.6148664
-0.484008 1.6259332 -0.5965271
-0.31690574 1.6795204 0.061252553
-0.57695377 2.7660356 -0.23264614
0.038898353 -0.24598536 0.47473818
-0.6548782 2.1153626 0.61055183
-0.8007977 1.9179528 0.36763626
0.7513786 -0.25304627 -0.09466933
-0.2517284 2.3679576 -0.43937463
-0.056087535 2.2853897 0.25350404
0.714767 -0.08495347 -0.39798233
-0.67517495 2.3946438 -0.5219444
-0.8225312 1.723764 0.06549582
0.5694365 -0.08336046 0.3219821
0.25596964 2.6086645 -0.45652235
-0.11054525 2.5927844 -0.21052796
-0.27144402 2.7905116 0.5425894
0.40886527 2.61592 -0.30713043
-0.52871394 2.1599188 0.4011409
0.2754495 1.4359927 0.040413328
-0.23525733 1.4250445 0.20868483
-0.43196237 1.9773757 0.5367722
-0.08869414 1.8355858 -0.27400404
0.31934607 -0.23740965 -0.78156924
-0.16369788 1.7819636 0.35039017
0.62747324 -0.27513605 0.073421925
0.652192 -0.24896875 0.24561259
-0.39766008 2.671134 -0.29182017
-0.14792065 2.6557717 -0.7104949
0.10137096 -0.41480505 -0.6246995
-0.18228686 2.0277886 -0.891999
0.6471399 -0.24447495 -0.91826993
-0.6638138 1.614138 0.35822946
-0.59598523 -0.26438054 0.27731675
0.5764197 -0.41472593 0.52399635
-0.15170784 2.187001 0.09434311
0.3068635 2.3585238 -0.6283357
-0.0052165734 1.9523344 0.6523596
-0.7002126 2.203776 0.28828847
-0.1887008 1.6745529 0.5307914
0.89719975 -0.09057534 0.7334566
-0.567366 2.693499 -0.40015882
-0.5825082 -0.08901463 0.35910583
0.3637213 1.3448921 -0.34058243
0.30555058 2.3255293 0.6710758
0.2605061 2.4210012 0.8221165
0.6802437 2.1003232 0.33484593
-0.18399474 1.7833865 -0.078603834
-0.14326414 1.7928021 0.13509297
-0.6230811 -0.24808264 0.4885767
0.13694787 1.8461227 -0.21414477
0.91773224 -0.25056916 0.64414
0.15203032 2.2643876 -0.8804768
0.41253003 -0.25073174 -0.2916203
-0.58191556 1.4164845 0.0883446
-0.47830737 -0.2615093 0.5948142
-0.3625564 1.6464738 0.46493906
0.924368 -0.24867317 0.43820798
0.5981114 -0.25111145 0.6485574
-0.55794525 2.350932 0.0129267
0.5245515 2.093042 0.2427758
0.84415615 2.0295906 0.34129673
0.12123516 1.4754207 0.33849978
-0.40440175 1.7494326 -0.3472894
-0.77964616 -0.2547505 0.5306145
0.23167567 2.9404054 -0.28587115
-0.016609319 2.764854 0.32931316
0.54401666 -0.08681107 -0.9101468
0.19187146 1.5084927 0.6482451
0.09822354 -0.25877094 0.9261552
0.6557524 -0.083383545 -0.74155104
-0.003200165 2.2959743 -0.294069
-0.10495408 1.2011505 0.019106507
0.47608542 2.3125768 -0.74901783
0.15112455 -0.08318418 -0.28490764
-0.7844795 -0.2544148 0.7251071
-0.7392211 -0.08194499 0.4339503
0.49595356 2.1359482 0.74721277
0.19448105 2.2817736 -0.29873496
0.0908895 2.3694682 0.31752214
-0.404688 1.6726747 0.69551164
0.586542 -0.24485442 -0.22334442
-0.22177231 2.1545022 0.87925565
0.7738732 2.1849453 0.47717193
-0.6008477 1.8431652 0.2927243
-0.16651839 2.8697033 -0.034409333
-0.61834395 -0.40456316 0.90358585
0.22298422 -0.24508475 -0.37338912
-0.58851624 1.5739775 -0.42866004
-0.4257214 2.8553567 -0.3149929
0.7822238 -0.2480765 0.33901644
0.91482764 -0.24252668 -0.59562117
-0.1539594 -0.08758013 0.0046564927
0.020568192 2.3112564 0.5327454
0.33380097 -0.084469244 -0.3606131
0.5848726 1.9781039 0.6905395
0.54627454 2.5647326 0.06217151
-0.7056675 2.2403955 0.055463396
-0.4006843 2.3002436 -0.7934491
0.8988441 -0.4083532 -0.089692265
0.67755854 1.6747735 0.45260635
-0.1645775 1.6487141 -0.5561471
-0.38450226 1.5201609 0.2987704
-0.33660117 1.6285105 -0.45112896
0.052115515 -0.25509188 -0.3578283
0.7068399 1.8487382 -0.52760214
-0.5029465 2.0608194 -0.5420318
-0.064108066 2.2410278 0.7072881
-0.6796204 2.3747993 0.1734291
0.27701718 -0.0820585 -0.6970937
-0.894343 -0.40692085 -0.5341038
0.016483163 1.7292166 -0.64844215
-0.2907922 1.9993198 0.66107434
-0.043973073 1.8036871 -0.47760987
0.89184093 -0.4086764 0.73333454
0.22711158 -0.083533525 0.1231401
-0.22589707 1.8160698 -0.41952765
0.059949398 2.6497614 -0.08338741
-0.44598007 -0.25086975 -0.28378814
0.900558 -0.08906865 0.5326654
0.888019 -0.4011008 0.90704274
-0.05928795 2.3184705 -0.049313776
-0.5162059 1.8224589 0.47422302
0.57576025 2.7222192 -0.3382874
0.30378968 -0.4027912 -0.91822755
-0.2990103 2.6068447 -0.12342593
-0.56461275 1.4425055 0.2814821
-0.37966913 1.960793 -0.39836693
-0.15066841 -0.4089166 -0.9090575
-0.17443001 2.6212947 0.27744532
0.40340695 1.8244202 0.26757902
0.28440195 2.6228836 0.69718015
-0.36475188 -0.41529065 0.5472158
0.5434514 1.6466202 -0.30216464
0.20480134 -0.41343492 -0.7624768
-0.13241571 2.8040338 0.15507287
-0.5317227 -0.08438127 -0.14390796
0.53906894 -0.101181164 0.9161353
0.73040354 1.562643 0.114439934
0.53849727 -0.07235944 -0.12820992
-0.2096254 -0.25767958 0.7658779
-0.035240605 2.150573 -0.9187109
0.122553185 -0.41857785 0.7527449
0.2682988 -0.2451832 0.011204395
-0.3232074 -0.41833323 0.15485811
0.22586906 1.432169 -0.19953161
0.0058594123 1.9445909 -0.88975656
0.24429932 -0.25671244 -0.6171367
-0.11795658 2.5277603 0.7952307
-0.056337073 2.8045387 0.57584476
-0.21797702 2.2730021 -0.8731251
-0.44884193 -0.25744477 0.4085614
-0.15295371 3.001728 0.09680586
-0.12600607 -0.25814563 0.4815691
-0.3502918 1.9292805 -0.6295606
0.078093976 1.7414801 0.1706604
0.23439902 -0.2627555 0.7753194
0.9330484 -0.24808967 -0.78307676
0.44416702 -0.25437605 -0.62300503
-0.30159676 -0.25309885 0.03187079
0.29889864 2.389402 -0.4347666
0.7239715 -0.39970794 -0.9196104
-0.716185 2.61411 -0.23917383
0.08720927 2.8080368 0.15579888
-0.37914062 1.4948664 0.0981738
0.18186763 2.750661 -0.61451447
-0.92695713 -0.2608236 0.42903113
0.4596985 -0.24767028 0.5283839
0.40901116 -0.25408846 0.35783926
-0.91383016 -0.106501296 0.17303127
-0.49927932 1.798639 -0.70227784
0.40247795 1.3113298 0.16757151
0.3798173 1.5362308 -0.29370815
-0.30783316 -0.085395664 0.1235595
0.01907625 -0.08272764 -0.47829062
0.68264854 1.8959202 3.6278652E-06
-0.40630507 -0.24042691 0.7604126
-0.26205587 1.4321995 -0.20062907
-0.06420528 -0.25027764 0.29531488
-0.23085478 2.5917192 0.08632466
-0.4313301 2.0142395 -0.10580681
0.7637022 1.6903229 -0.2790271
0.9031181 -0.086817995 -0.49151772
-0.31896353 2.306533 0.49664778
0.09534248 1.8018415 0.68151623
-0.31901413 2.4999542 0.7618853
0.51281095 1.5347369 0.47332433
0.2310606 1.6630883 -0.22140494
-0.6472074 1.9574866 -0.62694895
-0.18970686 1.3543661 -0.4964379
0.39106894 -0.4190346 0.014356193
0.08222358 -0.40455413 -0.91201794
-0.1521981 2.3852806 -0.22112489
-0.73565817 1.9197236 -0.05232198
0.3822103 1.5651911 0.61354876
0.013943946 -0.41105834 0.90791214
-0.037424985 2.2217317 0.90336704
0.4773475 2.8444247 0.24478395
0.40227926 -0.08343181 0.21647227
-0.42386186 2.3192067 0.31690666
0.047215585 1.545737 -0.71745527
-0.46948284 1.7861412 0.1263786
-0.19291873 1.9899144 0.18889876
-0.09503122 1.3559227 -0.10386393
0.26943278 -0.08857292 0.7313131
-0.91223717 2.075695 0.053454828
0.46692926 2.3173866 0.75856316
-0.7502554 2.0716295 0.11854832
-0.0038474903 2.9672441 0.27524036
-0.7317499 -0.08568212 -0.90289116
0.41283324 -0.4187641 -0.18334413
-0.10983278 1.5127766 -0.22496882
0.13330525 -0.25483075 0.61254096
0.895071 -0.08785622 -0.092813745
0.8893732 -0.08251646 -0.70863104
0.5638852 -0.4142348 -0.2971002
-0.16666412 2.373044 0.6454822
-0.49016708 2.09903 -0.30830216
0.33504653 2.024317 0.2342816
-0.2922755 -0.24627674 0.58165705
-0.39578316 1.5472388 -0.29548705
-0.41773236 1.4565117 -0.48829114
0.38281387 1.7838547 -0.761776
-0.64519435 1.7484615 -0.55078495
0.5508567 1.7370298 0.36414635
-0.63954437 2.748663 -0.0695229
-0.08736737 2.439124 0.4334508
-0.60470533 -0.0947835 0.16300808
-0.7326654 -0.08513494 0.7984367
0.49867642 -0.24921513 0.22673792
-0.035937835 1.2052033 -0.18355927
0.18357885 1.5089803 -0.39919227
0.19621165 1.8596222 -0.8595237
-0.022323404 2.7975616 -0.59349203
0.7321179 2.3677952 0.48397762
0.3179819 1.6499381 -0.4290672
-0.35895652 -0.085299104 -0.25291052
-0.8316173 2.4235067 0.23607618
0.15423307 1.9365596 0.52477896
-0.115442775 1.4696784 -0.6310493
-0.42087507 1.3213508 -0.17959067
-0.83646274 2.054143 -0.33894238
-0.5722543 1.763202 -0.38497975
-0.40889567 2.6369941 0.6162242
-0.20162556 1.5905766 -0.059813038
-0.11135467 2.9081142 0.43850893
-0.92397463 -0.25462723 -0.21844634
0.56933236 -0.40697777 -0.07950546
-0.8685727 2.2433252 -0.24573636
0.8577912 -0.25033686 -0.9290595
0.47101098 2.3101525 -0.52121234
-0.217967 1.5019009 -0.40375155
-0.39788377 1.7385981 -0.110970184
-0.33163303 1.8647845 0.22098649
-0.121837854 2.1650267 -0.14581949
0.04716622 1.3764124 -0.2311194
0.5728865 2.219923 0.43769616
0.7541293 -0.25038508 0.5420776
0.89458865 -0.40803277 -0.6877358
-0.056135852 2.1258626 -0.37689263
-0.39706165 1.5198956 -0.10141561
0.3705393 2.6721997 -0.6129818
0.4100663 -0.254714 -0.10844691
0.41341567 2.8583136 -0.30828932
-0.23684181 1.3077946 0.3619135
-0.23203783 -0.08427094 0.51462924
0.22326437 -0.41205207 -0.09703131
0.09958312 1.1982468 -0.041254267
0.64574194 1.8213023 0.1933822
0.35759428 2.938635 -0.09971902
-0.8993876 2.0558164 -0.15205196
-0.024183054 -0.09684156 0.9154438
0.8948078 1.9506164 0.002699458
-0.021706104 1.693976 0.026216285
-0.24562699 -0.08545785 0.71494013
0.369837 1.505234 -0.105507344
-0.31398696 2.7686033 0.04127935
0.3441406 1.7023324 -0.056030214
0.1957039 -0.24518919 -0.927016
0.08454779 2.1247582 -0.22436756
-0.22232383 2.9620795 -0.23716564
0.57114214 -0.08491458 -0.5435666
-0.33624434 2.490806 0.20989901
0.44479218 2.7385683 -0.46365333
0.58680093 2.234964 -0.3804056
0.9011467 -0.086530454 0.11101079
0.5832861 1.9286329 0.34644324
0.579474 1.6363107 0.18839964
-0.3676108 1.5185786 0.59075344
0.22501588 2.7298307 -0.33095986
-0.4237783 -0.40842792 0.8960018
0.11400524 2.4775915 0.4585855
-0.73240757 -0.25156564 0.91730535
0.36533067 1.9806662 -0.8252527
0.5675417 -0.24592179 -0.42466938
0.6914679 2.1403022 -0.22957024
0.57331157 2.5964131 -0.5102142
0.3493297 2.5589824 0.1838631
-0.8441199 1.8819649 -0.2488943
-0.8144566 1.7119222 -0.14197859
0.39563948 -0.41086054 -0.76820326
-0.6659341 1.8264616 -0.2309705
0.7050493 2.5234337 0.38183546
0.7286519 -0.4170248 -0.1914036
0.72778666 2.605578 0.19470611
0.73838747 -0.083997644 0.65025276
-0.61557233 -0.25230235 -0.6139582
0.020746723 2.109295 -0.01468649
-0.25289607 -0.4144526 -0.257392
-0.41590732 1.3261068 0.22492339
0.20601635 -0.0858427 -0.49797878
0.1318078 1.645756 0.7804382
0.10291828 2.8832679 -0.44919276
0.4415893 2.1057014 -0.27458453
-0.6521164 -0.08205466 -0.7418946
0.16126728 2.7599335 0.34472126
-0.58209443 1.4239569 -0.10549663
0.31928813 -0.24997894 0.61598766
0.012052674 2.970737 -0.28244638
-0.338956 1.8246074 0.41068912
-0.33087754 2.7223082 0.23568471
0.90125585 -0.40827763 0.3230996
0.21214223 2.2168036 0.2595819
0.03348307 -0.24214545 0.7733046
-0.7854265 2.4167447 -0.3280736
-0.5329779 2.2089753 -0.15375689
-0.5177346 2.295989 0.525536
0.2144086 1.8638731 0.21603987
0.63462055 1.8330505 -0.3556299
0.5716716 -0.20471513 -0.049671322
-0.71524656 1.5571591 0.17362374
-0.61716866 1.9806519 -0.3883022
-0.31786752 1.8891644 0.020681806
-0.27660096 2.8678536 -0.39854032
-0.8412537 2.4430778 -0.14966878
0.16383108 1.989923 -0.08167173
0.67615545 2.6900449 -0.1918453
-0.93187225 -0.25678784 0.6368077
0.48940384 -0.41409302 0.9061425
0.7057483 2.2654586 -0.04976719
0.1642518 2.5860338 0.26643622
-0.3343935 -0.08446574 -0.06996618
0.025796361 2.4037209 0.85241354
-0.76829153 2.6043105 -0.03669389
0.050892748 2.1791258 0.38716352
-0.2245644 1.9947968 -0.5169133
0.06855295 -0.08591372 0.25153446
0.10257627 1.6014041 0.46699136
-0.12798524 -0.4156886 -0.6119937
0.26348725 2.5962036 0.48594898
0.89943 -0.40689296 -0.49208137
0.19056207 2.4791346 0.62295663
-0.44589674 2.1850426 0.0072860345
0.38395217 2.4290392 0.53032047
-0.20799819 1.5392056 0.3785271
0.08480054 1.5525591 0.14336033
0.4429301 2.4433599 -0.16707775
0.73723114 -0.41943455 0.017622977
-0.004788109 1.6471455 0.6243121
0.07431951 2.6597033 0.4991456
-0.26758277 2.4547107 0.38084495
-0.033515766 2.3384562 -0.8757832
-0.32695532 1.8949935 -0.8192004
0.13756713 2.7414117 0.641801
0.5385126 1.4682975 -0.38274124
0.89669025 -0.40863544 -0.29335415
-0.5728214 -0.4151717 -0.31458282
-0.05487119 1.4371722 0.28913808
0.033072382 -0.091033146 -0.91579103
0.56733274 2.1393976 0.042681016
0.104507245 2.891601 0.4580384
-0.7452928 1.6990964 -0.3488851
-0.18593156 -0.41252148 0.6219882
0.56523997 2.4837682 0.2344437
0.21794909 2.2933798 0.48910078
-0.429939 1.3084642 0.012907427
0.5296633 1.9147271 -0.51899064
0.01078421 2.08875 0.19644749
0.7634296 -0.24153882 -0.74298453
-0.13160709 2.6940107 -0.039379753
-0.32372034 -0.41498056 0.73851967
-0.08086174 -0.41425446 0.760018
-0.6132263 -0.253061 0.724213
-0.14954561 1.9999261 -0.70664513
-0.2569136 -0.25517306 -0.9235072
0.730909 -0.41404414 -0.58693546
-0.6041154 -0.25014925 -0.4203884
0.769917 1.6932374 0.2627349
-0.13221139 -0.0848278 -0.5919908
-0.0101029705 2.4942465 -0.60045505
0.665378 1.6580485 -0.44824666
-0.36662275 2.3164554 0.10311115
-0.18540792 2.010683 -0.33283362
-0.5536268 -0.09024233 -0.9132329
0.25327134 2.1072793 0.45744658
-0.8686813 1.9069277 0.17264059
-0.27803868 -0.24662592 -0.3735968
0.5297452 -0.4104635 -0.9011765
0.36905056 -0.2538667 -0.47041768
-0.701879 -0.4180197 -0.79556155
-0.3174852 -0.25338537 0.92460406
0.38522625 -0.41717523 0.22216079
-0.010695529 1.8662653 -0.069601625
0.021980159 1.5836241 -0.5100956
0.8094635 2.5246425 0.04400897
0.7039796 -0.417001 0.8791987
0.4806235 1.3399928 -0.0076612923
-0.55706096 -0.0855573 -0.3323246
0.6311139 1.7722013 -0.16389315
0.53500676 2.8236756 -0.15707022
-0.100328445 2.3337154 -0.68628335
0.6348842 1.5286288 0.3180864
0.07404481 2.6455884 -0.49204433
0.8960021 -0.4069032 -0.8802031
0.5482869 1.733137 -0.6238027
-0.789433 1.7428868 0.26844785
0.42946625 2.0503974 0.40155387
0.5445378 -0.25361884 -0.7790816
-0.36122912 -0.08783454 -0.91114277
-0.13791005 1.6282506 -0.7612938
-0.05324948 1.5238312 0.4780025
-0.20687257 -0.246701 0.17791039
-0.25284457 2.4418511 -0.07241021
-0.055732444 1.669652 0.80339026
0.1482184 2.01554 0.31455988
0.28776735 1.5385721 0.42646253
-0.92369705 -0.25013006 0.0063784285
-0.034675725 1.4487152 -0.39286822
0.110651754 2.5625057 0.78067964
-0.82988584 2.4306765 0.040667243
0.3768229 2.1709075 -0.645182
-0.1127636 1.9813646 0.03446972
-0.6446325 2.0120497 -0.19346678
0.58764833 2.5488243 0.5361202
-0.061133593 1.3264236 0.46601766
-0.51882553 -0.41915902 0.7061497
0.7068032 2.002513 0.16493414
-0.28298268 2.7867756 -0.17641228
-0.6453054 1.7308319 -0.06732
-0.18347348 2.3737268 0.087597534
0.48720932 1.9112618 -0.2698588
0.9029678 -0.08767973 0.32317722
0.2525751 -0.25009596 0.44251633
0.24485175 2.0424347 -0.30388507
-0.5564661 1.6529207 0.5573101
0.13674277 2.9953222 -0.118143976
-0.013949836 1.4693536 0.6635468
0.03984993 1.3824816 -0.5553903
0.5007421 2.3524714 0.028454613
0.31458825 1.833251 0.61854494
0.62627524 -0.25192398 -0.6167284
