0.5863887 1.3627762 0.57665724
0.492493 0.49139822 0.06946303
0.44023335 1.520861 0.33121812
0.74568784 -0.25295073 0.75444627
0.4022485 0.987981 0.57656825
-0.58366424 0.91082895 0.4346134
0.05778434 0.17963716 -0.38879222
0.6581912 1.1810918 0.5990318
0.2427836 1.7616105 -0.522197
0.7716975 -0.24861652 0.9322077
0.46396327 -0.088487625 -0.72297263
0.004024189 -0.4134191 -0.46459258
0.012284156 1.3887646 0.1010084
-0.7420403 1.0039523 -0.106582455
0.28428823 1.3835349 0.31275487
0.09689735 -0.23442656 -0.52753276
0.3404995 0.42785782 0.22639176
-0.33470887 -0.082029685 -0.57683253
0.12607875 0.63331246 -0.37830722
-0.9036207 -0.095099375 0.7315291
0.44862962 1.7264178 0.3810912
-0.6261699 1.433054 -0.008714091
-0.46333328 -0.25322753 -0.92188954
0.42710266 -0.08509967 0.64362764
0.23751327 0.38684696 -0.62054145
0.85365236 1.3444808 -0.12995905
0.8741598 1.1841714 -0.22858271
-0.28356433 1.007429 0.005462205
-0.24376282 1.5881665 -0.39088747
0.24007487 0.16142932 -0.23522845
-0.44924802 1.2890722 -0.17118646
-0.7450936 0.7404113 -0.43882123
-0.0018567309 -0.061542176 -0.1235654
-0.76035345 1.4694836 0.1409928
-0.7249575 -0.087546416 -0.42183948
0.31305987 1.1054689 -0.48268571
-0.5861124 -0.41403168 -0.10788375
-0.36279956 1.2858627 0.61342907
0.08121091 1.37251 -0.43994272
-0.2776119 0.7853577 -0.22658324
-0.07129772 1.2311089 -0.51252556
-0.24282011 1.135689 0.6463821
-0.74872017 -0.079657346 0.22093052
0.23210335 0.5660983 -0.7725787
-0.05727678 -0.090675965 -0.75883687
0.75993294 -0.2522549 -0.48428535
-0.55288994 1.1788449 0.6879848
0.5818068 1.3726114 -0.63848495
-0.100907035 -0.23559627 -0.45543295
-0.16472988 1.0579942 -0.75650096
-0.10541515 -0.036566444 0.1841088
-0.7901747 1.1080916 -0.45664424
0.3846298 0.9952278 -0.040766794
0.123230465 1.382352 -0.05718134
0.20313612 0.93341386 -0.55351806
0.9240204 -0.251939 0.011357008
0.052395318 0.6354735 -0.8412868
0.8302666 0.80770516 -0.35892797
0.667616 1.648575 -0.07216501
-0.21512353 0.15147462 -0.09788012
-0.44527307 1.385121 0.45247784
-0.12105252 -0.22376505 -0.26179606
0.86068726 1.2184603 0.263417
-0.7172158 -0.42097306 0.7725271
0.33945513 1.1826088 0.8116865
-0.49530792 -0.41981667 -0.7285599
-0.739414 0.9275538 -0.5121304
0.17433125 0.322213 0.1766972
0.30694523 0.805091 0.8080762
-0.5591424 -0.08868011 0.5355469
0.7454447 -0.08969881 -0.57996595
0.82419735 1.153851 -0.39782938
-0.15055907 1.5380617 -0.5538665
0.3340104 0.1893532 -0.025740735
-0.020667749 -0.4149779 -0.76050234
0.7286395 -0.41917777 0.64631927
-0.13255827 0.7022891 -0.85280704
-0.47738016 0.7314765 -0.51099277
0.0040995213 0.9244168 0.4160425
0.56580263 -0.07964772 0.11398809
0.20053318 -0.41226935 0.28353795
-0.35019773 -0.4166399 -0.58766675
-0.37614304 1.2381194 0.7825419
0.09229432 1.3748796 -0.86292857
-0.89113593 -0.098412365 -0.9107033
-0.7672796 0.99511886 0.44101185
0.084372796 -0.41755483 -0.24604274
0.39280662 1.1344752 0.10502173
0.5110041 0.36556047 0.33481607
-0.063578 -0.078206435 0.5685113
0.07838778 1.7323165 -0.25013196
0.113108695 1.1802701 -0.1269953
-0.7616503 -0.24469385 0.32408077
-0.53761375 1.7280744 0.2061181
0.41127348 1.1769013 -0.112045676
-0.46669304 0.43140122 0.46254516
-0.8686131 -0.08518532 0.022483528
-0.5089284 0.7672119 -0.04793343
0.73483974 1.1153876 -0.5480103
-0.22551976 1.3752476 -0.63251513
-0.23157445 1.61161 0.63926
-0.38368076 1.8388803 0.11019284
0.55110073 0.8349147 -0.73207223
0.31222045 1.6418791 0.28324917
0.67488664 0.96444786 -0.6374302
-0.3992929 -0.08398748 0.42524174
-0.6157736 -0.091280654 0.9156364
0.41618532 -0.08019917 0.42713776
0.5939585 -0.2657413 0.89931136
0.9227313 -0.2479863 -0.3868068
-0.8957846 -0.40835387 0.107596606
0.7495414 1.0324231 -0.07211184
0.9197797 -0.24945834 -0.18738642
0.5295466 0.5133735 -0.5307106
-0.52943456 -0.42222118 0.47677386
-0.1217091 0.19617042 -0.30126733
-0.70490634 -0.41610402 0.39842683
-0.090623096 0.51421374 0.15008073
-0.34497803 1.0482186 -0.46567082
-0.89832306 1.1276484 -0.059100628
0.006424984 -0.4144292 0.5738113
0.1593929 0.31696522 -0.03122701
-0.6930579 -0.07787812 -0.021548908
-0.71351427 -0.41871482 -0.62339735
0.03780496 0.82134074 -0.7090042
-0.8959936 -0.4070597 0.71948195
-0.9032279 -0.09266866 -0.5264187
-0.60587966 -0.24811165 -0.21206367
-0.35357997 0.970174 -0.8544569
0.42962047 -0.25559956 -0.9219687
-0.59715724 1.5042868 0.46949553
-0.0035224843 -0.4132585 0.36637795
-0.21613829 0.7020984 0.7973557
0.33087158 1.0967453 -0.8688905
0.3845347 1.4420197 -0.5422514
-0.53791094 1.4679708 -0.20314768
-0.52164805 -0.2458326 0.9108616
-0.47187084 -0.24468902 0.10506484
0.62038517 0.97485393 -0.40548483
-0.010056389 1.5108005 0.28525037
-0.010205109 0.31890666 0.10653686
0.1411229 0.20686668 0.3494656
-0.2551397 -0.42145956 -0.7488556
0.39644173 -0.26852968 0.92222035
-0.25337753 1.4445598 0.5354463
0.3814472 -0.07859015 -0.5383347
-0.17481776 1.0674651 -0.5545038
0.85344326 0.71620655 0.04523217
-0.49484888 1.4735949 0.2950773
0.37421668 -0.07704997 0.872162
-0.060420945 0.8201238 0.85526353
0.25626627 1.4190919 -0.32938123
0.28744864 1.8447052 0.29591286
-0.3522648 -0.2609831 -0.7666563
0.73869634 -0.0836827 0.2175178
0.27916276 1.0823777 -0.182299
0.40799737 0.979108 0.78487706
-0.49826652 1.6605797 0.40060157
0.54785395 -0.42262906 0.12714678
-0.704414 1.1607358 0.5079541
-0.1346969 1.198481 0.42851025
-0.035397395 -0.2465244 -0.6310576
-0.5411451 -0.08671239 0.73785746
0.76312137 1.4992421 -0.21904278
0.19381502 0.71523607 -0.036254544
0.91500807 1.1278707 -0.06018568
0.55785453 0.55122 -0.12060277
0.5649244 1.4877424 -0.29754618
-0.12269966 1.7184756 -0.25538534
0.39277887 0.38063264 -0.5139035
-0.09015672 -0.41065943 -0.13874295
-0.74147 -0.41646057 -0.21407086
-0.26605052 -0.41020292 -0.06618939
-0.25468603 0.5798747 0.25228316
0.9036551 -0.08835196 -0.8943411
-0.36776972 -0.41205603 -0.90044403
0.120597616 -0.24102712 0.3167747
-0.89514434 -0.09312342 -0.32997388
-0.017394237 0.91512156 -0.22006366
-0.14657852 0.5225339 0.71216893
-0.6452473 0.7810431 0.11570054
-0.008289112 1.9421418 0.024208773
-0.11572413 1.4070122 -0.41938096
0.9264136 -0.25045383 0.22380039
0.15615085 -0.41202453 0.45520934
-0.030197863 -0.2579919 -0.9123635
-0.9154817 -0.2597615 -0.87114763
-0.167918 -0.4079059 0.25026178
-0.6651434 0.6727799 0.471399
0.025283065 1.0255327 -0.7859053
-0.2679422 1.3406134 -0.8328841
0.708235 0.89886504 -0.22722097
-0.30314893 0.23148164 -0.33419484
0.6234642 1.417788 -0.12224488
0.44261265 -0.2424956 0.7546241
-0.016265359 1.441077 0.5908742
-0.44746962 1.6222625 -0.5437939
-0.116047226 -0.23361519 -0.0689243
0.75742537 0.98713034 0.49733633
-0.21312621 0.16304414 0.14145473
-0.17911696 -0.41865426 0.43657452
0.2623192 -0.078784555 0.531829
-0.2898443 1.1642039 -0.1263574
-0.31723264 1.3799772 -0.31424618
-0.5160394 1.3872194 -0.37402493
-0.39225286 1.0398293 0.7922233
0.37248665 0.6509582 0.7170536
-0.5491571 -0.087179005 -0.54854894
0.09386015 -0.08093187 -0.6732998
0.20746413 1.0341929 0.062107287
-0.81082714 1.1952593 0.35786906
0.37830278 0.89434105 -0.65358204
-0.6687444 0.8406824 0.56537974
-0.46222478 1.1217508 -0.61075366
-0.10743946 1.0444188 0.52582943
0.04633262 -0.24336843 -0.18576208
-0.76576734 -0.2440935 -0.103568256
-0.047433347 1.6487128 -0.408638
-0.3158654 1.0082383 -0.24547368
0.2721004 1.1159174 0.6424515
-0.2585565 -0.23695403 0.37306482
-0.4679615 0.49318492 0.20191097
-0.53301847 1.110251 0.16315776
0.29507676 0.18304053 0.16659364
-0.13712594 1.3848903 0.20590696
-0.90004194 -0.40632653 -0.10668227
-0.5774428 -0.40550727 -0.91495526
0.55665016 0.6660483 0.5975255
0.075705424 1.2480981 -0.7346196
0.22629297 1.492449 -0.7822168
0.41572917 1.4254866 -0.7353509
0.050299473 1.366268 -0.23096055
0.36301064 -0.057674453 -0.18287359
-0.51768494 -0.41922247 0.272924
0.10142479 -0.070125744 0.45556372
0.10586746 0.14100653 0.1550642
0.89109063 0.982727 -0.23943985
0.70341146 0.4798836 -0.24580157
0.73676634 -0.08604255 -0.901634
-0.42051554 -0.2547903 -0.4754637
0.17491058 1.9213777 -0.00050049054
0.099817164 -0.22206524 -0.03248602
-0.2138547 -0.4105307 -0.44919047
0.43754974 0.67366344 -0.24162741
0.3876952 1.1952034 0.32055733
0.33705682 -0.41995066 -0.57922363
-0.272203 0.41028956 -0.6218558
-0.534346 1.761248 0.0066244476
0.4212275 -0.41379717 0.6127199
0.49385437 1.7900729 -0.036472913
-0.07737861 -0.06165806 0.3802055
0.38688475 0.9117568 -0.45474994
-0.35248032 1.8729979 -0.090461686
0.23567522 -0.4008016 0.9125378
-0.2031072 -0.059959177 -0.4096316
-0.04782266 0.17189747 0.2695397
0.15547231 0.7532019 -0.5271685
0.38968056 1.2262707 -0.33140713
-0.656662 1.340133 -0.18029976
-0.27787548 -0.22587836 -0.16917881
0.8126997 1.3467193 -0.3409117
0.5448972 -0.41335723 -0.492521
-0.42175362 0.89190084 0.3174341
0.118195176 1.0659103 -0.45278722
-0.37751386 -0.24327302 0.2411836
-0.44464588 -0.076462045 0.23397052
-0.20493786 1.1343985 -0.34578642
0.8936707 -0.0948303 0.9077184
-0.05822403 0.5631794 -0.36517256
0.92964244 -0.24917854 0.8576306
0.06711234 1.5282712 -0.32005396
0.20557407 -0.4079288 0.09547676
-0.09954917 0.99682283 0.72814244
0.3389145 1.8780432 0.060556304
0.23686284 0.25194138 -0.43502295
0.66533995 1.3059773 -0.28906262
-0.46998477 0.7780529 -0.24611564
0.42633507 1.4736592 0.65734166
0.7298248 -0.41766798 0.42713273
-0.57670665 1.2323117 -0.7001705
0.5237074 -0.08005531 -0.32629073
-0.5354196 1.0201137 -0.75275064
0.7228763 -0.41802812 -0.38701022
-0.89666975 -0.095154434 -0.14350194
0.7947812 0.58732724 -0.0982669
-0.86717796 -0.09442307 0.91206956
-0.8767662 1.1331605 0.14649925
-0.1834026 0.90905726 -0.1300132
0.3055883 0.6075747 0.116658114
-0.19028232 0.33580065 0.020256942
0.30365062 1.701851 -0.21900186
0.2854795 -0.23257057 0.21198025
0.10310835 0.8614477 0.08610849
-0.15606672 0.8484541 0.5147572
-0.10939965 -0.2623052 0.91735077
0.5207069 1.0288783 -0.77480066
0.7106177 1.3074687 -0.5141433
-0.13517767 1.5699114 0.4511767
0.20300783 1.3562305 0.12523834
-0.18727753 1.303673 0.8169087
0.2651257 1.2228178 0.0037917297
-0.15390888 0.7084191 -0.6543535
-0.50184715 0.31917506 -0.28413692
-0.7433946 -0.41446114 -0.0011673253
0.12447717 1.2715759 0.6694741
0.71515733 -0.08553219 -0.19331002
0.7227807 -0.08228053 0.008894732
0.46629497 1.5814495 -0.15729107
0.7044609 -0.41600358 -0.76102555
0.3283069 0.8346096 0.038663592
0.23261753 1.5322112 -0.17582831
0.571662 0.34644103 -0.20205592
-0.45503205 -0.08627937 -0.73634493
0.62141466 0.38409716 0.1572746
0.29132086 0.765036 -0.37492514
0.6807188 1.4880636 -0.43305498
-0.5010877 1.5528047 0.10427815
-0.7602086 -0.2503438 -0.316868
-0.4182207 -0.41198784 -0.19140218
0.79616034 0.8206564 0.37085885
0.3405102 1.430881 -0.034886755
0.17224836 0.9692333 -0.9218601
-0.77034914 -0.25613144 -0.5237347
-0.3540941 1.4514047 -0.50617856
0.25360876 -0.4054635 -0.27771387
-0.6056324 0.6039096 0.15355977
-0.6830344 1.0417496 -0.30854076
0.4369205 1.190505 0.5260285
0.104589276 -0.24243923 -0.75767195
0.24773154 -0.06407386 0.3205726
-0.12738931 1.0454032 0.29914618
-0.5818315 0.9630223 -0.0044553517
-0.8900734 -0.41242325 0.3237779
-0.85764337 -0.40478763 0.9055893
-0.7308934 1.4078408 0.34202528
0.34340823 -0.4184746 0.77429163
0.6799545 0.81767255 0.5500099
-0.572613 -0.25275022 -0.78704774
0.23241779 -0.22217718 -0.19751847
-0.8940929 -0.4049688 -0.7314682
-0.43429154 1.3498306 -0.7310326
-0.21244025 0.8938544 0.3515788
0.6089113 1.7178335 0.09471997
0.54877734 1.2053716 -0.20306078
-0.60607076 -0.23994702 -0.013252564
0.7325599 1.1661403 0.104049236
-0.89601165 -0.40882677 -0.3244666
0.805793 0.96426564 -0.44672108
0.32786605 0.26614696 0.3500711
-0.67518854 1.6266723 0.07504808
-0.72869676 -0.41595423 0.21112981
-0.3821869 0.82140326 0.77261686
-0.7421043 -0.08753504 -0.60446656
-0.21305707 -0.41206342 0.90072393
-0.66446984 1.3296697 0.52137357
0.8814173 1.28704 0.059218757
-0.7450666 -0.24441332 0.1126332
0.016534686 0.585784 0.31386232
-0.4844209 1.5962651 -0.09662488
-0.508862 0.5380941 -0.19207102
0.22164583 0.7435818 -0.6948452
0.19965054 0.93143666 -0.74407095
0.27756107 1.2969584 -0.84812135
-0.5422849 -0.4180779 -0.52504784
-0.423608 1.0736433 0.58703226
-0.25162333 -0.053431496 0.30191538
-0.9015914 -0.09591936 0.34887576
0.095717095 -0.08139606 0.66604555
-0.442375 -0.23548004 -0.09366907
-0.6981679 1.4059057 -0.4516671
0.477144 0.7049987 0.097831905
0.39314973 -0.04710544 0.01377457
0.18361455 0.3303476 0.5216371
0.7802743 -0.24310553 0.116807595
0.50862753 0.80141735 -0.082419075
0.19170165 -0.08079917 -0.8812457
-0.42373863 1.4107174 -0.01215503
0.5966176 -0.24707815 0.4228208
0.3196267 0.8444176 0.39323658
0.45920557 1.6321197 0.14716277
0.11738971 -0.22997811 0.14622854
0.67867154 1.3561987 0.061602592
0.55069804 1.2309098 0.17909646
0.013461562 1.0639535 -0.6179668
-0.021397043 0.8361175 0.25040662
-0.39434114 -0.41699117 -0.38846025
-0.71935284 -0.090775006 0.62418187
0.5441488 -0.41581467 0.32829306
-0.89827144 -0.09299162 0.54089373
-0.65373147 1.577503 0.2736022
0.0231667 -0.40935814 0.17992893
-0.6700448 1.0526912 -0.6292999
0.7511416 -0.25277212 -0.28895468
0.4162808 0.67167515 0.4412011
0.001946866 1.0000857 0.895484
-0.91908836 -0.2705537 0.22114332
-0.2186504 -0.09337881 0.90017414
0.12514523 1.2243266 -0.5475662
-0.84991777 -0.40607613 -0.91298115
0.3384105 0.8463692 -0.17921789
0.26235622 0.62374276 0.30354604
-0.5808672 -0.41125792 0.09981419
0.48746508 0.69707054 -0.4371044
0.17862973 1.7379787 -0.07383451
-0.4035409 1.1869856 -0.32809693
-0.92535925 -0.2466816 -0.6438313
0.8940706 -0.08823979 -0.2869692
0.64518976 0.6608484 0.007308486
-0.7125393 1.1810849 -0.1515931
-0.30081296 1.0428114 0.4270003
0.24654114 0.66657317 0.54071784
-0.51304877 1.3827916 0.64611983
-0.034528717 -0.05266819 -0.32061404
0.52295893 0.9102939 0.08435113
-0.54258215 1.3594751 0.16049689
0.13833317 0.75349176 0.36545312
-0.72598577 -0.4179145 -0.42473537
0.3907283 -0.41530597 -0.3914683
-0.07481846 -0.08489421 0.7542107
0.1589373 1.2141299 0.85985136
-0.48251832 -0.06799246 0.025114078
0.54385114 -0.42224306 -0.6723875
-0.39826614 -0.08458942 0.62611365
-0.0367904 1.5751591 0.08549854
-0.6803637 0.43863118 -0.0036503833
-0.43302667 -0.41236883 0.0018030942
0.21623304 0.5691619 -0.5713596
-0.65538746 0.4382351 -0.20647359
-0.14843339 1.8029535 -0.47463474
0.46247852 0.5635334 0.27205992
0.5505892 0.98994684 -0.14672437
-0.053478558 -0.23048842 0.09623307
0.5809066 -0.085975036 0.531755
0.12034427 0.8275435 0.84967834
-0.68896556 -0.4138335 0.5965003
-0.22468442 0.9134029 0.8514254
0.5044564 1.3689668 -0.41640165
-0.88871014 -0.08847327 -0.73345035
0.90572935 1.066558 0.12602416
-0.60481393 1.2732334 0.33609828
0.16941753 1.4183751 -0.63706636
-0.07985455 -0.406663 -0.31935385
-0.29802644 1.199582 -0.6591077
-0.26346567 1.6737375 -0.60783523
0.58377075 1.032959 0.48848367
-0.40153155 -0.081569046 -0.4215176
0.25439447 -0.17668155 0.9283568
-0.7666873 -0.24296081 -0.7416142
0.6896076 1.2977221 0.2682401
-0.46319342 1.274921 -0.5170075
-0.34520617 1.0498298 0.21219842
-0.33759183 1.5551662 0.3859169
-0.30137634 0.5762384 -0.7466986
0.07745001 0.8613248 -0.3836131
0.09113253 1.0689447 0.7433623
-0.60665727 1.2265024 -0.33641094
-0.042802483 1.6252804 0.66065097
-0.22065514 1.7001595 0.3179404
0.024158873 0.45396614 -0.041142896
-0.121068254 1.9279255 -0.15813714
-0.08333452 1.4286659 -0.06800352
0.023355234 0.6207541 -0.16932455
0.04614196 -0.051181175 0.05638395
-0.52793133 0.93735194 0.7031915
0.22675616 0.93930244 0.6866553
0.7275444 -0.41794354 0.22457406
0.42745036 -0.2404992 0.07831517
-0.86855173 0.75392824 -0.027430281
-0.485721 0.49959278 0.013229191
0.2055242 0.52157634 -0.055316128
0.06873219 1.1991746 0.075568065
-0.40824217 -0.0843492 0.8847135
0.26045763 1.3057771 -0.17691088
-0.37773383 1.7917362 0.32046553
-0.4882846 0.84652394 -0.7592845
-0.21465275 0.57273066 -0.2380716
-0.92392385 -0.2545393 0.8708111
-0.30113927 0.74544364 0.60299295
0.3606608 -0.41842818 0.4258733
-0.24274574 1.2053096 0.24664415
0.040754702 -0.4073766 -0.017228559
0.3823596 0.36662915 0.50409806
-0.44925725 0.899256 0.11932379
0.19068985 -0.4124134 -0.44636667
-0.44510636 0.62001777 0.32850546
0.16099072 1.5589383 0.028298412
0.0145115275 0.7285712 0.49251902
0.8673317 0.77887917 -0.15535569
0.20618969 -0.04385396 -0.09638901
0.6763911 0.42096066 -0.040279843
0.19348061 1.1079199 -0.70025474
0.3964333 0.5289092 -0.6653211
0.09757682 1.0785732 0.54917264
-0.14336872 -0.40781325 0.0647386
-0.18084848 -0.028392825 -0.20626321
-0.52136815 0.7406626 0.6572286
-0.5580147 1.4390714 -0.60191494
0.8998612 -0.40859443 0.12055858
0.8146502 1.4105958 0.20154619
0.56350124 -0.41333586 0.73912716
0.025917154 1.551862 -0.7625042
-0.24635065 -0.24675182 -0.5826394
0.51802933 1.357146 0.36269322
0.8970134 -0.40820092 0.5336909
0.24801493 1.7222183 0.1243
0.36023515 -0.08772966 -0.9046712
-0.0930952 1.4075654 -0.8392652
0.14019519 -0.077556446 0.87128675
-0.01750749 1.7646706 -0.06678644
-0.23470722 1.8748089 0.22164263
0.261248 1.7541585 0.47636002
0.5968256 1.6541107 0.29097402
-0.57117933 1.0889269 -0.4601835
-0.2558651 -0.09051352 -0.74455464
0.71836346 -0.08394758 0.87691236
-0.7198467 -0.08390755 -0.21795905
-0.44468075 -0.24374557 -0.63403404
-0.4915598 1.7781502 -0.18312168
0.62082136 1.1777475 -0.67529297
-0.6208923 0.92966914 0.24731272
-0.3309853 0.99305284 -0.6718215
0.36479124 0.7209103 -0.57196075
-0.09736249 0.768124 0.6740983
-0.31621838 0.64453125 -0.5661216
0.42375886 0.23679703 -0.17496917
0.8769293 0.8558608 0.17814234
-0.34758493 -0.41652673 0.35004592
-0.36619788 1.5161017 -0.6996534
0.22102678 1.0115448 0.86828727
0.7370701 -0.08682697 0.426829
0.35193354 1.6545609 -0.024526292
-0.924183 -0.2542581 -0.42554998
0.4139564 1.623771 0.53238904
-0.1412656 0.36116335 0.5758852
-0.8810152 -0.41391122 0.5242027
0.5087506 1.0458262 -0.54995376
0.5087694 0.8424686 0.4821941
-0.31643793 0.3196842 0.45559675
0.50596726 0.8188416 0.7083223
-0.15199518 -0.25801355 -0.7605988
-0.70894414 -0.26175767 -0.92542255
0.39095 1.3286012 0.1612427
-0.0861004 -0.23955578 0.63252354
-0.16113031 -0.091577075 -0.91295063
-0.8556225 0.9772379 0.2662099
0.113734886 0.4838605 -0.24509066
0.57694745 -0.09012054 0.7461815
-0.022246439 0.8982909 -0.5447598
0.1465188 1.9080198 0.1945258
0.23430258 -0.41795743 0.60576963
-0.46011418 0.50125253 -0.5923463
-0.27966684 0.58810294 0.06305817
-0.6129163 1.6440189 -0.2787124
0.034528024 -0.23673323 0.4648618
-0.6388264 1.0287299 0.59631276
-0.7732632 0.81327647 0.36826456
0.7474109 -0.25240076 -0.086475894
-0.265949 1.261758 -0.4708662
-0.054730527 1.2148148 0.22604403
0.7129902 -0.08667213 -0.3871193
-0.6873639 1.2525265 -0.55045813
-0.78741765 0.60455596 0.07987634
0.57093155 -0.081514284 0.31934237
0.23012908 1.5349301 -0.49531546
-0.1307336 1.5031682 -0.24977323
-0.30013913 1.7211246 0.49682897
0.3863888 1.557997 -0.34972644
-0.51236975 1.0712898 0.37803268
0.32262322 0.38800603 0.046826594
-0.18087482 0.3546152 0.22528468
-0.407875 0.8985827 0.52859414
-0.07179277 0.7448162 -0.28187644
0.31824175 -0.23916703 -0.7755281
-0.12738028 0.69948614 0.34913662
0.6201912 -0.27416062 0.07441808
0.6478169 -0.24732341 0.24785706
-0.42450407 1.5597908 -0.33240587
-0.1784763 1.547704 -0.74988437
0.10433179 -0.41332301 -0.6157873
-0.1796568 0.90761924 -0.90689325
0.6462189 -0.24472427 -0.91663086
-0.6161325 0.51682544 0.37211004
-0.5914006 -0.25905246 0.257362
0.5691316 -0.41595057 0.5208156
-0.14909081 1.1076603 0.06836401
0.2941118 1.2722294 -0.66436607
0.024803797 0.9068055 0.63737476
-0.6922672 1.0997205 0.27009565
-0.15243867 0.6156821 0.5428009
0.89670104 -0.09045817 0.7324649
-0.5980011 1.5644817 -0.4424035
-0.58493733 -0.090616345 0.34427774
0.406559 0.2796669 -0.34998995
0.31291455 1.2949377 0.6321033
0.25890246 1.3930845 0.78346497
0.69370747 1.0878938 0.29258662
-0.15537232 0.7056553 -0.08183043
-0.12587804 0.7169117 0.13545536
-0.62149096 -0.2526392 0.4681723
0.15160102 0.7752264 -0.22896416
0.91928697 -0.24955949 0.6446099
0.13499576 1.1664038 -0.91278565
0.41065574 -0.24369952 -0.2864713
-0.53330314 0.31273454 0.11077635
-0.48667353 -0.26291746 0.59082115
-0.3250137 0.57358277 0.4733132
0.92643374 -0.24986151 0.4384476
0.59366083 -0.25325045 0.64335954
-0.5642771 1.245693 -0.01504795
0.53307533 1.045485 0.21348587
0.8550582 1.0047214 0.31331685
0.17084984 0.42363948 0.34021905
-0.3704952 0.6472086 -0.32884604
-0.7709197 -0.25738132 0.5410944
0.1871857 1.8663679 -0.3382421
-0.0424795 1.7029674 0.28335997
0.545236 -0.08694164 -0.90666604
0.24250805 0.47325274 0.64648277
0.09538205 -0.26012298 0.92404056
0.65512025 -0.083652385 -0.733601
-0.0052149054 1.2100061 -0.32424438
-0.055051263 0.12957859 0.027755018
0.46598607 1.2346017 -0.7827866
0.14865112 -0.05112476 -0.293889
-0.7872709 -0.25356954 0.7333555
-0.73941195 -0.0858105 0.43483156
0.50975496 1.122088 0.7167181
0.19049379 1.2060788 -0.33216238
0.08705354 1.3093679 0.28368083
-0.35803783 0.60908186 0.69747055
0.5817756 -0.2393761 -0.2127577
-0.21088806 1.1086149 0.8547403
0.7831167 1.1671953 0.4407475
-0.57217544 0.7495414 0.29153523
-0.20545995 1.7826068 -0.080467
-0.6199563 -0.40399346 0.9043522
0.23771992 -0.23434374 -0.3879972
-0.5611063 0.44806087 -0.41462326
-0.46749055 1.739025 -0.36308253
0.78092504 -0.25294358 0.3395738
0.91563165 -0.2426711 -0.5920372
-0.16184464 -0.05506172 0.00014916155
0.028897906 1.2585652 0.5022979
0.3310055 -0.0674783 -0.357682
0.6107086 0.9735204 0.6594145
0.5325662 1.5221782 0.0116347
-0.70424247 1.1273205 0.03575015
-0.41098922 1.1683836 -0.81711715
0.8980042 -0.40874195 -0.08619824
0.7026848 0.6483119 0.44623575
-0.1417853 0.53394055 -0.54856473
-0.33781183 0.43094507 0.32249835
-0.3390584 0.5179964 -0.44713366
0.06305561 -0.24370016 -0.35489136
0.7187941 0.79045844 -0.5493355
-0.49642283 0.9297153 -0.5544177
-0.051947508 1.1909521 0.68005925
-0.68523884 1.2678478 0.14889641
0.27400023 -0.083398595 -0.6976584
-0.89444566 -0.40715277 -0.53255314
0.032577015 0.63287276 -0.6562139
-0.2648087 0.93924075 0.64997244
-0.035499014 0.718516 -0.48945335
0.89226323 -0.4075647 0.7333152
0.23151192 -0.04247584 0.11138644
-0.21058333 0.6969045 -0.41885394
0.035930313 1.5761156 -0.12803212
-0.44061804 -0.24168561 -0.28744537
0.90027475 -0.088919014 0.5309615
0.88753366 -0.40062267 0.9064145
-0.06184923 1.238178 -0.07881525
-0.48179868 0.737272 0.4731285
0.5451788 1.6625135 -0.39842284
0.3062496 -0.40464127 -0.91446835
-0.32021165 1.5077012 -0.16181456
-0.51233166 0.345995 0.30134052
-0.3636567 0.8471574 -0.40978518
-0.14144713 -0.41023302 -0.9080032
-0.19094068 1.5483305 0.23647417
0.44610602 0.79849494 0.2550674
0.26712745 1.5914519 0.653214
-0.36293525 -0.41563106 0.5458827
0.57173705 0.5785738 -0.31681144
0.20636097 -0.41395807 -0.7540295
-0.16708668 1.7273083 0.10888052
-0.530858 -0.078387685 -0.15285929
0.5372898 -0.10110584 0.9157672
0.7627219 0.53108454 0.10188986
0.53910077 -0.060756147 -0.12199716
-0.20849353 -0.25688452 0.76086897
-0.039084174 1.0400567 -0.9420536
0.117985874 -0.41914085 0.7478332
0.26736844 -0.22379012 0.0096240565
-0.33612347 -0.41369146 0.15005726
0.26848608 0.36590013 -0.2016727
0.014289573 0.83673793 -0.90659463
0.24848002 -0.2534716 -0.6020067
-0.12563667 1.4789476 0.7557975
-0.08236423 1.7505784 0.5277266
-0.2330465 1.1401863 -0.8957586
-0.44828323 -0.25344443 0.40714467
-0.19550325 1.9208734 0.043350995
-0.12839672 -0.25102228 0.47042125
-0.34210998 0.8098848 -0.6403705
0.099801585 0.68780386 0.17459065
0.22707614 -0.26171523 0.773868
0.93390167 -0.24623683 -0.7808565
0.44312793 -0.25468332 -0.6217452
-0.2931776 -0.23699328 0.026383955
0.28172418 1.3116723 -0.47533804
0.7236532 -0.39973187 -0.9177984
-0.74060166 1.4833593 -0.27537322
0.05418685 1.7461305 0.10815577
-0.33345276 0.40445584 0.119059384
0.14842378 1.6645952 -0.6600844
-0.92327356 -0.2604624 0.42961884
0.44841635 -0.24680275 0.52476645
0.40105984 -0.24876586 0.35340104
-0.91090095 -0.106800884 0.17107272
-0.4820674 0.66639817 -0.7004291
0.46023884 0.2695765 0.16831651
0.41231942 0.46546438 -0.3001212
-0.31066278 -0.051981635 0.11642924
0.008316621 -0.06598531 -0.48738998
0.70353085 0.85067666 -0.025848873
-0.40440527 -0.24099383 0.7531067
-0.2229257 0.34440172 -0.19054443
-0.0642889 -0.23101431 0.2868569
-0.24495617 1.504247 0.049381692
-0.41666397 0.91658556 -0.11867414
0.7850981 0.6427187 -0.2933877
0.90226114 -0.08685481 -0.4863777
-0.31237587 1.2229443 0.45575845
0.13635196 0.7622572 0.6681657
-0.3238845 1.439666 0.7233776
0.55314994 0.5059239 0.4661648
0.26562127 0.60204434 -0.22805527
-0.63630444 0.8154185 -0.6291896
-0.15571177 0.25975722 -0.49168414
0.3800615 -0.41462553 0.014578966
0.08804964 -0.40618324 -0.90884125
-0.15797684 1.2943156 -0.25082824
-0.7167709 0.80707365 -0.05696983
0.4212206 0.5262368 0.60235167
0.011520951 -0.41223413 0.9059442
-0.032013975 1.1850014 0.874936
0.45445397 1.8021221 0.1884482
0.40195328 -0.067107834 0.2169246
-0.42538595 1.2376078 0.2873475
0.07555904 0.4517442 -0.7193566
-0.4450962 0.68375677 0.11954293
-0.20656043 0.9195763 0.16939676
-0.04455202 0.27872556 -0.101034775
0.26509094 -0.08957672 0.7245288
-0.8990607 0.94821703 0.046893656
0.47383642 1.2996483 0.7191473
-0.7346604 0.9578053 0.10809466
-0.04214129 1.9027281 0.21981575
-0.7308431 -0.08552122 -0.89864695
0.39996243 -0.4158218 -0.17840949
-0.066614255 0.4291789 -0.2250178
0.12766632 -0.24654001 0.60566425
0.894639 -0.08976881 -0.08814745
0.88741803 -0.08199647 -0.70285535
0.5575148 -0.4145279 -0.28647733
-0.15998825 1.3144976 0.61159486
-0.48342353 0.9812867 -0.3237948
0.3426755 0.97873557 0.20685288
-0.29557574 -0.2450559 0.5725832
-0.37459207 0.44233534 -0.28121918
-0.38511395 0.33798456 -0.4718995
0.39952704 0.70221543 -0.77683914
-0.62424684 0.6173267 -0.5418122
0.58871764 0.7107357 0.34557694
-0.669175 1.6342857 -0.11328833
-0.08890331 1.3779747 0.4029745
-0.6049173 -0.097282365 0.14378195
-0.7291075 -0.08372596 0.7989196
0.49284065 -0.2416673 0.2258853
0.019471474 0.11521974 -0.19153932
0.20929295 0.4265538 -0.39974657
0.2086823 0.7647865 -0.8738435
-0.059446387 1.6996615 -0.63957465
0.73093915 1.3505085 0.4423325
0.3406363 0.5724448 -0.43326208
-0.35888708 -0.06181978 -0.25384036
-0.8373538 1.3088129 0.2105743
0.18018003 0.8915801 0.5061945
-0.08179119 0.36719358 -0.6324612
-0.38550258 0.22538257 -0.16004194
-0.82840407 0.9157593 -0.34440693
-0.5376481 0.62567663 -0.37573996
-0.42594084 1.5618024 0.5779882
-0.15684563 0.51224715 -0.059020437
-0.14565453 1.8426762 0.3868709
-0.922842 -0.2586642 -0.21591166
0.5596776 -0.40468094 -0.075506285
-0.86976206 1.1057699 -0.26073107
0.8574207 -0.24877755 -0.927662
0.4590103 1.2385566 -0.55943316
-0.19689164 0.41367197 -0.38832122
-0.36578158 0.6378147 -0.10839829
-0.31131768 0.7653887 0.215855
-0.11475235 1.0833817 -0.17613178
0.09551428 0.29590076 -0.23735222
0.57840216 1.1928716 0.3994856
0.75334144 -0.25305524 0.5410012
0.8948486 -0.4074877 -0.6869162
-0.05155156 1.0352664 -0.39961922
-0.3528567 0.42349368 -0.084818825
0.33762366 1.5947254 -0.66125023
0.40542632 -0.24003431 -0.10574184
0.3744641 1.7974179 -0.361944
-0.1751787 0.24086511 0.3864993
-0.23211636 -0.08111502 0.5084839
0.21398881 -0.40407068 -0.09528393
0.14473149 0.1335344 -0.037378967
0.6684207 0.7914206 0.16889468
0.3174696 1.8784392 -0.15451756
-0.88814986 0.92094105 -0.15554895
-0.027157556 -0.09828298 0.91338634
0.90854955 0.9189945 -0.022020355
0.011981182 0.6379999 0.025318854
-0.2535077 -0.08660036 0.7120091
0.40752026 0.44238523 -0.10845951
-0.34613633 1.6705573 -0.0007339808
0.38074508 0.6416615 -0.06117773
0.19721183 -0.24856827 -0.9237419
0.09200899 1.0428367 -0.25197744
-0.2712537 1.8651831 -0.28855574
0.55963266 -0.08772746 -0.52960926
-0.34627265 1.4068902 0.17793238
0.40429708 1.6761473 -0.5136752
0.58278704 1.1740927 -0.41655296
0.9016856 -0.08879224 0.11314489
0.62751865 0.9065045 0.32482445
0.6118218 0.60194695 0.17911696
-0.3084729 0.4534454 0.60321397
0.19347832 1.6587014 -0.37459397
-0.42462862 -0.40844053 0.8951386
0.11226137 1.424808 0.41802204
-0.7312323 -0.24942365 0.91865754
0.3708471 0.89724433 -0.8483296
0.5786951 -0.24824885 -0.4088295
0.6960888 1.0902002 -0.26457185
0.53657126 1.5409484 -0.56412244
0.33514124 1.5085127 0.13776413
-0.82245445 0.74829817 -0.24458534
-0.7820555 0.5870385 -0.12980346
0.39517736 -0.4121511 -0.7598362
-0.6375728 0.6997154 -0.22457658
0.69600964 1.4993694 0.3307494
0.7245029 -0.41761696 -0.1832802
0.7152976 1.5737064 0.13756163
0.7367121 -0.085304484 0.646503
-0.6157537 -0.25854027 -0.6132299
0.018343378 1.0299239 -0.039418545
-0.2488678 -0.40747783 -0.258111
-0.35723394 0.2387035 0.25182325
0.19462124 -0.07498123 -0.49678248
0.1837329 0.6139183 0.7719673
0.05883431 1.7992146 -0.49914533
0.44375354 1.0445199 -0.3064778
-0.6448854 -0.08342871 -0.7389846
0.13875154 1.7037914 0.29757673
-0.5407164 0.31846493 -0.08549319
0.31058848 -0.24896541 0.6164925
-0.0353321 1.887646 -0.33623302
-0.30300337 0.7440723 0.408419
-0.36056232 1.6342969 0.19379282
0.900488 -0.40908417 0.32696593
0.21598963 1.1629318 0.22857833
0.026138952 -0.24387982 0.7658489
-0.7976485 1.277378 -0.35441148
-0.53033686 1.0966682 -0.17449614
-0.5131053 1.2107358 0.49832606
0.2551374 0.79644203 0.19896397
0.64631355 0.7749214 -0.37362114
0.56572366 -0.19101664 -0.04477244
-0.6687082 0.4491376 0.19126445
-0.60180515 0.8457577 -0.39550942
-0.30052686 0.7992102 0.011320247
-0.32091296 1.7608047 -0.44715643
-0.852543 1.3116642 -0.17440881
0.1802892 0.929379 -0.10227224
0.64749515 1.6395454 -0.25146902
-0.93161106 -0.2557794 0.63516283
0.48249698 -0.4146855 0.9049444
0.70732486 1.2247448 -0.090924665
0.15124425 1.5287269 0.22263658
-0.3331865 -0.045707487 -0.073139325
0.023407996 1.3642366 0.8157913
-0.78764856 1.4819357 -0.07097411
0.06289889 1.1166215 0.36138058
-0.212286 0.8725211 -0.53095484
0.072984114 -0.051672556 0.25646952
0.14766094 0.5486512 0.47099984
-0.12590435 -0.4150908 -0.6071111
0.25096607 1.5571736 0.43740606
0.90082777 -0.40655124 -0.48675072
0.18783487 1.438734 0.58139396
-0.4440357 1.0884504 -0.011645652
0.38085818 1.3971311 0.48653162
-0.16236018 0.47268385 0.39548182
0.13039866 0.49988726 0.14229853
0.43352103 1.3855271 -0.20834553
0.73222816 -0.42070273 0.021233711
0.041074835 0.59942806 0.6268089
0.056100912 1.6060592 0.45582682
-0.27106318 1.3791708 0.3498652
-0.05903098 1.231889 -0.90430754
-0.31589836 0.76438594 -0.826145
0.1179443 1.701341 0.59113526
0.5720183 0.40534452 -0.38948926
0.8964914 -0.4085889 -0.28699094
-0.5705972 -0.4155189 -0.31480432
-0.0022026976 0.37598166 0.2998898
0.032431964 -0.091339864 -0.9116777
0.5721507 1.1016649 0.008848179
0.07460116 1.8400133 0.40483028
-0.7179715 0.57091546 -0.33707047
-0.18433028 -0.41192743 0.6095855
0.55558145 1.4483829 0.18589771
0.22453931 1.2460177 0.45476288
-0.37943164 0.21954861 0.034115065
0.5401472 0.84738106 -0.5391402
0.019518912 1.0275322 0.17167997
0.76191676 -0.24254729 -0.7385579
-0.15869445 1.6094005 -0.08230899
-0.31788367 -0.41615897 0.7369293
-0.08600307 -0.41542852 0.7546351
-0.61493206 -0.25486237 0.7226356
-0.14559245 0.88539475 -0.7219695
-0.25059482 -0.25863606 -0.92130417
0.7310828 -0.41402763 -0.580276
-0.59783375 -0.25080347 -0.42101198
0.7965038 0.66570365 0.24859396
-0.13616897 -0.082261786 -0.59377027
-0.025960587 1.3961182 -0.635231
0.6899121 0.6021973 -0.4625107
-0.36560094 1.2267094 0.07406863
-0.17208076 0.9100057 -0.35447413
-0.5505513 -0.09126784 -0.91264004
0.26652485 1.0574278 0.4258644
-0.84094536 0.7893541 0.17626908
-0.27189627 -0.23038936 -0.37064147
0.52906746 -0.4116769 -0.89736676
0.39769155 -0.2385472 -0.46399376
-0.7002852 -0.4186949 -0.7982137
-0.31887305 -0.2535817 0.9226543
0.37540966 -0.41342908 0.21583661
0.0150868185 0.80379105 -0.08061363
0.052455507 0.49699605 -0.52082163
0.796062 1.4899993 -0.012247121
0.7003815 -0.41723496 0.8782305
0.5249346 0.28790563 -0.008597067
-0.55982614 -0.08447513 -0.33843333
0.6496215 0.7197207 -0.18197334
0.5015145 1.7669785 -0.21921678
-0.11152704 1.2276528 -0.7133043
0.673366 0.49979985 0.3079607
0.04733584 1.5574567 -0.53326344
0.8962017 -0.4055106 -0.88099355
0.56726164 0.66440785 -0.63923293
-0.75143194 0.6349977 0.2791825
0.4448021 1.0050545 0.3723425
0.5467209 -0.25716954 -0.7743689
-0.3560295 -0.088917315 -0.90895367
-0.11482935 0.5181091 -0.75929916
-0.007703825 0.47087336 0.4865411
-0.21205345 -0.2222975 0.17913643
-0.26276904 1.3464878 -0.10165608
-0.0048233774 0.63757414 0.80352724
0.16170147 0.952375 0.2838835
0.333336 0.4918056 0.4231879
-0.92315936 -0.2518962 0.0057801986
-0.0056864955 0.36613768 -0.40043283
0.10076991 1.5239649 0.7382876
-0.83820665 1.3089733 0.015506893
0.36679325 1.0812535 -0.6726053
-0.09495125 0.89404356 0.038848102
-0.6328441 0.8910196 -0.20460163
0.5758177 1.5345047 0.48224682
0.0033365241 0.27035427 0.48106825
-0.5149163 -0.41987437 0.70771325
0.72100127 0.97320986 0.1305116
-0.31812665 1.6875397 -0.2206924
-0.6184517 0.62163496 -0.04363446
-0.18486454 1.294308 0.059817694
0.49568662 0.85474396 -0.29223886
0.90305686 -0.089260384 0.32285458
0.24844418 -0.24223274 0.4399253
0.25073022 0.96209645 -0.32992595
-0.5122237 0.57063603 0.563506
0.091969706 1.9246593 -0.1716339
0.044585668 0.42651713 0.6705576
0.074034184 0.2939961 -0.5555496
0.49832374 1.307353 -0.008061694
0.34904042 0.8043399 0.5986577
0.62501013 -0.251089 -0.6051098
