0.58740664 2.453693 0.62206113
0.44768536 1.6198161 0.074579194
0.45166257 2.6372437 0.3831917
0.74957645 -0.2531724 0.75679195
0.37713474 2.095573 0.60559094
-0.6105262 2.0788088 0.44203502
0.0032784706 1.3493553 -0.38260978
0.6482339 2.2692418 0.638402
0.2860278 2.914167 -0.4726808
0.7794268 -0.25080276 0.9350207
0.4636628 -0.08749378 -0.72854125
0.007266042 -0.41739345 -0.46878785
0.023344021 2.535398 0.13590576
-0.7501813 2.2034154 -0.09404409
0.28830534 2.5127246 0.3540942
0.10186151 -0.24742913 -0.5293511
0.2926402 1.5569003 0.22228394
-0.33660835 -0.08765843 -0.5820499
0.10399088 1.7968649 -0.36773825
-0.90527177 -0.09813936 0.7351599
0.46014768 2.849067 0.43143472
-0.61019266 2.6231396 0.02772196
-0.47385508 -0.25384384 -0.9252524
0.43000677 -0.084509715 0.6449222
0.20832919 1.552002 -0.6180944
0.8605128 2.461501 -0.079138964
0.8744434 2.3073936 -0.18943286
-0.28972048 2.1715045 0.023323597
-0.21346173 2.7716353 -0.34895378
0.18264377 1.3210583 -0.2311444
-0.44138378 2.474886 -0.14397836
-0.7606877 1.958442 -0.44492185
0.0037471796 -0.08779155 -0.1278911
-0.74801207 2.6618042 0.17134213
-0.7242387 -0.08658196 -0.4194885
0.3176573 2.2608142 -0.4547612
-0.5898458 -0.41631597 -0.10445559
-0.37998164 2.4385252 0.6616623
0.09663686 2.5369396 -0.40502855
-0.2996422 1.9549286 -0.22695602
-0.056334287 2.4075527 -0.48534554
-0.25711986 2.2760944 0.67071325
-0.75454986 -0.080261335 0.22078997
0.21094711 1.7373681 -0.76698184
-0.056155536 -0.09026662 -0.76272887
0.75727487 -0.2518161 -0.4949954
-0.5613494 2.3380785 0.7132138
0.59479415 2.5150552 -0.60433924
-0.103698194 -0.24847364 -0.46170235
-0.1637716 2.2535458 -0.74048674
-0.11191645 -0.083498895 0.18889706
-0.78629065 2.3309405 -0.439044
0.37526762 2.1246495 -0.004011659
0.1350125 2.5323257 -0.020139612
0.1966414 2.0978694 -0.5294378
0.9244225 -0.24974105 0.006469392
0.03414421 1.821518 -0.8334659
0.8184196 1.9404788 -0.33494073
0.68933856 2.7721152 -0.009779848
-0.25689834 1.3156462 -0.10862452
-0.44214833 2.5480947 0.48227262
-0.12803562 -0.24703181 -0.26337832
0.85409033 2.3193998 0.30428532
-0.7173101 -0.42112535 0.7764235
0.32951123 2.2780442 0.84514964
-0.49906227 -0.41992924 -0.72915745
-0.74622846 2.1504776 -0.50590336
0.12134738 1.4586552 0.17174858
0.2678437 1.9107101 0.82693857
-0.5613072 -0.087436825 0.55355895
0.75240374 -0.090204075 -0.59113103
0.8237258 2.2898436 -0.36195132
-0.125579 2.720662 -0.5140432
0.2885184 1.3271747 -0.020567223
-0.028125849 -0.41503608 -0.7673037
0.73381805 -0.4189521 0.6454262
-0.14815308 1.8986807 -0.8463434
-0.49931508 1.9448593 -0.5148967
-0.021363437 2.065699 0.42795768
0.56608665 -0.08658311 0.10776806
0.21122777 -0.41706437 0.29299527
-0.35402727 -0.41803187 -0.5851984
-0.3772434 2.3727193 0.8151187
0.11674035 2.5564976 -0.8234936
-0.8918499 -0.099825904 -0.91153574
-0.7856761 2.1778514 0.4514518
0.09257336 -0.42141667 -0.25337303
0.38646683 2.265285 0.13904451
0.45930204 1.4821212 0.33633816
-0.06006051 -0.08438275 0.5728469
0.1150291 2.88578 -0.20153542
0.111819066 2.3412704 -0.098031595
-0.7620272 -0.24210672 0.32640845
-0.5047333 2.9009898 0.25090206
0.41456875 2.302816 -0.07712799
-0.5227988 1.5960288 0.44805735
-0.87154317 -0.08548186 0.023745758
-0.53331345 1.9512645 -0.03787426
0.7374448 2.2627294 -0.5146842
-0.20922956 2.5642076 -0.5961864
-0.21541348 2.7484512 0.68104064
-0.34557268 3.008699 0.15861106
0.5415956 1.9898155 -0.708969
0.32638812 2.7633424 0.33720064
0.6737781 2.1106954 -0.60786045
-0.4006003 -0.090674475 0.4496767
-0.618683 -0.09436247 0.91839427
0.41480452 -0.08545269 0.43344706
0.6019581 -0.26537496 0.90215653
0.9217278 -0.24808422 -0.3940345
-0.8965572 -0.40839303 0.108810514
0.74407554 2.1545744 -0.038270302
0.9195131 -0.24906754 -0.19476463
0.5033289 1.6598468 -0.5257253
-0.5324335 -0.4207837 0.47545612
-0.17719659 1.3583186 -0.29943416
-0.70466346 -0.41563964 0.40104428
-0.13835785 1.6598252 0.14270732
-0.34535742 2.2440214 -0.44462886
-0.8989468 2.3370888 -0.044472173
0.009729797 -0.41683763 0.5818281
0.10983661 1.4550903 -0.03280167
-0.69242966 -0.080761775 -0.012038482
-0.7147424 -0.41769725 -0.6224458
0.028823059 2.0028543 -0.6909343
-0.8955052 -0.40825453 0.72298646
-0.90357816 -0.09417343 -0.52847254
-0.6119941 -0.25257003 -0.21121597
-0.34918445 2.1882114 -0.8418895
0.4305586 -0.25557667 -0.9251511
-0.5849573 2.6763 0.5006222
0.002937242 -0.4178763 0.37673753
-0.25982654 1.8324167 0.8001018
0.33890826 2.2634706 -0.8381773
0.40789053 2.5952444 -0.50546306
-0.5169707 2.659593 -0.16585726
-0.5206456 -0.24647757 0.91493213
-0.49214184 -0.25540262 0.1187342
0.61570466 2.1154652 -0.37804538
0.0009793564 2.6520166 0.32528248
-0.06382245 1.4636724 0.0972102
0.08003867 1.3446813 0.33709496
-0.26413268 -0.41928297 -0.74865353
0.4055466 -0.27101135 0.92488027
-0.2511391 2.588489 0.571509
0.39783114 -0.08660769 -0.535179
-0.17201075 2.2604551 -0.5353774
0.82942605 1.8304254 0.06323445
-0.47570965 2.649813 0.3284373
0.37902993 -0.07904821 0.8766072
-0.09698832 1.9351842 0.86248326
0.2648065 2.5705762 -0.28555745
0.31086636 2.9711385 0.35275045
-0.3596338 -0.25523978 -0.7727825
0.737855 -0.08374068 0.21569367
0.26931798 2.2271097 -0.14127615
0.38420758 2.072749 0.81275475
-0.4734099 2.8272762 0.44277072
0.5578358 -0.42387122 0.1267799
-0.7115623 2.3359656 0.5320382
-0.14816087 2.3461888 0.4570003
-0.033470303 -0.25097933 -0.6358768
-0.5461973 -0.08723142 0.7479862
0.7849306 2.625224 -0.15950538
0.16463444 1.8562189 -0.03196612
0.90989137 2.243723 -0.022672791
0.5232332 1.6945608 -0.107666746
0.584839 2.6198564 -0.24454337
-0.08526349 2.886932 -0.20829356
0.3599807 1.5286986 -0.50636435
-0.08840542 -0.41759592 -0.13841453
-0.7434442 -0.4163799 -0.21457931
-0.2688672 -0.41744816 -0.058082677
-0.2882599 1.751081 0.24715981
0.9041023 -0.09063852 -0.89774483
-0.37592864 -0.41127723 -0.90155864
0.120807774 -0.25591993 0.31851035
-0.8963016 -0.09361194 -0.33163333
-0.02736865 2.079156 -0.19473916
-0.20444101 1.6542346 0.7015966
-0.672575 1.9727354 0.12205785
0.033317305 3.0913868 0.08245991
-0.097278066 2.5837755 -0.38433594
0.92653763 -0.24840976 0.22201034
0.16404602 -0.4150144 0.4662133
-0.037150867 -0.25763416 -0.9154639
-0.9159677 -0.26119566 -0.8715005
-0.16048843 -0.41544718 0.26158553
-0.7039795 1.8470374 0.46538284
0.029116808 2.2124312 -0.7636254
-0.25354618 2.5471778 -0.79653406
0.69958997 2.031423 -0.20148715
-0.34684616 1.4214997 -0.3570313
0.63627684 2.5460048 -0.07261805
0.44929594 -0.24123478 0.7580581
-0.015503595 2.5692735 0.6292577
-0.41112405 2.8245997 -0.49875608
-0.11702142 -0.25314608 -0.061338075
0.7373486 2.0832834 0.5284003
-0.2653354 1.323154 0.12349662
-0.1769751 -0.42178524 0.44938874
0.25765765 -0.08609779 0.54017377
-0.2887407 2.3421881 -0.09745006
-0.3034051 2.5675898 -0.28256994
-0.5012528 2.588338 -0.34202498
-0.4112827 2.177979 0.80900484
0.31973642 1.7541795 0.7336855
-0.5497386 -0.086602494 -0.5460236
0.09339373 -0.08473629 -0.66740334
0.19871368 2.1677668 0.0925557
-0.81263053 2.3849425 0.37924695
0.3695169 2.0656118 -0.6298257
-0.7002996 2.0110495 0.5681765
-0.45268732 2.3291762 -0.59031343
-0.12711647 2.184802 0.544434
0.0427554 -0.262167 -0.18624339
-0.7711209 -0.24372575 -0.10305077
-0.015821405 2.821722 -0.3662684
-0.32578838 2.1919785 -0.22208141
0.2549197 2.2287827 0.6751067
-0.25816882 -0.2546774 0.38046867
-0.51090354 1.6782482 0.18458104
-0.5350878 2.2851162 0.18586847
0.22819701 1.3171228 0.16079067
-0.13043785 2.540626 0.23243506
-0.9022232 -0.40506124 -0.108177505
-0.5848179 -0.4068023 -0.9153645
0.52789474 1.7679818 0.603129
0.088743016 2.4195166 -0.6966883
0.25455242 2.6649327 -0.73831785
0.4371632 2.5860686 -0.69389987
0.060410894 2.527381 -0.19494137
0.35575008 -0.086748965 -0.18690757
-0.514677 -0.42263305 0.26395002
0.09963413 -0.08530251 0.45356607
0.04386698 1.2885069 0.14118023
0.884292 2.107833 -0.20828184
0.67069685 1.6117413 -0.23442912
0.7381183 -0.08747198 -0.90556645
-0.43082303 -0.257401 -0.4750287
0.2133677 3.0651026 0.052521575
0.095099576 -0.24376367 -0.031524174
-0.21452129 -0.41500148 -0.45228708
0.4027323 1.8232358 -0.22977698
0.38163623 2.3215938 0.35572943
0.33792365 -0.4222405 -0.59187436
-0.298166 1.6056793 -0.63436925
-0.5007288 2.9448438 0.0526734
0.43290573 -0.41348392 0.62074924
0.52700126 2.9225945 0.02499381
-0.0808705 -0.0880806 0.38269415
0.38192967 2.0641646 -0.427968
-0.3069505 3.0517588 -0.041411456
0.24186367 -0.40252978 0.91381216
-0.20287769 -0.084171385 -0.408389
-0.10570224 1.3188231 0.24990782
0.14489159 1.9224478 -0.5110137
0.39168867 2.3673635 -0.2935719
-0.6456282 2.54001 -0.14696226
-0.283148 -0.2531219 -0.1655074
0.82711446 2.47786 -0.29287067
0.5475924 -0.41384536 -0.50535095
-0.4480148 2.0656042 0.32618654
0.11712516 2.229913 -0.42478767
-0.37644178 -0.26086557 0.23836067
-0.44132572 -0.089995146 0.25114328
-0.20215315 2.3099742 -0.3192863
0.89529777 -0.0970809 0.90831286
-0.09473037 1.7342521 -0.3625272
0.9302171 -0.25124204 0.85412693
0.086270444 2.6906297 -0.2797799
0.21762106 -0.41658264 0.09873967
-0.12603748 2.125029 0.7425153
0.3703001 3.010055 0.11656529
0.19087741 1.408382 -0.4270756
0.6787559 2.4381642 -0.24494267
-0.4892937 1.9669712 -0.24127087
0.43238527 2.5773993 0.7016151
0.7353924 -0.41715366 0.4247958
-0.56592035 2.4493632 -0.67198503
0.52570057 -0.08454858 -0.33574945
-0.53520566 2.2377276 -0.73838454
0.7240362 -0.41694975 -0.3966961
-0.8977468 -0.09500359 -0.14257205
0.7685908 1.7069833 -0.084876075
-0.86613274 -0.09698124 0.91439724
-0.88048446 2.3328772 0.16330457
-0.20613861 2.0664437 -0.1259361
0.2707675 1.7408576 0.11807642
-0.24158637 1.489908 0.0038231877
0.33470988 2.843051 -0.17095736
0.29191712 -0.25102356 0.215729
0.070586234 2.0031219 0.09407212
-0.18411575 1.9898832 0.52560574
-0.10586462 -0.26203835 0.9190959
0.5224396 2.1837087 -0.7466384
0.7184186 2.4581707 -0.4725883
-0.118282124 2.7088609 0.49464983
0.2104162 2.4951892 0.1631079
-0.1881336 2.4328227 0.84992766
0.26572517 2.3609464 0.03904657
-0.16601779 1.9042467 -0.6468338
-0.53684855 1.513583 -0.30221224
-0.7520093 -0.414122 -0.0033112522
0.11478243 2.3918958 0.7003
0.7164556 -0.08672364 -0.2034234
0.7244729 -0.084940776 0.0018489156
0.4876855 2.7164927 -0.10935557
0.7062165 -0.41580397 -0.76516014
0.30208886 1.9619949 0.058963228
0.25311553 2.6794882 -0.13082448
0.5295441 1.4822009 -0.19802466
-0.4643718 -0.0861997 -0.73432004
0.5739672 1.5024705 0.16305204
0.27593613 1.9233911 -0.35889107
0.7095385 2.6321495 -0.3694272
-0.47413808 2.7316642 0.13813473
-0.7645941 -0.24998489 -0.31776124
-0.42294288 -0.41732535 -0.18295804
0.7701044 1.9327112 0.38866383
0.35287845 2.570074 0.008482203
0.17310211 2.1481972 -0.8993046
-0.7718674 -0.25499687 -0.5247046
-0.3317727 2.6471133 -0.46869123
0.266631 -0.41225642 -0.28297377
-0.6413953 1.7959151 0.13019675
-0.68587 2.2506623 -0.29317254
0.42634845 2.300843 0.5633731
0.10072024 -0.24288021 -0.7668619
0.24902067 -0.08888222 0.32749596
-0.13946225 2.2013948 0.32031512
-0.5946841 2.15124 0.008857755
-0.89010465 -0.41259795 0.32626703
-0.85587597 -0.40641028 0.9078311
-0.7200015 2.5931873 0.36679965
0.3537944 -0.41871786 0.7803112
0.65531385 1.9152304 0.5661965
-0.57659185 -0.25286853 -0.78691643
0.23198855 -0.24326456 -0.18978465
-0.89447564 -0.40571418 -0.7325603
-0.41928464 2.559824 -0.69719934
-0.24067764 2.0592844 0.37144113
0.62670636 2.8347378 0.15979287
0.5502298 2.34511 -0.16769576
-0.6129272 -0.24499783 -0.0139931245
0.72708267 2.2752993 0.14624202
-0.8971163 -0.4084391 -0.3244741
0.80179316 2.102265 -0.41766918
0.2705991 1.3941073 0.3464309
-0.6483195 2.8157308 0.116526425
-0.73328537 -0.4157198 0.2163238
-0.41589278 1.9624293 0.7761711
-0.74051297 -0.08786915 -0.6019105
-0.21016043 -0.4136693 0.89982736
-0.6660994 2.5041802 0.54349846
0.8809266 2.395347 0.10697458
-0.7449206 -0.24453253 0.116740674
-0.027838662 1.732806 0.30790758
-0.45519447 2.781755 -0.05650503
-0.53526336 1.7294095 -0.2179809
0.20959562 1.9158375 -0.68138635
0.19475415 2.104095 -0.72366554
0.29551896 2.4679525 -0.81186104
-0.54685366 -0.4175157 -0.5256443
-0.43844017 2.2287912 0.6083739
-0.25960115 -0.08781012 0.3118986
-0.90258884 -0.097355686 0.35198104
0.09932433 -0.086146995 0.6708144
-0.4491294 -0.2524972 -0.086634904
-0.67760384 2.623838 -0.41776124
0.4534476 1.8270369 0.10620715
0.39024287 -0.084632844 0.008623346
0.12554726 1.45452 0.5152621
0.7847525 -0.24423537 0.11347376
0.48755592 1.9328654 -0.060273595
0.18894812 -0.08023152 -0.87933266
-0.4112504 2.5847101 0.01970829
0.6052456 -0.24875423 0.42272055
0.30332148 1.9797299 0.41406435
0.47888803 2.7523332 0.20803067
0.12544888 -0.25353587 0.1449019
0.6839734 2.472888 0.107468806
0.5484082 2.3528564 0.2142224
0.013910567 2.229569 -0.592419
-0.02344464 1.9700431 0.26805294
-0.3984648 -0.41914886 -0.38767314
-0.7260564 -0.09192935 0.62449574
0.5527843 -0.4166938 0.33079523
-0.9005476 -0.09518337 0.54273415
-0.63214934 2.758068 0.30886418
0.032872386 -0.41739678 0.18652791
-0.6680164 2.2769952 -0.6125249
0.75148886 -0.25299913 -0.30274266
0.3694098 1.791429 0.45251548
-0.026769249 2.1094804 0.9124378
-0.91882515 -0.2710815 0.22211063
-0.2162072 -0.094815955 0.90242755
0.13984081 2.3879566 -0.5122821
-0.8501183 -0.40706742 -0.9140612
0.32581618 1.9999952 -0.15923914
0.22129211 1.7484329 0.30001348
-0.6021656 -0.4111461 0.09977879
0.47143623 1.8450971 -0.42471445
0.21286264 2.8829987 -0.022846662
-0.39648587 2.3792362 -0.30187875
-0.9257241 -0.2481265 -0.64556307
0.895457 -0.08923711 -0.29343534
0.62623286 1.786301 0.023095213
-0.709517 2.382687 -0.13003948
-0.32110035 2.211258 0.4426682
0.20378378 1.783355 0.5574714
-0.5146787 2.5459166 0.67170435
-0.037512966 -0.08810876 -0.31049138
0.5041809 2.0282955 0.12032983
-0.5351974 2.5416245 0.19531488
0.1287255 1.8819929 0.3826931
-0.7286483 -0.41790038 -0.42455363
0.40029836 -0.41895783 -0.4014536
-0.06942272 -0.08666965 0.76066315
0.15273827 2.3238382 0.8874798
-0.48372656 -0.08660644 0.039591584
0.54418993 -0.4222368 -0.68396306
-0.39591432 -0.084809765 0.6483224
-0.016329266 2.7245126 0.12775023
-0.7221335 1.6314759 -0.024165161
-0.4416653 -0.41681623 0.024408765
0.19211566 1.7386754 -0.56556904
-0.6900746 1.6357087 -0.22589456
-0.102381535 2.9818292 -0.42596495
0.42292964 1.68242 0.27914888
0.54248345 2.1203768 -0.116229445
-0.043611143 -0.25088128 0.105235055
0.58567894 -0.08710261 0.53414774
0.08274393 1.934223 0.8652716
-0.6928024 -0.4133899 0.59902585
-0.2545312 2.03973 0.86241937
0.5187137 2.5114107 -0.3714921
-0.88863266 -0.09015462 -0.73413897
0.89613396 2.1723251 0.15791908
-0.60161877 2.44733 0.36115265
0.18461967 2.5828314 -0.5990412
-0.080707714 -0.41428038 -0.32161492
-0.28731278 2.397431 -0.6348021
-0.22390762 2.8655672 -0.5632694
0.56324625 2.1329925 0.5242516
-0.39785343 -0.087214686 -0.4228167
0.26155788 -0.1858128 0.92943335
-0.7687014 -0.2441152 -0.74069786
0.6873219 2.3991823 0.31028515
-0.44708723 2.4787083 -0.4879747
-0.3450359 2.2075725 0.22382332
-0.31870586 2.7140522 0.42674458
-0.3208651 1.7812865 -0.7487525
0.070918426 2.029622 -0.3595872
0.06798701 2.1884341 0.7646164
-0.5989611 2.432591 -0.3100205
-0.027151063 2.7523358 0.704944
-0.19126073 2.8508315 0.36680228
-0.018910673 1.599333 -0.04399653
-0.07282601 3.0940108 -0.10219239
-0.07091953 2.5888214 -0.029427826
-0.007002405 1.7732773 -0.16830742
0.040939026 -0.08372381 0.05772134
-0.5535179 2.0929303 0.712026
0.19561265 2.0519376 0.70944786
0.7338277 -0.41779202 0.22229233
0.4337736 -0.25625908 0.0785368
-0.8935478 1.96457 -0.03586071
-0.52404237 1.6879643 -0.0043625454
0.16543591 1.6603055 -0.051446475
0.069734246 2.344874 0.10731594
-0.4068511 -0.08653181 0.88828146
0.27292448 2.4491668 -0.13661145
-0.343794 2.9532862 0.3679164
-0.4916693 2.0633526 -0.7532494
-0.24565092 1.7494255 -0.24170876
-0.92203736 -0.256971 0.8714968
-0.33709627 1.885515 0.6037913
0.37121087 -0.41943735 0.43547827
-0.24590811 2.3664339 0.27394938
0.050338127 -0.41660008 -0.018515065
0.33014047 1.4894569 0.5089412
-0.46703625 2.0744128 0.12811475
0.19794029 -0.41455626 -0.4555776
-0.4827448 1.7869644 0.3264147
0.18320595 2.7022622 0.07276735
-0.017269956 1.8672538 0.49215972
0.8483385 1.8998519 -0.13274741
0.19621965 -0.0834366 -0.08033144
0.63775563 1.5479112 -0.031799577
0.20370993 2.2745254 -0.6665151
0.37121862 1.6860251 -0.6574782
0.07983895 2.2048736 0.57164955
-0.13282362 -0.41527694 0.06808131
-0.18243757 -0.08556346 -0.19178873
-0.55863684 1.8993659 0.6560112
-0.535313 2.6521316 -0.56688905
0.90206283 -0.40807736 0.11683051
0.81776834 2.5155091 0.25426012
0.5733454 -0.4134809 0.74319094
0.05443666 2.7297697 -0.72249156
-0.24940504 -0.2529908 -0.5865704
0.5197044 2.46809 0.40630752
0.8986269 -0.4095949 0.52993405
0.27699336 2.854587 0.17676091
0.35861224 -0.08855146 -0.9088672
-0.07266905 2.5892284 -0.8063278
0.14865792 -0.07882304 0.87725264
0.01834832 2.9201288 -0.018592034
-0.19650003 3.0304255 0.27283978
0.27915686 2.8710842 0.5300381
0.60890937 2.7637796 0.35916275
-0.5682354 2.3010006 -0.44152278
-0.25832886 -0.08881701 -0.7484932
0.72115266 -0.08673212 0.87898695
-0.7215642 -0.08462146 -0.21476299
-0.4446665 -0.2513821 -0.6360544
-0.44942594 2.9674504 -0.1329133
0.62678814 2.3234646 -0.64120424
-0.6405499 2.1106813 0.25679058
-0.33250317 2.1933632 -0.65638006
0.35215092 1.8834867 -0.56090266
-0.1376946 1.8940473 0.67801297
-0.34298056 1.8422825 -0.5634825
0.37064064 1.3766001 -0.16702479
0.85824823 1.963417 0.20077385
-0.3483937 -0.42070955 0.35445285
-0.3371614 2.7198777 -0.6584391
0.19170392 2.1168509 0.8932866
0.74014765 -0.085506395 0.42883682
0.38361233 2.7930567 0.027270671
-0.9250741 -0.25451073 -0.42870304
0.43520397 2.7351742 0.57587594
-0.20466816 1.501365 0.5573385
-0.8819427 -0.41485858 0.52643895
0.5097997 2.195774 -0.51872
0.4788065 1.9486747 0.5101446
-0.37752938 1.4758523 0.42868567
0.46877503 1.9033351 0.7285725
-0.15698074 -0.2564922 -0.762856
-0.7135778 -0.26202118 -0.925779
0.39472824 2.4574456 0.20024703
-0.07864199 -0.24547169 0.6444292
-0.16447234 -0.09142257 -0.9165467
-0.870942 2.1713223 0.27497697
0.07621174 1.6368576 -0.2505739
0.5796292 -0.089567795 0.7485627
-0.036031723 2.0628572 -0.5152284
0.18219371 3.0443692 0.24641672
0.24538714 -0.41961783 0.6151316
-0.48207948 1.7062018 -0.5975498
-0.3161677 1.7593744 0.06013368
-0.57723075 2.846343 -0.23309198
0.04051951 -0.24762222 0.47512898
-0.6556582 2.195367 0.60969406
-0.80105346 1.997643 0.36627954
0.7523521 -0.25449616 -0.09579055
-0.25101256 2.448502 -0.43954948
-0.056699917 2.3658342 0.253435
0.71537805 -0.087121025 -0.39849228
-0.6747651 2.474856 -0.52266717
-0.8219795 1.80333 0.06372472
0.57060164 -0.08552964 0.32088116
0.2563824 2.689313 -0.45652732
-0.11040582 2.6732712 -0.21056242
-0.2723003 2.870799 0.54236835
0.40912056 2.69637 -0.3064465
-0.5293204 2.2400403 0.40086573
0.27620786 1.5171473 0.0395936
-0.23490937 1.5054147 0.20759746
-0.4325931 2.057623 0.53578377
-0.08771741 1.9164358 -0.27498063
0.3195058 -0.23865804 -0.7821342
-0.16387317 1.8626117 0.34915686
0.6283082 -0.27658463 0.07252833
0.6532748 -0.25049752 0.24484125
-0.3974195 2.7519035 -0.29193765
-0.1474398 2.736651 -0.71046853
0.1009966 -0.41566956 -0.62512743
-0.1809608 2.1090183 -0.89254504
0.6475096 -0.24561282 -0.91842115
-0.6642188 1.6936942 0.3565355
-0.59532124 -0.26641113 0.27902097
0.5778834 -0.4157249 0.52381647
-0.15163934 2.267088 0.094252035
0.30771655 2.4402413 -0.6275573
-0.0060170293 2.0322495 0.6516627
-0.7004359 2.2833061 0.28755987
-0.18882549 1.754577 0.5293247
0.8984269 -0.09287394 0.7325256
-0.567528 2.773848 -0.40060648
-0.5813324 -0.09146633 0.36046976
0.365587 1.4267299 -0.3410315
0.30435082 2.4057481 0.6717728
0.25947058 2.5010395 0.82281876
0.6796614 2.1802664 0.3366085
-0.1833992 1.8637884 -0.079509065
-0.14270961 1.8730755 0.13433775
-0.6224476 -0.24969476 0.490523
0.13802092 1.9267333 -0.21440616
0.91943896 -0.25216424 0.6431147
0.15367274 2.3459387 -0.8799595
0.41284382 -0.25243714 -0.2930137
-0.58149314 1.4961854 0.086284176
-0.47679067 -0.26298958 0.595744
-0.3626862 1.7261412 0.46385106
0.925822 -0.2501012 0.43718192
0.60016 -0.25271595 0.64920723
-0.5581322 2.4306965 0.012460687
0.52439153 2.1742945 0.24389282
0.8440237 2.1106787 0.34284735
0.12163044 1.5556588 0.33774537
-0.4034198 1.8294122 -0.3489393
-0.7796875 -0.25625363 0.5305817
0.23181975 3.0210757 -0.2860233
-0.017435927 2.845149 0.32904166
0.54569626 -0.08833441 -0.9106948
0.19148153 1.5880094 0.647435
0.10059682 -0.2607503 0.92742115
0.6561569 -0.085454896 -0.7418952
-0.002934473 2.3766093 -0.29411244
-0.10366368 1.281711 0.018803626
0.47716814 2.394577 -0.74816763
0.15054438 -0.08550509 -0.28539592
-0.7841929 -0.25588882 0.7259233
-0.73832786 -0.084211744 0.43327424
0.49482495 2.215204 0.7481104
0.19456202 2.3627868 -0.29829812
0.09034347 2.4499931 0.31766564
-0.4054929 1.7524427 0.69406676
0.5872432 -0.24634513 -0.22459936
-0.22233385 2.233624 0.879046
0.77283704 2.2654061 0.47880554
-0.60059226 1.922524 0.29139125
-0.16654606 2.9503698 -0.034659646
-0.61609256 -0.40537384 0.90470433
0.22220303 -0.24692217 -0.37354833
-0.5867758 1.6540202 -0.430205
-0.42591777 2.9359674 -0.31520334
0.783202 -0.24962398 0.33858898
0.9159678 -0.24426213 -0.59666
-0.15410013 -0.08992541 0.004630776
0.019213397 2.3915644 0.53287977
0.33358055 -0.0867715 -0.3611923
0.58315825 2.0564256 0.69183123
0.5461203 2.6456032 0.06347205
-0.70551205 2.3197546 0.054773137
-0.39981845 2.3811285 -0.7939254
0.8999102 -0.40921336 -0.090616606
0.67784595 1.7556691 0.45167
-0.16279106 1.7294648 -0.55703324
-0.38450253 1.6003635 0.29720598
-0.33418986 1.7088406 -0.45209193
0.051107213 -0.25657737 -0.35840225
0.7080498 1.9310272 -0.52693367
-0.5020237 2.1411493 -0.5428433
-0.06525647 2.3213048 0.7071228
-0.6798816 2.4542468 0.17279938
0.27729493 -0.084080055 -0.6974563
-0.89461046 -0.4078101 -0.5337845
0.018419638 1.8099973 -0.64888906
-0.2915324 2.0792942 0.660237
-0.042194057 1.883884 -0.47819132
0.8928912 -0.40938258 0.73236406
0.22782376 -0.08578424 0.12236019
-0.22452687 1.8970478 -0.42076507
0.059834264 2.7303457 -0.08325395
-0.44618475 -0.2525904 -0.28417596
0.9018462 -0.09116435 0.5311773
0.8897228 -0.40216994 0.90662175
-0.059280813 2.39884 -0.049347438
-0.51664364 1.9024811 0.47313225
0.5762167 2.803141 -0.33677095
0.3040054 -0.40349913 -0.9179245
-0.29911447 2.687392 -0.123739846
-0.5646533 1.5221272 0.2795826
-0.37872797 2.0412192 -0.3992564
-0.15232587 -0.40994358 -0.9088793
-0.17533672 2.7014642 0.27728912
0.40191764 1.9043676 0.26763785
0.28355187 2.7030454 0.6979563
-0.36387098 -0.4163291 0.54794526
0.5448712 1.7289344 -0.3014236
0.20385045 -0.41436452 -0.7628585
-0.13292989 2.884516 0.15484375
-0.53188676 -0.08671348 -0.14381272
0.54100263 -0.10361338 0.9171233
0.7310355 1.6438735 0.114654526
0.5390804 -0.07467777 -0.12940496
-0.20804805 -0.25929934 0.76670015
-0.03388223 2.2318182 -0.91877246
0.124504104 -0.41954997 0.75303376
0.26912647 -0.24674153 0.010112214
-0.321647 -0.41934767 0.15548703
0.2271031 1.5133718 -0.20021099
0.007298965 2.0261006 -0.8899456
0.24411716 -0.25826597 -0.61813295
-0.11899444 2.6076841 0.7952655
-0.057265684 2.8847702 0.57591975
-0.21656424 2.3550706 -0.8733326
-0.44757602 -0.25909355 0.40915504
-0.15355025 3.0823002 0.096626185
-0.124692306 -0.2596712 0.48211098
-0.34882367 2.0097966 -0.6300278
0.07926941 1.8219981 0.16974956
0.2371863 -0.264547 0.7755222
0.9342805 -0.24965702 -0.7839085
0.44434172 -0.255993 -0.62374735
-0.302054 -0.25470725 0.032106638
0.29965585 2.4706464 -0.4340067
0.7239368 -0.4002304 -0.91955876
-0.716377 2.6940532 -0.23978455
0.08676693 2.8887424 0.15570936
-0.37893894 1.5749484 0.096916325
0.1822778 2.831771 -0.6142023
-0.9269134 -0.26231217 0.42880255
0.46192887 -0.24915898 0.52852607
0.41045845 -0.25556028 0.35755813
-0.91413015 -0.10863681 0.17329928
-0.49766946 1.8790255 -0.7030967
0.40321353 1.3920944 0.16655418
0.3814487 1.6181436 -0.29435718
-0.30802485 -0.08777309 0.12334971
0.018258117 -0.084899984 -0.47848612
0.682839 1.9774708 0.0011052536
-0.40490168 -0.24195427 0.76145166
-0.26063052 1.5125077 -0.20175302
-0.06317684 -0.25179243 0.29572767
-0.23150837 2.672165 0.085941285
-0.43096307 2.093676 -0.10639837
0.7647996 1.7724127 -0.2782685
0.9041637 -0.08901508 -0.49272466
-0.32072183 2.3873003 0.49831325
0.09456894 1.8816559 0.68120193
-0.3203129 2.5800943 0.7615995
0.5127319 1.6149403 0.47313353
0.232092 1.7438092 -0.22190216
-0.64606225 2.03765 -0.62802744
-0.1875923 1.4348578 -0.49709916
0.39255655 -0.4198964 0.012797011
0.08200608 -0.4052171 -0.91203415
-0.15205795 2.465624 -0.22125009
-0.73501253 1.998769 -0.053413134
0.38257658 1.6463051 0.6138106
0.015884005 -0.41215926 0.90885764
-0.03836383 2.3017504 0.90332836
0.47632283 2.9252875 0.24573198
0.40339166 -0.085673675 0.21606693
-0.42420927 2.398955 0.3167558
0.049053997 1.6266496 -0.7177788
-0.46872956 1.8648372 0.1256735
-0.1914858 2.069725 0.18876338
-0.0941015 1.4365711 -0.104443386
0.2711442 -0.090908274 0.7314384
-0.91231596 2.1551702 0.05234795
0.46590835 2.3973079 0.7595042
-0.75045127 2.1510544 0.117613345
-0.0046045505 3.0478687 0.27517748
-0.73263955 -0.0872894 -0.90393114
0.41376364 -0.419739 -0.18460262
-0.10874614 1.5935178 -0.2256915
0.13567168 -0.2565921 0.6127002
0.89636695 -0.089865 -0.093942255
0.89029574 -0.084643334 -0.7093917
0.5646856 -0.4151988 -0.29786402
-0.16868785 2.45314 0.64579874
-0.48955148 2.1790318 -0.30896878
0.33520234 2.1051269 0.23517416
-0.2907131 -0.24783647 0.58222616
-0.39407095 1.6272892 -0.2968834
-0.41572243 1.5370127 -0.48969284
0.3841349 1.8656967 -0.7616806
-0.64371306 1.8283498 -0.5519607
0.5500616 1.8175948 0.36410087
-0.63991064 2.8288198 -0.070001826
-0.08831534 2.5192564 0.43306214
-0.60475916 -0.09702953 0.16505073
-0.7316545 -0.08738652 0.7989558
0.49977356 -0.25073266 0.22602844
-0.034489207 1.2859671 -0.18380056
0.18525986 1.5901457 -0.39970464
0.19743375 1.9412287 -0.85939217
-0.021952827 2.8784828 -0.5934881
0.7315269 2.4481428 0.4853823
0.31899014 1.7317221 -0.42963326
-0.35914975 -0.08766754 -0.2530722
-0.83223826 2.5033877 0.23467875
0.15372017 2.0167017 0.52475065
-0.11349173 1.5504525 -0.63145566
-0.41907722 1.4013696 -0.18123588
-0.83605504 2.1338515 -0.34001356
-0.57148516 1.8434243 -0.38601983
-0.40977457 2.7173424 0.6153637
-0.20066136 1.6711409 -0.060904514
-0.1121894 2.9885378 0.43843
-0.92417663 -0.25583476 -0.21779966
0.570536 -0.40796244 -0.08043118
-0.868339 2.3228967 -0.24653347
0.85796094 -0.25146887 -0.9294864
0.47192922 2.3917232 -0.52023745
-0.21600175 1.582355 -0.40483618
-0.39716625 1.8191197 -0.11179708
-0.33151042 1.9453413 0.22011946
-0.12174216 2.2452772 -0.14582002
0.048230834 1.4576064 -0.23114543
0.5723214 2.3003638 0.43903297
0.7555311 -0.25195217 0.5420493
0.89545333 -0.40905082 -0.6882519
-0.055435732 2.2064538 -0.3771456
-0.3958149 1.600341 -0.102999486
0.37143964 2.7534199 -0.6120387
0.41099554 -0.25617236 -0.10978079
0.41370928 2.9389665 -0.30770886
-0.2366758 1.3879608 0.36078817
-0.23088354 -0.086434945 0.5145652
0.22434986 -0.41307813 -0.09765701
0.1008528 1.2791222 -0.041535497
0.6457217 1.902225 0.19423765
0.35742193 3.0193806 -0.09959371
-0.8991906 2.1351614 -0.15304296
-0.021645803 -0.09918592 0.9164617
0.89509594 2.0322971 0.003968982
-0.021013718 1.774693 0.02563408
-0.24339375 -0.087778814 0.7152071
0.37096334 1.5864515 -0.10622192
-0.314243 2.849265 0.040932283
0.34485865 1.7832987 -0.05594206
0.19592446 -0.24654742 -0.9272648
0.08491266 2.205698 -0.22415595
-0.22221142 3.0427551 -0.23738095
0.571762 -0.08717507 -0.54471093
-0.33676547 2.570754 0.20932657
0.44572276 2.819269 -0.4626341
0.5874553 2.316399 -0.37931228
0.902141 -0.08890558 0.10991208
0.58153385 2.0090508 0.34712029
0.57986724 1.7168659 0.18847813
-0.36846596 1.5982072 0.5892948
0.22542334 2.8103652 -0.33094233
-0.42249995 -0.4094284 0.89683074
0.11276119 2.558096 0.45909834
-0.7307899 -0.25310242 0.91884506
0.36636618 2.0624552 -0.8255032
0.56778455 -0.2475324 -0.4257233
0.6919682 2.2218947 -0.22832493
0.5745437 2.6772852 -0.50847983
0.34896046 2.6396208 0.18450706
-0.8433306 1.9617783 -0.25010425
-0.8135756 1.791491 -0.14357442
0.39525348 -0.4116636 -0.7684351
-0.6652281 1.9065169 -0.23236188
0.7039918 2.6039531 0.38345873
0.7296916 -0.41786492 -0.19185911
0.72701573 2.6864705 0.1968042
0.7400186 -0.08635515 0.6501048
-0.61627203 -0.25360012 -0.6139565
0.021174472 2.1899152 -0.014728593
-0.252948 -0.41547206 -0.2572202
-0.41552168 1.4060596 0.22343677
0.20594087 -0.08814286 -0.49847683
0.12991127 1.7250935 0.7802608
0.10334319 2.9639945 -0.44914252
0.44248873 2.186839 -0.27370274
-0.65454876 -0.084148526 -0.74287975
0.1602546 2.8405755 0.34483215
-0.58053124 1.5039144 -0.10771994
0.321728 -0.25139594 0.61543655
0.0122659765 3.0514116 -0.2825445
-0.33937782 1.9045022 0.40942407
-0.3314373 2.8027058 0.23524761
0.9020557 -0.4089973 0.3217286
0.21186383 2.2973168 0.26006043
0.036063008 -0.2434859 0.7740289
-0.7854562 2.496581 -0.32887155
-0.5326516 2.2887816 -0.1543403
-0.5187681 2.376441 0.5254103
0.21351619 1.9459323 0.216254
0.63580394 1.9149548 -0.35507464
0.57248294 -0.2064864 -0.050764754
-0.7151066 1.636903 0.1717582
-0.61631674 2.0607862 -0.3892659
-0.31730604 1.9688612 0.020102078
-0.27653766 2.9485428 -0.3986752
-0.8415215 2.5224714 -0.15067603
0.1641146 2.0704503 -0.08179565
0.67623186 2.7710521 -0.18986854
-0.93158734 -0.258322 0.6375189
0.49192572 -0.41537905 0.9066366
0.7056142 2.3464055 -0.048184592
0.16359624 2.6665666 0.2668628
-0.3349977 -0.08671604 -0.07012047
0.024831045 2.4836922 0.85286975
-0.76858807 2.684002 -0.037536144
0.04994392 2.2599196 0.3873688
-0.22338013 2.0762033 -0.5175891
0.06952406 -0.088274375 0.25104517
0.10225923 1.681393 0.4662658
-0.12786838 -0.41654563 -0.61153036
0.262514 2.6765676 0.48681146
0.900354 -0.40751302 -0.49131653
0.18915558 2.5595727 0.62367284
-0.44587207 2.2646608 0.0067789047
0.38297272 2.5094333 0.53131557
-0.20789647 1.6194787 0.37714416
0.08519642 1.6330154 0.14259493
0.44288713 2.5242877 -0.16626328
0.73842275 -0.42037088 0.017293684
-0.005529958 1.7270999 0.6234391
0.073383436 2.7401876 0.4992736
-0.26859048 2.5345051 0.3806534
-0.03161256 2.419405 -0.8759278
-0.3254398 1.9761244 -0.81979376
0.1365754 2.8216002 0.6422188
0.5403396 1.550747 -0.3828054
0.89744914 -0.40928078 -0.2939086
-0.5730595 -0.4162121 -0.31457722
-0.054498155 1.5175043 0.28834718
0.03236334 -0.09271585 -0.91659427
0.56742156 2.2199087 0.043917343
0.10325464 2.9721103 0.45825624
-0.7441185 1.778681 -0.35021198
-0.18472064 -0.41352922 0.6232802
0.5646918 2.564393 0.23570997
0.21690455 2.374103 0.48960954
-0.42894277 1.3886294 0.011415675
0.5307539 1.99646 -0.5186529
0.01106759 2.1689088 0.19660702
0.7639268 -0.24294417 -0.7436117
-0.13174441 2.7744312 -0.039504476
-0.32271975 -0.4159027 0.73938704
-0.07848589 -0.41494405 0.76047456
-0.61251056 -0.25475553 0.7255827
-0.14806253 2.0809522 -0.7070391
-0.25820243 -0.25668156 -0.9235624
0.7316047 -0.41495413 -0.58703005
-0.6049254 -0.25185245 -0.42001316
0.77022165 1.7743809 0.26285833
-0.13358733 -0.08700369 -0.59262013
-0.010012247 2.5754142 -0.6004858
0.66676736 1.7403083 -0.44761354
-0.36701936 2.396332 0.102771394
-0.18492481 2.0913994 -0.33327985
-0.5548545 -0.09178968 -0.91356146
0.25273827 2.188156 0.45834523
-0.86882544 1.9864037 0.17121954
-0.27829063 -0.24854898 -0.3740481
0.5298182 -0.41123044 -0.90106535
0.36837763 -0.25550348 -0.47139928
-0.7029865 -0.41876742 -0.79525924
-0.31566668 -0.25511467 0.92610484
0.3863653 -0.4180792 0.22100903
-0.010242884 1.9467552 -0.070695445
0.023481581 1.6642216 -0.51035535
0.80922216 2.6058834 0.046405703
0.7065226 -0.41789255 0.87984264
0.4817605 1.4214294 -0.008316169
-0.55718637 -0.08783917 -0.33254027
0.6320639 1.8541358 -0.16297758
0.534937 2.9046922 -0.15602283
-0.099699065 2.414723 -0.6864704
0.6350453 1.609298 0.3179233
0.074316405 2.726393 -0.49195284
0.89624804 -0.40756965 -0.88135314
0.5496693 1.8153129 -0.6235119
-0.78935945 1.8224425 0.26682925
0.4290472 2.1319942 0.40274948
0.5448281 -0.254848 -0.7795613
-0.3636582 -0.08948518 -0.91141224
-0.1359767 1.7092361 -0.76183766
-0.05345316 1.6037467 0.47701144
-0.20598246 -0.24825713 0.1777039
-0.25283796 2.5222769 -0.07278034
-0.057098143 1.7493789 0.80252993
0.14810392 2.096623 0.3156957
0.28778243 1.6189673 0.42610908
-0.9236046 -0.25176573 0.006879149
-0.03305828 1.529076 -0.3930691
0.109528355 2.642714 0.781196
-0.8300649 2.509931 0.03949997
0.3781951 2.2533495 -0.64448273
-0.11264375 2.061842 0.033374082
-0.6439091 2.091772 -0.19422846
0.58657765 2.6285772 0.5376436
-0.06109593 1.4065778 0.46520618
-0.5181432 -0.42005938 0.70698243
0.7065668 2.0834932 0.16637705
-0.2825997 2.867547 -0.17655665
-0.64432734 1.8101246 -0.06968745
-0.18391593 2.4537523 0.08722026
0.48830593 1.9923782 -0.2691601
0.90404963 -0.089874804 0.32112736
0.2539261 -0.25158694 0.4419607
0.24580856 2.123835 -0.30341387
-0.5572369 1.7324973 0.5558965
0.13671164 3.0760663 -0.118245766
-0.014620645 1.5491403 0.6627446
0.04185073 1.4632659 -0.5554732
0.50043964 2.4332738 0.029383615
0.31364074 1.9129233 0.6186832
0.6264268 -0.2534573 -0.61737186
