0.5989952 1.4185284 0.6079565
0.44781142 0.57797587 0.06708336
0.45978433 1.5964257 0.37148058
0.74641573 -0.25096422 0.7564881
0.39169395 1.0557966 0.59517896
-0.59830165 1.0387242 0.45671117
-0.009017365 0.30914184 -0.3854805
0.6616732 1.2334778 0.62207067
0.275257 1.874459 -0.47624716
0.77352226 -0.24839558 0.9329499
0.46553382 -0.0841363 -0.7263675
0.0061701806 -0.41633853 -0.46849316
0.02535646 1.4954433 0.13549843
-0.7515941 1.1643283 -0.08037145
0.29683354 1.4699724 0.34648347
0.10263536 -0.24480131 -0.52795565
0.29646555 0.51647866 0.2177388
-0.33421212 -0.08446193 -0.5806555
0.094027884 0.7548031 -0.3693033
-0.90509576 -0.09528601 0.7352209
0.47373235 1.8023837 0.42474496
-0.6102897 1.5815289 0.03693425
-0.4655062 -0.25206953 -0.9241413
0.42717528 -0.08131307 0.64463645
0.19259033 0.50975466 -0.6215904
0.85968345 1.4167814 -0.10092566
0.8711667 1.2603847 -0.20794183
-0.28977382 1.1333053 0.026804771
-0.22100522 1.7294683 -0.3469279
0.1748898 0.2788791 -0.23599547
-0.44340813 1.4336584 -0.13659617
-0.77021325 0.91568625 -0.42710823
0.004027771 -0.08439428 -0.12875639
-0.7450199 1.6203418 0.18544301
-0.72462714 -0.083154514 -0.42206526
0.30765817 1.218276 -0.4608786
-0.5940621 -0.41503268 -0.10710932
-0.35420084 1.3932604 0.6528243
0.089530215 1.495554 -0.4064753
-0.30378675 0.91640043 -0.21528724
-0.06835933 1.3658121 -0.4833628
-0.24172515 1.2347018 0.6754703
-0.7516781 -0.07811982 0.22486937
0.19461696 0.6945199 -0.77021956
-0.052776657 -0.087396994 -0.7613733
0.7576916 -0.25008038 -0.4886995
-0.5473149 1.2950654 0.72249526
0.585327 1.4740043 -0.61321217
-0.10140586 -0.2456176 -0.45971745
-0.17765838 1.2111244 -0.7360121
-0.113245994 -0.080569796 0.18849558
-0.7945647 1.2875774 -0.42491546
0.3748644 1.0858223 -0.016767075
0.13386525 1.4902555 -0.023151293
0.18520606 1.0561607 -0.5353589
0.9221276 -0.24732551 0.013429731
0.017413938 0.77843434 -0.83358705
0.80966693 0.89265925 -0.3505934
0.6900624 1.7291985 -0.028691046
-0.26147264 0.2747783 -0.10570918
-0.4322058 1.5054524 0.49082065
-0.1264541 -0.24531734 -0.26505232
0.86157984 1.2763238 0.28433847
-0.71827936 -0.42073566 0.7738358
0.34521762 1.241121 0.8379158
-0.49724188 -0.41886854 -0.73080945
-0.7561953 1.1074255 -0.49093795
0.12349728 0.41738507 0.1684826
0.28867668 0.8703228 0.8207674
-0.5646711 -0.08450865 0.54799503
0.7516438 -0.08716211 -0.5858121
0.81704986 1.2420931 -0.37874383
-0.13355276 1.6783836 -0.51298285
0.28426623 0.28388324 -0.024733562
-0.021835726 -0.41452053 -0.7654104
0.7298254 -0.4182992 0.64918005
-0.1645833 0.85525256 -0.8427874
-0.5087476 0.90148455 -0.503136
-0.009863035 1.0242487 0.43038565
0.5631 -0.083379515 0.11172511
0.20504779 -0.41619277 0.2935383
-0.35339928 -0.41651893 -0.5893318
-0.3655032 1.3378251 0.8176211
0.101619564 1.5143154 -0.8266181
-0.89059234 -0.0983393 -0.9122504
-0.7751749 1.1367651 0.46751636
0.088437036 -0.42168555 -0.24982348
0.38986802 1.2236228 0.12944663
0.46509612 0.4406169 0.3273493
-0.06083229 -0.081024945 0.57195413
0.10827348 1.8450148 -0.20296466
0.110208035 1.2968466 -0.10057658
-0.7641999 -0.24188611 0.32958508
-0.50166726 1.8589907 0.2586624
0.410414 1.265765 -0.086958125
-0.5107006 0.5551152 0.46231547
-0.86900026 -0.08176719 0.024648875
-0.532691 0.9145895 -0.031109292
0.72745526 1.2134374 -0.52913225
-0.21776652 1.522311 -0.59472966
-0.20360681 1.7083559 0.6841923
-0.34392542 1.9662135 0.16390821
0.5277606 0.9448812 -0.71878034
0.33547986 1.7236737 0.32846838
0.6611247 1.0648365 -0.62090176
-0.40401268 -0.087414235 0.4452594
-0.6179025 -0.09110515 0.9160948
0.4117468 -0.08187402 0.43369305
0.5964676 -0.26432258 0.90018535
0.92015994 -0.24675572 -0.3880219
-0.89845544 -0.40641606 0.11032094
0.7413206 1.109999 -0.054529935
0.91768265 -0.24692827 -0.18745953
0.49039203 0.6144615 -0.5346315
-0.53479457 -0.42053843 0.47587317
-0.18472867 0.31889725 -0.29723728
-0.7065624 -0.4149456 0.4002115
-0.13466576 0.6178889 0.14602146
-0.35320655 1.2000201 -0.43805623
-0.8997016 1.2955287 -0.028216
0.004703258 -0.4159029 0.5808499
0.10783937 0.41360885 -0.036920495
-0.6926104 -0.07784622 -0.016225833
-0.71516645 -0.41743833 -0.62447345
0.01467723 0.9609036 -0.69362587
-0.896175 -0.40760443 0.7207664
-0.90321094 -0.09151232 -0.5281149
-0.61259985 -0.24973266 -0.21158865
-0.36659878 1.1412041 -0.8337989
0.43007165 -0.25383273 -0.924126
-0.57452214 1.633387 0.5144775
-0.0027876124 -0.41708946 0.37486345
-0.24079005 0.79200995 0.80713034
0.32243475 1.2215308 -0.84516287
0.3955946 1.552041 -0.51298034
-0.5192002 1.6173675 -0.15799941
-0.5234777 -0.24440356 0.91211504
-0.4848165 -0.2550711 0.11544317
0.6071761 1.0707133 -0.38991475
0.008867404 1.611709 0.32554644
-0.06177393 0.42179364 0.09833756
0.08521581 0.30291936 0.33506292
-0.25844538 -0.41948867 -0.75016475
0.3993173 -0.26862854 0.92293304
-0.23751338 1.5488281 0.5758692
0.39762574 -0.08257686 -0.53595245
-0.18276584 1.2146757 -0.5315134
0.8287404 0.7843368 0.04849739
-0.47292283 1.6067574 0.33754522
0.37659293 -0.07535802 0.8759316
-0.07824607 0.89536905 0.8648705
0.26234356 1.528408 -0.29268652
0.32102132 1.9285365 0.34643242
-0.35346144 -0.25590986 -0.77006596
0.7349498 -0.080816 0.21950263
0.26747736 1.185304 -0.15166028
0.40169573 1.037107 0.8048482
-0.466776 1.7851784 0.45111468
0.55426276 -0.42295963 0.1313277
-0.70065033 1.2948735 0.5450524
-0.1315598 1.302079 0.45818543
-0.031602263 -0.24924406 -0.6337162
-0.547196 -0.08368374 0.7443388
0.7817345 1.58055 -0.18214586
0.16342044 0.8154533 -0.031247865
0.9093679 1.1972528 -0.041331418
0.51832104 0.6486305 -0.1192199
0.5793607 1.578483 -0.2596718
-0.091847815 1.8457143 -0.20730993
0.34583578 0.48481378 -0.5121757
-0.09384833 -0.41715598 -0.13883741
-0.7463574 -0.41565496 -0.21459818
-0.2740038 -0.41656965 -0.062076747
-0.28127795 0.7052279 0.2550006
0.90292275 -0.08867607 -0.8961687
-0.36971033 -0.41115224 -0.90165436
0.11852197 -0.253185 0.3203014
-0.8955057 -0.09095748 -0.33107626
-0.03034748 1.036406 -0.19295406
-0.18578717 0.61398363 0.7099491
-0.6685982 0.93044615 0.13382885
0.03479509 2.0499763 0.082385
-0.104678586 1.5421014 -0.38332087
0.92457044 -0.24644724 0.2265257
0.15790594 -0.41429025 0.46484095
-0.03187648 -0.25683904 -0.9150474
-0.91539145 -0.25943136 -0.87246835
-0.16836363 -0.4146902 0.25925002
-0.6932616 0.8065454 0.48286813
0.013767425 1.1687975 -0.7641089
-0.26346013 1.5008836 -0.79596496
0.69304204 0.98511064 -0.2154583
-0.35716218 0.37913257 -0.34460652
0.6359726 1.5037059 -0.088162795
0.44442546 -0.23920399 0.75804096
0.0004918828 1.5307558 0.6283202
-0.41890523 1.7816281 -0.49392173
-0.11975942 -0.25050515 -0.06502977
0.74845254 1.0422387 0.51164925
-0.2636317 0.28161037 0.12925196
-0.18158719 -0.42113352 0.4460939
0.25608438 -0.08314146 0.5421585
-0.2903065 1.3008766 -0.09458356
-0.3082744 1.5252621 -0.27776152
-0.5069213 1.5459872 -0.33430552
-0.3945109 1.140115 0.8174313
0.3453853 0.7150484 0.72279
-0.5492108 -0.08331564 -0.548367
0.095157474 -0.08143243 -0.6659241
0.19987054 1.1301291 0.08514468
-0.8053471 1.3429602 0.39563823
0.35790178 1.0161774 -0.6370785
-0.6873488 0.97031385 0.58372796
-0.46345505 1.2860864 -0.5810558
-0.11496711 1.1423316 0.547587
0.040802415 -0.26099664 -0.18380588
-0.7705093 -0.24282569 -0.10278618
-0.023664441 1.7795883 -0.36558038
-0.3277282 1.1496252 -0.21819179
0.27020794 1.1880654 0.66756904
-0.26324207 -0.2527523 0.38217944
-0.50245476 0.6353884 0.19564804
-0.5334552 1.2465653 0.19355434
0.22871003 0.2746903 0.15674019
-0.12449567 1.498119 0.23883474
-0.9032241 -0.40393007 -0.10722268
-0.57944894 -0.4053461 -0.9160812
0.53347826 0.7262789 0.5985878
0.07568717 1.3797532 -0.70082736
0.24068657 1.6223743 -0.7444318
0.4242224 1.5422823 -0.7027534
0.057677656 1.4854802 -0.19706221
0.35452074 -0.08339456 -0.18466431
-0.5201831 -0.42066112 0.26667935
0.09817768 -0.08227978 0.455939
0.04519975 0.24649185 0.13819808
0.8792166 1.0602621 -0.22517522
0.66268045 0.56574035 -0.24795309
0.73711735 -0.08584358 -0.90428066
-0.42852545 -0.2561907 -0.47837216
0.21493879 2.0230207 0.050864007
0.09312919 -0.24115661 -0.02953508
-0.2150617 -0.41379672 -0.45395124
0.4004445 0.77893543 -0.23890105
0.3898234 1.2773677 0.34594405
0.3391408 -0.4208858 -0.5864103
-0.31421524 0.5640024 -0.62583387
-0.50079566 1.902764 0.060150802
0.42620683 -0.41287792 0.6197932
0.5266842 1.8807715 0.013302827
-0.08286956 -0.08485793 0.3824973
0.36966783 1.0202317 -0.4376307
-0.30997413 2.0091324 -0.036033303
0.23592976 -0.400514 0.91259503
-0.20305932 -0.08044718 -0.40834168
-0.101298384 0.2769905 0.2510969
0.13214011 0.8805774 -0.5134796
0.38824338 1.3268108 -0.30278045
-0.64782465 1.4989158 -0.13728024
-0.2837531 -0.25141546 -0.17005041
0.8206739 1.4309914 -0.31231117
0.5469336 -0.41280007 -0.49927464
-0.4385443 1.0207233 0.3350109
0.108474426 1.1886064 -0.42854798
-0.3786136 -0.25679082 0.24195284
-0.44392598 -0.08570973 0.24747097
-0.20829362 1.269319 -0.3166843
0.892419 -0.094161674 0.90764683
-0.10174233 0.6925431 -0.359114
0.9275841 -0.24893495 0.85684526
0.081730284 1.6487337 -0.28157333
0.2107769 -0.41558522 0.10158275
-0.11023053 1.0841991 0.7463621
0.3736547 1.9676816 0.11133408
0.17747258 0.36665234 -0.43232462
0.67125845 1.3951502 -0.26068568
-0.49433172 0.9279382 -0.2310937
0.44450617 1.5381513 0.6926515
0.7320821 -0.41638762 0.43155855
-0.57682425 1.4063513 -0.6630826
0.527161 -0.08161585 -0.3300549
-0.5488131 1.1943337 -0.72798467
0.7233623 -0.41660827 -0.3903662
-0.89778996 -0.09281628 -0.14170069
0.76414263 0.66143286 -0.09942427
-0.8671977 -0.09450149 0.91289485
-0.8774648 1.2913291 0.17940398
-0.20422027 1.0275162 -0.11788557
0.2715752 0.69853467 0.11399351
-0.24108255 0.44646162 0.009222332
0.330701 1.8026314 -0.17552057
0.28784832 -0.24940452 0.21670252
0.079627626 0.9638274 0.09780823
-0.17254722 0.94866455 0.530903
-0.11038379 -0.25952142 0.9177042
0.50839096 1.1399503 -0.7562538
0.7108948 1.4083186 -0.48813933
-0.109983295 1.6695219 0.49545285
0.21338564 1.4535812 0.15833779
-0.1728076 1.3920708 0.8520163
0.26629865 1.3203743 0.03268782
-0.18086264 0.8609796 -0.64322364
-0.5455239 0.4727064 -0.28721958
-0.75332916 -0.41354552 -0.0010699802
0.13044827 1.3514702 0.69863355
0.71497446 -0.08377423 -0.19535041
0.7224287 -0.081912965 0.0079467315
0.4854852 1.6743822 -0.12013317
0.70561755 -0.41543317 -0.76296616
0.30533022 0.92479736 0.05050355
0.25056842 1.6374283 -0.13682255
0.5215996 0.4370854 -0.20690832
-0.45603508 -0.08253665 -0.7374333
0.57530004 0.45960534 0.15264523
0.26629353 0.8781694 -0.36420053
0.7004815 1.5856771 -0.3917273
-0.47416592 1.6897191 0.14693704
-0.7630443 -0.24817243 -0.31906497
-0.4266476 -0.4161779 -0.18909359
0.778238 0.8842783 0.37656796
0.3529172 1.5272372 5.6721092E-05
0.15619645 1.1058654 -0.90211403
-0.7717825 -0.25311688 -0.526207
-0.3397518 1.6035798 -0.46505597
0.26181716 -0.41063067 -0.27868944
-0.6388166 0.7511437 0.15520437
-0.6914249 1.2090571 -0.2810923
0.43872142 1.2597508 0.551358
0.104078665 -0.24128577 -0.763508
0.24628302 -0.085801624 0.33001325
-0.13352895 1.1576544 0.32181108
-0.5938741 1.1117823 0.019840341
-0.8918438 -0.4112206 0.3267287
-0.85732245 -0.40525025 0.90559816
-0.713018 1.5513455 0.38250706
0.3464349 -0.4176184 0.7788972
0.66430485 0.873968 0.55691874
-0.57390344 -0.2501097 -0.7892815
0.22951564 -0.2412717 -0.1893611
-0.8942934 -0.40466815 -0.7332412
-0.4291221 1.5163677 -0.6931716
-0.2291885 1.0133085 0.3738329
0.63169986 1.7923591 0.14156419
0.54824144 1.2984561 -0.1779074
-0.6116619 -0.244194 -0.011555664
0.730651 1.2338674 0.12786421
-0.8975952 -0.40758714 -0.32569975
0.79304636 1.0543683 -0.43236428
0.27524018 0.35162437 0.339571
-0.6474372 1.7736685 0.12656097
-0.7354455 -0.41468054 0.21546492
-0.39834374 0.9219316 0.78627944
-0.7421224 -0.0846726 -0.6051407
-0.21451336 -0.4116007 0.90032107
-0.65230185 1.4623438 0.5593469
0.883719 1.3517547 0.08560603
-0.7480239 -0.24162897 0.11598736
-0.022896381 0.68905365 0.31089315
-0.45810825 1.7398977 -0.04966277
-0.544266 0.68956935 -0.20082441
0.19370356 0.8725941 -0.6849408
0.18223676 1.0623931 -0.72741485
0.28042215 1.4251696 -0.8178601
-0.5467123 -0.41690546 -0.52788925
-0.42528486 1.1860886 0.6151377
-0.26089412 -0.08424232 0.31253088
-0.9026295 -0.0945473 0.35355788
0.09777771 -0.08302185 0.67267835
-0.44853443 -0.24957386 -0.09046925
-0.6841899 1.5806729 -0.40852523
0.45142698 0.78716516 0.097145654
0.38751227 -0.08148967 0.011647612
0.1343669 0.41323516 0.5134933
0.7826804 -0.24314156 0.12077195
0.48637158 0.8904368 -0.07295817
0.18804178 -0.07808447 -0.878291
-0.41010445 1.5453588 0.02717916
0.6010389 -0.24687771 0.42743576
0.30581903 0.93084276 0.40605897
0.4826625 1.7112523 0.1934849
0.11829077 -0.25105193 0.14752409
0.6869596 1.431012 0.09154005
0.5538745 1.3097911 0.20317715
0.0024688728 1.1923525 -0.59383214
-0.029080687 0.93520474 0.26589245
-0.39980736 -0.4182697 -0.3914639
-0.72592914 -0.08842626 0.6273477
0.5488553 -0.41596738 0.33491772
-0.90008914 -0.092615075 0.5452155
-0.6274321 1.7163484 0.32106203
0.02535763 -0.41643608 0.18630078
-0.6794163 1.2330596 -0.60061574
0.75106144 -0.25127992 -0.29417485
0.38373256 0.7482127 0.44648796
-0.008034045 1.0706112 0.91339016
-0.9192369 -0.26692384 0.2239022
-0.21899489 -0.091384314 0.90069985
0.12751491 1.3478844 -0.516423
-0.8498632 -0.40589064 -0.9141939
0.3197071 0.9543542 -0.16667765
0.22863907 0.71010697 0.30020085
-0.6000799 -0.41075337 0.10009257
0.46140313 0.8021984 -0.43450522
0.21027112 1.8422246 -0.026965834
-0.40263754 1.3371701 -0.29601014
-0.925511 -0.24563548 -0.645833
0.8937948 -0.086493015 -0.28903925
0.62258744 0.74125767 0.009534415
-0.7118783 1.3425062 -0.11791913
-0.30984128 1.1638736 0.44976708
0.21757731 0.7453507 0.55020344
-0.4969908 1.4992728 0.685812
-0.035028554 -0.08537151 -0.31151998
0.5082731 0.9885735 0.10393564
-0.5314369 1.4998307 0.20307389
0.12419727 0.8435724 0.37570286
-0.72970617 -0.41697776 -0.4263013
0.39746645 -0.41838026 -0.39476234
-0.073796764 -0.08304721 0.757673
0.16804641 1.2830513 0.8850687
-0.47965312 -0.08365984 0.0348548
0.5449687 -0.4213604 -0.6786747
-0.40003163 -0.08161563 0.64264625
-0.013968506 1.683569 0.1277578
-0.72325134 0.59087676 -0.0049456246
-0.44515896 -0.4163193 0.014822628
0.1798781 0.69617677 -0.567743
-0.69660413 0.5945914 -0.20738265
-0.110165164 1.9405687 -0.423785
0.42761347 0.64427507 0.27149856
0.5391702 1.0779562 -0.12876979
-0.051168237 -0.2495062 0.10129352
0.58174026 -0.083706036 0.5346041
0.10238092 0.8950213 0.864202
-0.69230556 -0.41266155 0.5979296
-0.2358059 1.0005473 0.86864674
0.5112064 1.4691982 -0.38485998
-0.8881725 -0.087261565 -0.73504794
0.8990213 1.1276261 0.14051905
-0.5960804 1.4059777 0.3723203
0.17762494 1.5421547 -0.60208786
-0.08125962 -0.41313523 -0.32207525
-0.29863 1.3552823 -0.6294433
-0.23348662 1.8233496 -0.5597414
0.57472146 1.0946083 0.5081608
-0.40099135 -0.083935514 -0.42270276
0.25718045 -0.18050909 0.9274334
-0.7673793 -0.24122287 -0.74331605
0.69576573 1.3609049 0.29446304
-0.45767158 1.4364636 -0.48131073
-0.34484133 1.171099 0.23297456
-0.31314063 1.6724169 0.43167546
-0.33718884 0.73797375 -0.7404503
0.059388377 0.98759174 -0.36291853
0.08575618 1.1471872 0.76381874
-0.60476625 1.3906497 -0.30043903
-0.015072734 1.7124603 0.70498526
-0.18691762 1.8100476 0.36904234
-0.020576496 0.5573666 -0.042562947
-0.07672651 2.051846 -0.10035284
-0.070785776 1.5476439 -0.030368092
-0.011154065 0.7318751 -0.16533285
0.039649446 -0.08036293 0.05871301
-0.5371343 1.0513265 0.7245523
0.21314567 1.0116698 0.70459956
0.73081744 -0.4178328 0.22920808
0.4317206 -0.25505584 0.08140971
-0.8934736 0.9214606 -0.015469773
-0.5258048 0.6462528 0.009303518
0.16414036 0.6192812 -0.05217637
0.070666775 1.3048155 0.10453667
-0.4091519 -0.08315113 0.88528335
0.26797345 1.4086529 -0.14421457
-0.33933872 1.9113643 0.37306058
-0.5079307 1.0194576 -0.74269843
-0.2499238 0.7072097 -0.23377559
-0.9234865 -0.2554169 0.870826
-0.323277 0.8442129 0.61295706
0.36581424 -0.4189507 0.43528295
-0.23947477 1.3250312 0.27815613
0.043773897 -0.41564474 -0.0167971
0.33680922 0.44382933 0.4984004
-0.46310925 1.0355935 0.1383335
0.19666468 -0.4138385 -0.45118165
-0.47522557 0.7470146 0.33436447
0.18394166 1.6607158 0.06806901
-0.008293143 0.82549477 0.49661064
0.84412384 0.85289156 -0.14896992
0.19515076 -0.08028009 -0.07869551
0.6343385 0.50338817 -0.043669198
0.18833594 1.2339251 -0.6719817
0.3559841 0.64134985 -0.6639211
0.09291588 1.1639612 0.57064724
-0.14141472 -0.41467077 0.06710306
-0.18226945 -0.08213975 -0.19527
-0.5436584 0.8579196 0.6689271
-0.5440346 1.608993 -0.5606307
0.89963585 -0.40752888 0.12564614
0.8249204 1.4730484 0.23413408
0.56653154 -0.412592 0.74280894
0.043233536 1.6890929 -0.72189575
-0.24694818 -0.25129133 -0.58695066
0.5286499 1.4276681 0.39416736
0.89596474 -0.4077679 0.53675777
0.27887383 1.813662 0.17051983
0.35715133 -0.08669143 -0.90738904
-0.08386636 1.5518749 -0.80222595
0.14328375 -0.07565977 0.87537
0.015503236 1.8786423 -0.018026272
-0.19334173 1.9889886 0.27576172
0.29024935 1.830451 0.52315223
0.61934197 1.7222002 0.33812696
-0.5768844 1.2577204 -0.4314
-0.25257427 -0.08629303 -0.7472212
0.7181281 -0.083299026 0.8772084
-0.7231929 -0.08144131 -0.21595189
-0.44670185 -0.24581829 -0.63779163
-0.4533816 1.9248276 -0.12707803
0.6150695 1.2796531 -0.65281487
-0.63430905 1.0700243 0.27038038
-0.34485948 1.1511786 -0.6486336
0.33849818 0.83666235 -0.56678426
-0.12174605 0.85285807 0.6826495
-0.35406166 0.80188894 -0.55426747
0.3635493 0.3334388 -0.17221716
0.8602901 0.91799265 0.18500042
-0.35321832 -0.4199764 0.35414505
-0.34712496 1.676049 -0.6552359
0.2113235 1.0769646 0.8890964
0.7373991 -0.08261575 0.43036014
0.38228458 1.7508069 0.018704724
-0.9244283 -0.25229764 -0.4280283
0.44239223 1.6927607 0.57032585
-0.19033012 0.4598965 0.56445587
-0.8819205 -0.4137571 0.52577513
0.49862117 1.1514232 -0.52910256
0.49053198 0.9088532 0.49631488
-0.3666569 0.43432158 0.44034904
0.48864937 0.87356746 0.7191876
-0.15114912 -0.2555549 -0.76259583
-0.7099472 -0.26109168 -0.9271662
0.3997615 1.4155748 0.1907852
-0.0857745 -0.24258123 0.6411786
-0.16116965 -0.09060578 -0.91583633
-0.86509675 1.1304902 0.292714
0.07043324 0.59543055 -0.24819228
0.5762701 -0.08629473 0.7477678
-0.04425197 1.0264512 -0.52097046
0.18628493 2.00197 0.24526806
0.23871392 -0.41854942 0.61329263
-0.49707907 0.66393495 -0.5869676
-0.31683975 0.71984345 0.0692841
-0.58189917 1.8030126 -0.22596648
0.035013657 -0.2463278 0.47277617
-0.6428331 1.1540092 0.623667
-0.79268587 0.95723706 0.38469666
0.7507405 -0.2529599 -0.08750704
-0.26130444 1.4065019 -0.4366835
-0.050772365 1.323344 0.25456876
0.7164339 -0.08377535 -0.39055467
-0.68420804 1.4309685 -0.5120121
-0.820299 0.761763 0.08493199
0.56778944 -0.082315624 0.32325935
0.24785934 1.6497352 -0.45869464
-0.114420466 1.6321845 -0.2097185
-0.26438248 1.8290337 0.546238
0.40338135 1.656619 -0.31394362
-0.5191299 1.198211 0.40726787
0.27504474 0.4737013 0.036324427
-0.22967395 0.46341127 0.2134543
-0.42019224 1.0139148 0.54589754
-0.09462927 0.87304187 -0.26784024
0.32045043 -0.23722006 -0.7793853
-0.15564229 0.81656545 0.3560932
0.62695193 -0.27450746 0.078840256
0.65006673 -0.24952123 0.25146246
-0.40292025 1.7088277 -0.2868045
-0.15953958 1.6956079 -0.7078395
0.10509285 -0.41448826 -0.62169945
-0.19755758 1.0653937 -0.88854516
0.64621204 -0.24371174 -0.918208
-0.65446055 0.65289044 0.3743928
-0.5985013 -0.2605312 0.26867002
0.5732043 -0.414879 0.52687514
-0.15171438 1.2273614 0.09594195
0.2959681 1.3943481 -0.6348236
0.009088401 0.99163437 0.6539458
-0.6951473 1.2434177 0.3000309
-0.17798652 0.71122223 0.53791
0.89533067 -0.08940604 0.7338766
-0.57393354 1.7306676 -0.39393505
-0.585794 -0.08714101 0.3538357
0.35283065 0.3817553 -0.34709042
0.3197459 1.364751 0.66404206
0.27465302 1.4609625 0.816972
0.6877575 1.1464918 0.31685114
-0.18556634 0.8225626 -0.072293356
-0.14238288 0.8310473 0.1393224
-0.62446487 -0.24799138 0.48026168
0.12943247 0.8862704 -0.21613738
0.9175794 -0.24873911 0.64608365
0.13421413 1.3041043 -0.88343036
0.41347972 -0.2505406 -0.28789127
-0.5784478 0.4548151 0.102026075
-0.4843525 -0.2610557 0.59345675
-0.35348266 0.68708694 0.47063336
0.9239368 -0.24718541 0.4404353
0.59537005 -0.25064546 0.6496163
-0.55763423 1.3903465 0.020936402
0.5280644 1.1280339 0.23127484
0.84820443 1.0645924 0.32604825
0.12750435 0.5149089 0.33586442
-0.40826344 0.79095817 -0.33101743
-0.7763549 -0.25468832 0.53908503
0.22590956 1.9806131 -0.28752333
-0.011992132 1.8048623 0.33039248
0.54448783 -0.08617887 -0.90917706
0.20330316 0.54790336 0.6443061
0.095847964 -0.25759974 0.92493546
0.65717614 -0.081986666 -0.73857176
-0.007225466 1.3351393 -0.29464173
-0.1061784 0.24013853 0.019428028
0.46375823 1.350401 -0.7566503
0.15299012 -0.082308784 -0.2851758
-0.78682816 -0.2536372 0.73100066
-0.74115646 -0.08137381 0.43765306
0.51036865 1.1787393 0.73712194
0.18967295 1.3198459 -0.30347496
0.09645271 1.407733 0.31575257
-0.3888728 0.71154284 0.70485044
0.58633196 -0.24520549 -0.21715015
-0.20765486 1.1954727 0.8828255
0.7838947 1.2238908 0.46076164
-0.5963572 0.8836699 0.30594194
-0.17038253 1.9077849 -0.031508796
-0.61942506 -0.40390944 0.90331036
0.2305367 -0.24339798 -0.37738332
-0.5985212 0.61111164 -0.41486257
-0.43200082 1.892853 -0.31001312
0.7810846 -0.24836981 0.3432615
0.9139446 -0.24255794 -0.59310377
-0.15304808 -0.08604654 0.003166446
0.034986798 1.3504622 0.53207505
0.3377146 -0.08274463 -0.36040688
0.60122937 1.0248353 0.6770333
0.547494 1.6034203 0.049690876
-0.7057301 1.2804017 0.06686542
-0.41386843 1.3365853 -0.7867933
0.8979159 -0.407964 -0.082401305
0.68168473 0.71084857 0.44563168
-0.17747414 0.6867269 -0.5493573
-0.3776553 0.55691564 0.30850053
-0.35499623 0.6689526 -0.44294196
0.05817754 -0.25634065 -0.35541433
0.6957987 0.8848781 -0.5401573
-0.5124712 1.0977836 -0.5327139
-0.049018286 1.2784977 0.70818394
-0.67719257 1.415124 0.18392023
0.27779314 -0.0807623 -0.69759977
-0.89500713 -0.40639856 -0.5347291
0.0021101376 0.769581 -0.6470401
-0.2771963 1.0378916 0.66818357
-0.0578103 0.8482937 -0.47466254
0.8911697 -0.40779722 0.73459643
0.22483265 -0.08264135 0.124712735
-0.23589055 0.8503482 -0.41001153
0.058050424 1.6892247 -0.085212246
-0.44788557 -0.2501433 -0.28777045
0.89956635 -0.087631635 0.53409755
0.88650763 -0.4009952 0.9063366
-0.06043183 1.3576118 -0.04950116
-0.5062852 0.85946155 0.4840029
0.5694165 1.7605462 -0.35120863
0.3062305 -0.40314585 -0.91653323
-0.3010509 1.6452391 -0.11883481
-0.5576165 0.48176914 0.29519776
-0.3861486 0.9987471 -0.39045328
-0.14475003 -0.4096456 -0.90882623
-0.16889988 1.660886 0.28007436
0.4193025 0.87026155 0.26208603
0.29345283 1.663826 0.6919858
-0.36753452 -0.41503635 0.54809
0.5344864 0.67973006 -0.31581044
0.20648555 -0.41328502 -0.7594775
-0.13323903 1.8425303 0.15718435
-0.5324443 -0.083119825 -0.14530264
0.53877974 -0.10104148 0.91573524
0.7306503 0.60007906 0.10133274
0.537071 -0.071444064 -0.12382728
-0.21185765 -0.25646293 0.76513934
-0.0505728 1.189645 -0.9181371
0.118717566 -0.41917104 0.75149286
0.26587492 -0.24478948 0.013469739
-0.33259785 -0.41817164 0.1532345
0.22005162 0.47136426 -0.20269288
-0.009782972 0.9832439 -0.89032316
0.24811898 -0.25544798 -0.6118624
-0.103934035 1.5672703 0.7965636
-0.048005097 1.8441117 0.57565945
-0.23535927 1.3053029 -0.8697636
-0.45346588 -0.2571206 0.40745997
-0.15253285 2.0405152 0.09879771
-0.12922567 -0.2574551 0.47911495
-0.36325127 0.9680644 -0.6250086
0.07597698 0.7821698 0.17225382
0.22829685 -0.26145637 0.77549905
0.9323386 -0.2476819 -0.78174376
0.44705412 -0.2532798 -0.6223705
-0.30001926 -0.2528503 0.030103069
0.28975767 1.4266155 -0.4418215
0.7227372 -0.39921504 -0.9190903
-0.72057927 1.6514142 -0.22961509
0.08702059 1.8475394 0.15510117
-0.3740974 0.5331165 0.10601663
0.1717743 1.7908475 -0.61651564
-0.9254968 -0.25940073 0.43170464
0.45412514 -0.24717365 0.5296215
0.40599623 -0.25358298 0.3584745
-0.9123479 -0.104366496 0.17352934
-0.51292855 0.83576274 -0.6915475
0.40438038 0.34970003 0.15990536
0.37013337 0.57199574 -0.29784
-0.30715126 -0.08431226 0.12293342
0.020305159 -0.08168523 -0.47767878
0.6831923 0.9309082 -0.014984351
-0.40841007 -0.24030054 0.75814503
-0.26739562 0.47209626 -0.19408779
-0.066448286 -0.25004578 0.2932796
-0.22755677 1.6292784 0.090647936
-0.43258533 1.0569205 -0.09872669
0.75694275 0.72550774 -0.2930909
0.90271974 -0.0864432 -0.48858392
-0.3050037 1.3410708 0.49222356
0.11171277 0.8414499 0.6794052
-0.30439293 1.5390999 0.7667204
0.5210817 0.5724236 0.46380833
0.22611246 0.7048939 -0.22416407
-0.6587757 0.99389106 -0.61367536
-0.20300364 0.39535224 -0.4928844
0.3870105 -0.41936994 0.017155126
0.08710909 -0.40509677 -0.9112148
-0.155363 1.4248109 -0.21965379
-0.73712 0.9621602 -0.038591694
0.38943994 0.5952295 0.60245216
0.011424452 -0.41086918 0.90660805
-0.022777047 1.2612181 0.9035071
0.48394567 1.8819774 0.23705876
0.39994317 -0.08252892 0.21799769
-0.41912487 1.3607266 0.32215086
0.032647945 0.5855776 -0.7186191
-0.47117358 0.8262371 0.13172454
-0.20383042 1.0322835 0.18958922
-0.09653486 0.39484778 -0.10327679
0.2697047 -0.087045476 0.73271847
-0.910869 1.1134437 0.07050814
0.48199636 1.3590585 0.7480315
-0.74631375 1.1108931 0.13291585
-0.0011483331 2.0065377 0.274995
-0.73052657 -0.08507171 -0.90076935
0.40941942 -0.41894773 -0.17953268
-0.11443877 0.55151004 -0.22230867
0.1287154 -0.25334555 0.6110924
0.89450204 -0.086698 -0.08975816
0.88860726 -0.08177751 -0.70651126
0.562814 -0.41474363 -0.29181188
-0.1487718 1.411886 0.64604104
-0.49574387 1.137633 -0.299817
0.33644915 1.0632291 0.22413123
-0.2966059 -0.2456241 0.5809561
-0.4043414 0.5881032 -0.2839622
-0.4285268 0.49447393 -0.4774549
0.36803842 0.8217588 -0.7689507
-0.65661824 0.78668994 -0.5361744
0.56229264 0.7766235 0.35449815
-0.64176357 1.7864279 -0.061186932
-0.07799997 1.4787998 0.4369557
-0.6047603 -0.09292421 0.15316334
-0.73229516 -0.08308129 0.8007838
0.49696663 -0.24845341 0.22928956
-0.041120864 0.24448118 -0.18549514
0.17291136 0.54818153 -0.40177375
0.1808283 0.8986081 -0.8629588
-0.03174778 1.8375525 -0.59231365
0.7413356 1.4080036 0.46941614
0.30997843 0.6861057 -0.4329859
-0.36126372 -0.08393869 -0.25356594
-0.82741916 1.4610806 0.25124723
0.16486715 0.97554 0.52101505
-0.12912339 0.5096946 -0.6290409
-0.42698896 0.36146832 -0.16788629
-0.8428943 1.0915631 -0.32268578
-0.57551485 0.7976403 -0.37366372
-0.39941847 1.6745533 0.62345827
-0.20372672 0.62916946 -0.053991243
-0.105860874 1.9474728 0.43973067
-0.9234021 -0.2544828 -0.21823642
0.56654346 -0.40727198 -0.074677214
-0.87276167 1.2809038 -0.23075199
0.85747063 -0.25000528 -0.9290103
0.4610863 1.3473966 -0.5318115
-0.23031482 0.54329765 -0.3965488
-0.4001175 0.7761878 -0.10218902
-0.32873586 0.89541763 0.22805154
-0.12360023 1.2048497 -0.14610083
0.0412582 0.41533914 -0.2361747
0.5812882 1.2598386 0.4243878
0.7533271 -0.24993813 0.54514855
0.89380544 -0.40787968 -0.6857346
-0.062987246 1.1652753 -0.37607318
-0.39999688 0.5584322 -0.090987496
0.3582875 1.7112331 -0.6197556
0.4077416 -0.25386626 -0.10597114
0.40749353 1.8979446 -0.31417093
-0.22885373 0.34623623 0.36642843
-0.23310357 -0.08296356 0.51527727
0.21936314 -0.41182262 -0.09401001
0.09653346 0.23743694 -0.045803316
0.64895666 0.85983604 0.17882043
0.35599858 1.9780262 -0.10475955
-0.9022529 1.0931836 -0.13452844
-0.02568056 -0.096130274 0.91360486
0.8939377 0.98616874 -0.012982478
-0.020903947 0.73261833 0.026863283
-0.24926925 -0.08414422 0.7147421
0.3653381 0.5437792 -0.109939784
-0.31572503 1.8044791 0.04628103
0.34331936 0.74183047 -0.062473655
0.19716693 -0.24517597 -0.92634845
0.080154374 1.1630836 -0.22750823
-0.22861871 2.0008383 -0.23323962
0.57258916 -0.08408654 -0.5373179
-0.33253935 1.5307891 0.21618043
0.4332774 1.7797666 -0.47112244
0.5796317 1.2719854 -0.39183477
0.89953005 -0.08567384 0.11386018
0.60246676 0.9705303 0.3355883
0.58090526 0.6762254 0.17762882
-0.35224658 0.5588153 0.5991262
0.21844234 1.7707508 -0.33271557
-0.4259491 -0.40789226 0.8948115
0.1255632 1.515797 0.45483294
-0.73214734 -0.2502572 0.91789424
0.35083312 1.0195875 -0.8322636
0.5726025 -0.24610186 -0.4183035
0.68821204 1.1770432 -0.24359259
0.55891305 1.6382531 -0.5225266
0.3524294 1.5978475 0.17643464
-0.8481351 0.9189011 -0.23146951
-0.8159703 0.74977344 -0.12384784
0.39566237 -0.4111116 -0.7641057
-0.668525 0.8628006 -0.21533233
0.7137892 1.5629361 0.36610562
0.72760415 -0.41728544 -0.18495968
0.73366493 1.6433265 0.17614035
0.73656464 -0.08260234 0.64922047
-0.61758476 -0.2542348 -0.61627865
0.016810048 1.1471736 -0.015542137
-0.2551126 -0.41473293 -0.26064157
-0.41030544 0.3651526 0.23486328
0.20744714 -0.08405498 -0.4970804
0.15517649 0.6870778 0.7772889
0.094336964 1.923362 -0.4490508
0.43455386 1.1443005 -0.28437054
-0.6462095 -0.080974236 -0.74043465
0.16722345 1.798132 0.34229213
-0.5852101 0.46293175 -0.091366634
0.31506836 -0.24990901 0.6204591
0.00574723 2.010367 -0.28132394
-0.32880893 0.8633373 0.4192408
-0.32906327 1.7594793 0.24087977
0.8996947 -0.4079057 0.3315578
0.21693838 1.2557719 0.25419232
0.027560182 -0.24373408 0.77134985
-0.79115754 1.4542038 -0.3159708
-0.5356053 1.2481995 -0.14537191
-0.5063335 1.3324825 0.53253055
0.22687766 0.89286065 0.20995596
0.6258304 0.8687079 -0.366682
0.5702356 -0.20474261 -0.04513809
-0.7102878 0.59425527 0.19066799
-0.62390757 1.0166132 -0.37688792
-0.31888086 0.9292543 0.02572108
-0.28362083 1.9070244 -0.39450723
-0.84416044 1.481003 -0.13607293
0.1623101 1.030607 -0.08465413
0.67361355 1.726924 -0.2086361
-0.93208194 -0.2562852 0.6377575
0.4853006 -0.41420627 0.90529764
0.7073934 1.3043315 -0.06508285
0.16993326 1.625037 0.26238024
-0.3314336 -0.08377552 -0.07177411
0.040160585 1.4432181 0.851588
-0.7695812 1.6421494 -0.024869878
0.060837187 1.2149339 0.38518214
-0.23416212 1.0269086 -0.5120501
0.06731773 -0.084583804 0.2530979
0.11274749 0.6415244 0.4653064
-0.12547705 -0.4157827 -0.61207044
0.27236015 1.6363941 0.47860205
0.8989374 -0.40670916 -0.48613557
0.20444125 1.5177932 0.61824214
-0.44557637 1.2258782 0.014912405
0.39457363 1.4690872 0.52153635
-0.19992414 0.575817 0.38528958
0.088310525 0.5928099 0.14279929
0.44154686 1.481153 -0.17597517
0.73526686 -0.41985035 0.023088656
0.010848502 0.6861197 0.6263541
0.0827064 1.6975979 0.49846312
-0.2596302 1.4953547 0.38581604
-0.053902056 1.3797017 -0.874773
-0.34180325 0.9310148 -0.8130573
0.14731425 1.782739 0.6378443
0.5269314 0.5031096 -0.39238337
0.89587486 -0.40814143 -0.28587008
-0.57626414 -0.41491458 -0.31698442
-0.048937175 0.47547704 0.2898668
0.03182296 -0.09078428 -0.91615045
0.5678672 1.181001 0.02999409
0.111809134 1.9308257 0.455826
-0.7517376 0.7372675 -0.33255947
-0.18810302 -0.41205078 0.61796576
0.5700836 1.5233904 0.22190017
0.22965956 1.330536 0.48370126
-0.42898792 0.34690446 0.023374807
0.51950693 0.9523551 -0.5278094
0.012114822 1.1302345 0.19458033
0.7629807 -0.24126658 -0.74202406
-0.13295996 1.7327399 -0.037652627
-0.32295817 -0.41538653 0.7386018
-0.086213835 -0.41493592 0.759264
-0.6159724 -0.2521764 0.7234791
-0.16389517 1.0378227 -0.70413923
-0.25190854 -0.25660467 -0.9231024
0.73142946 -0.41417825 -0.5825614
-0.6035813 -0.2491546 -0.42351982
0.7725211 0.72962904 0.2506963
-0.13086209 -0.08371165 -0.5907241
-0.01751839 1.5328581 -0.59885025
0.65544736 0.69411206 -0.4607277
-0.36325923 1.3569722 0.107998535
-0.18837188 1.0469544 -0.3306871
-0.5507773 -0.09033175 -0.9141104
0.26187354 1.1426413 0.44872278
-0.86369836 0.94582415 0.19091904
-0.27823538 -0.24529618 -0.37558395
0.5292006 -0.4108125 -0.89912236
0.3809379 -0.25226378 -0.4679373
-0.70117605 -0.41812417 -0.798549
-0.32012904 -0.25173575 0.9233992
0.38165206 -0.41719002 0.22337238
-0.011398258 0.90647733 -0.063718244
0.011813249 0.6252364 -0.51209044
0.81162226 1.5618412 0.023952711
0.7014952 -0.4170094 0.87898433
0.47830802 0.37775356 -0.016039584
-0.5604042 -0.08440775 -0.33349842
0.62582916 0.8065097 -0.17796072
0.53362894 1.8615699 -0.16798061
-0.111845 1.3723638 -0.6842629
0.6397816 0.5669813 0.30609676
0.0663431 1.6856227 -0.49260983
0.89507085 -0.40670377 -0.88042176
0.53528804 0.77010274 -0.6338538
-0.78407145 0.7815883 0.28701413
0.43655017 1.0835469 0.38954228
0.5461664 -0.2538994 -0.7772267
-0.35660058 -0.08788657 -0.9110708
-0.15310004 0.66691315 -0.7577065
-0.042122543 0.5630038 0.48022968
-0.21111423 -0.24632917 0.18027674
-0.2540374 1.4798613 -0.067839205
-0.03389481 0.7097741 0.80569303
0.15319832 1.0501196 0.3042116
0.29585835 0.5769261 0.41949183
-0.92422503 -0.2483548 0.0070800553
-0.045247287 0.49141806 -0.3946632
0.12379977 1.6021925 0.7782106
-0.83010995 1.4693218 0.05466507
0.36235064 1.2037901 -0.65217435
-0.1108094 1.018239 0.0441541
-0.6491245 1.0508412 -0.18294007
0.59706885 1.593501 0.5215343
-0.051841088 0.36510485 0.46642604
-0.51887083 -0.41923404 0.7071446
0.7099931 1.0413663 0.14828518
-0.28785735 1.82478 -0.17230362
-0.64708745 0.77319133 -0.044391535
-0.17966089 1.4147034 0.09166077
0.47953516 0.9510379 -0.28038502
0.901579 -0.086497545 0.3245535
0.25066775 -0.25056937 0.44484633
0.23692435 1.0779955 -0.30998006
-0.5435894 0.6913841 0.5700213
0.13340655 2.0349388 -0.1185194
0.0005447408 0.5090529 0.6649255
0.026282568 0.42284864 -0.55741745
0.5031215 1.3918866 0.018722992
0.32894015 0.87425715 0.6119753
0.62871957 -0.2509852 -0.61249673
