0.580986 2.6845827 0.62842536
0.4529519 1.8550687 0.07448612
0.44660425 2.8706117 0.38871914
0.7480527 -0.25270188 0.7536341
0.37300545 2.3258016 0.60905886
-0.6130716 2.3067722 0.43759388
0.014604988 1.5811422 -0.38185647
0.642576 2.4996057 0.6447469
0.2822199 3.148501 -0.47117245
0.77894175 -0.25087404 0.931556
0.4589231 -0.08655721 -0.729252
0.004538128 -0.4174013 -0.4678331
0.020520998 2.766622 0.13687626
-0.7502323 2.4294786 -0.096330106
0.28359902 2.7460856 0.35766077
0.09669747 -0.24752405 -0.5293715
0.29700553 1.7891828 0.22194749
-0.34042728 -0.0866257 -0.581977
0.10960835 2.030348 -0.36831838
-0.9061626 -0.097507134 0.7318225
0.45165747 3.0844872 0.43465304
-0.6128357 2.8514996 0.027223371
-0.47886318 -0.2545068 -0.9258474
0.42672935 -0.08356951 0.6423987
0.21727416 1.7872157 -0.6182326
0.857656 2.701442 -0.071291625
0.873844 2.5492668 -0.18407443
-0.2895529 2.4004862 0.022892395
-0.21649 3.003337 -0.34687254
0.19315122 1.5550119 -0.23074928
-0.44337058 2.7038083 -0.14418785
-0.75689787 2.185452 -0.44938844
0.0010318815 -0.08724813 -0.12693942
-0.75204885 2.8894658 0.16848247
-0.72348976 -0.085781954 -0.4154852
0.31928003 2.4964042 -0.45377314
-0.5893825 -0.41634393 -0.10093829
-0.39778268 2.673145 0.6798818
0.09447514 2.7699122 -0.40416932
-0.29658204 2.1839895 -0.23088552
-0.055718526 2.6398249 -0.4854468
-0.26327384 2.5058067 0.6704558
-0.7597712 -0.07849603 0.2172607
0.21731168 1.9731436 -0.76750326
-0.06269217 -0.08973695 -0.7640375
0.7538521 -0.25181705 -0.49843854
-0.56720775 2.5658045 0.7120495
0.5940222 2.7531555 -0.6023443
-0.10750788 -0.24859592 -0.46197867
-0.162723 2.4863677 -0.74090135
-0.11451532 -0.08280657 0.18929031
-0.7862725 2.5572028 -0.44085735
0.37599814 2.3575516 -0.00018230687
0.1330638 2.7652264 -0.018423434
0.20001312 2.3320155 -0.5280436
0.9207978 -0.24981047 0.0023589786
0.03948917 2.0556836 -0.8342719
0.82297665 2.1831872 -0.33202052
0.68445086 3.0099483 -0.0032059494
-0.24795803 1.5450004 -0.10967088
-0.44685262 2.778016 0.48192814
-0.13161984 -0.24593157 -0.26103753
0.85011876 2.5575595 0.3114699
-0.7208198 -0.42095268 0.77537346
0.32407236 2.5049872 0.84804416
-0.5012054 -0.4200512 -0.72501326
-0.74442923 2.378129 -0.5086056
0.12647521 1.6909864 0.17267278
0.26173535 2.1393104 0.828041
-0.5615089 -0.086656675 0.55612975
0.7492595 -0.089481704 -0.5929581
0.82419795 2.5312543 -0.35771716
-0.12965962 2.9527779 -0.5125396
0.29813838 1.562501 -0.022127466
-0.035310134 -0.4149593 -0.7676497
0.7321991 -0.41852486 0.6409398
-0.14363924 2.131781 -0.8477998
-0.49564534 2.174681 -0.5178548
-0.024237743 2.2968266 0.42663628
0.5626636 -0.08595629 0.10391495
0.21045399 -0.41691622 0.29260248
-0.35551023 -0.41820753 -0.58012456
-0.3776092 2.5927904 0.8184225
0.114739105 2.7915192 -0.8219768
-0.89285505 -0.1002846 -0.9108815
-0.7886156 2.4043174 0.44746098
0.091739476 -0.42077637 -0.2535653
0.38465866 2.498717 0.14204195
0.4632119 1.7158475 0.33666706
-0.06356898 -0.08376759 0.5724447
0.111993104 3.1178925 -0.20012414
0.11117613 2.5752878 -0.096619025
-0.76201534 -0.24069503 0.3236456
-0.5091797 3.1300488 0.25049794
0.41530454 2.5358644 -0.07357663
-0.5232477 1.824226 0.44178033
-0.8738172 -0.08543981 0.025285617
-0.53189325 2.1779232 -0.040245526
0.7382817 2.50404 -0.5118564
-0.2127007 2.7959213 -0.5948916
-0.22025025 2.9788332 0.68039095
-0.35027972 3.2388995 0.15900265
0.5448013 2.229064 -0.7080187
0.32001728 2.9958215 0.34134567
0.6762339 2.3510106 -0.60616434
-0.40069944 -0.090432554 0.4525118
-0.62340003 -0.09318006 0.9162364
0.41083246 -0.08488427 0.4314682
0.6009823 -0.26424843 0.89832807
0.9184811 -0.24799779 -0.39555895
-0.8964429 -0.40896523 0.10986536
0.74531686 2.393995 -0.03406742
0.9158113 -0.24927053 -0.19770116
0.51090616 1.8990424 -0.525416
-0.53332794 -0.42075646 0.47515476
-0.16796255 1.5882567 -0.3006214
-0.7045932 -0.41561222 0.40075725
-0.13528481 1.8905092 0.14115453
-0.3446223 2.4749458 -0.4455319
-0.89958036 2.5635107 -0.047208276
0.008681845 -0.41708666 0.57981676
0.11719896 1.6877167 -0.031363636
-0.6941149 -0.07998577 -0.008589558
-0.71486545 -0.41730678 -0.6173041
0.0323181 2.2356346 -0.6905785
-0.8973032 -0.40772957 0.7200146
-0.9024748 -0.09335056 -0.5247288
-0.6123656 -0.25262392 -0.20754291
-0.3466159 2.4221296 -0.843248
0.42471644 -0.25555757 -0.925251
-0.5909442 2.9060245 0.49558395
0.0032875475 -0.41784298 0.37569365
-0.26436448 2.0597372 0.7971245
0.34051096 2.5000854 -0.8370128
0.4073377 2.832182 -0.50380945
-0.52019095 2.8885584 -0.1655947
-0.5242022 -0.24601959 0.9109646
-0.4987501 -0.2528857 0.121951886
0.61785674 2.3547444 -0.3760605
-0.0038238782 2.883275 0.3255751
-0.058562353 1.694806 0.09658593
0.08510591 1.5767782 0.33715588
-0.2701841 -0.41846853 -0.74681866
0.40512586 -0.27098066 0.92088354
-0.25794527 2.8173456 0.57223964
0.393349 -0.08614245 -0.53647685
-0.17081344 2.493823 -0.5356287
0.8330181 2.071635 0.065543346
-0.4778111 2.8796825 0.32752976
0.37593943 -0.0779998 0.8747493
-0.101937234 2.1628404 0.86041486
0.26119798 2.8050537 -0.28332186
0.303393 3.2045665 0.35538763
-0.3662466 -0.25369453 -0.77320254
0.7349961 -0.08299704 0.2099987
0.26956224 2.4621649 -0.13796668
0.3800009 2.2976046 0.81376517
-0.4778753 3.0568829 0.44174466
0.55609155 -0.42356598 0.12457086
-0.71517265 2.562886 0.5290398
-0.15573104 2.5786142 0.45911545
-0.038499206 -0.2501005 -0.63657176
-0.54881257 -0.08658004 0.7477413
0.781947 2.86455 -0.15175319
0.16806315 2.088454 -0.03409448
0.9092757 2.485393 -0.017169077
0.5290295 1.9329975 -0.10613775
0.58235526 2.8566813 -0.2397604
-0.08846531 3.1181564 -0.20707661
0.36961547 1.7662735 -0.506695
-0.08900827 -0.41736376 -0.13683295
-0.7426257 -0.4162134 -0.21108368
-0.26936984 -0.41731286 -0.054521948
-0.2871939 1.9827422 0.24372652
0.9020523 -0.08995426 -0.8980528
-0.38169938 -0.4116435 -0.9010329
0.11851132 -0.25584158 0.3159383
-0.8963566 -0.09273863 -0.3280902
-0.026120856 2.3116908 -0.19554669
-0.208263 1.8824925 0.6969781
-0.6721935 2.2008176 0.11877099
0.027488712 3.323433 0.08317971
-0.09944503 2.8155842 -0.38347423
0.92252463 -0.24809188 0.21739218
0.1635538 -0.4147946 0.46563917
-0.04587932 -0.25757334 -0.91589564
-0.91580665 -0.26169893 -0.86884665
-0.15883952 -0.415367 0.26151466
-0.70509744 2.0733607 0.4592992
0.030902725 2.4466386 -0.7632426
-0.25765365 2.7812748 -0.79440856
0.70287395 2.2720065 -0.19880259
-0.3368742 1.6514373 -0.36191177
0.6329347 2.7829566 -0.06757291
0.44776857 -0.24038655 0.75505567
-0.023172092 2.7988467 0.63066286
-0.41606453 3.0548694 -0.49693727
-0.118649706 -0.25281012 -0.058610506
0.73453224 2.3181653 0.5330161
-0.25931966 1.5531155 0.120999545
-0.17735583 -0.4217663 0.4493934
0.25326824 -0.08531582 0.5385431
-0.2901123 2.572224 -0.09698947
-0.305621 2.7979164 -0.28205925
-0.503471 2.8172948 -0.3419217
-0.41599447 2.4027104 0.8070452
0.30876473 1.983218 0.7368888
-0.55008507 -0.08592197 -0.54043925
0.086840324 -0.08423273 -0.6678815
0.19872883 2.3999665 0.09450015
-0.8155673 2.6115208 0.37471583
0.37230292 2.305553 -0.62907755
-0.70310795 2.2368674 0.56270903
-0.45243567 2.559525 -0.5910661
-0.13079953 2.415904 0.54395837
0.04017546 -0.2611414 -0.18704599
-0.77188224 -0.24319401 -0.10185846
-0.019278917 3.0541735 -0.36535436
-0.32602924 2.4220257 -0.22242144
0.24994189 2.4583082 0.67810184
-0.25858086 -0.25487363 0.37897155
-0.5106268 1.9077295 0.18031295
-0.535738 2.5124183 0.18538442
0.23537469 1.5508515 0.15940979
-0.1345711 2.7718468 0.23106235
-0.902356 -0.4051051 -0.10535356
-0.5890978 -0.40771842 -0.9145647
0.5339817 2.0003161 0.5988449
0.08807953 2.6520948 -0.6948308
0.25231272 2.9011552 -0.7354372
0.4360743 2.8243885 -0.6917447
0.05800371 2.759935 -0.19339055
0.35289848 -0.08613187 -0.18985507
-0.5138569 -0.42293286 0.26347533
0.0959951 -0.084533826 0.45141333
0.050960258 1.5205925 0.14160231
0.88610303 2.3508048 -0.2043283
0.6788659 1.8525891 -0.23290214
0.7340384 -0.08737014 -0.9063115
-0.43240678 -0.25679955 -0.47062916
0.20703366 3.2983143 0.05323321
0.09373477 -0.24295393 -0.033077538
-0.21567495 -0.41508487 -0.44960818
0.4055203 2.0605521 -0.22814077
0.37783253 2.555869 0.3596536
0.33220023 -0.42202508 -0.59479547
-0.28935516 1.8365386 -0.63809085
-0.5047699 3.1740968 0.053061
0.43231106 -0.41343266 0.61872697
0.52156484 3.158407 0.029494632
-0.083290115 -0.08764559 0.38152927
0.3862658 2.301272 -0.42575365
-0.3113553 3.2821364 -0.040854998
0.24118708 -0.40294456 0.91105664
-0.20403384 -0.08395946 -0.40903488
-0.1004481 1.549788 0.2489489
0.14965707 2.15652 -0.51106954
0.39002573 2.602426 -0.29126263
-0.64765847 2.7674403 -0.14750566
-0.2854693 -0.25237143 -0.16126858
0.82599485 2.7193217 -0.28661853
0.543549 -0.41391784 -0.5088184
-0.44953603 2.2968206 0.32392675
0.11839296 2.4629169 -0.42350698
-0.37829158 -0.2617851 0.23671229
-0.44316182 -0.089620575 0.2541104
-0.20234266 2.54074 -0.31891978
0.8934443 -0.09674464 0.9073785
-0.089516506 1.9660733 -0.364245
0.9270947 -0.2510913 0.849986
0.08270142 2.9235687 -0.27850518
0.21822134 -0.4163884 0.099578366
-0.13037351 2.354351 0.7410134
0.36348605 3.244482 0.118829004
0.20205411 1.6427026 -0.42621765
0.67846894 2.6767292 -0.24048755
-0.48609746 2.1950555 -0.24475023
0.42568606 2.8081698 0.70674425
0.73344576 -0.41682833 0.4219824
-0.5672251 2.6789765 -0.6715079
0.5208726 -0.08392422 -0.33933845
-0.5340043 2.4680595 -0.7395209
0.72088635 -0.41723597 -0.3999606
-0.8969497 -0.09386375 -0.14025852
0.77411616 1.9480572 -0.08268308
-0.86863744 -0.09594469 0.91118157
-0.88170505 2.55907 0.16000909
-0.20614311 2.2962873 -0.12804809
0.27414387 1.9736114 0.11782116
-0.23616493 1.7207805 0.0017546965
0.33090207 3.0762105 -0.1689681
0.29017526 -0.25017413 0.2146438
0.069148034 2.234561 0.091467425
-0.18681112 2.2202954 0.52314997
-0.1073966 -0.26154056 0.9152467
0.52438325 2.4224749 -0.74586177
0.71764207 2.6993673 -0.46825
-0.12286098 2.9385662 0.49528956
0.20763135 2.7278795 0.16545935
-0.19357763 2.6622581 0.85056037
0.26476362 2.5945597 0.0415824
-0.16116871 2.1366606 -0.6483884
-0.5282371 1.7409923 -0.30778068
-0.7522136 -0.41400093 -0.0017702694
0.10895598 2.6215034 0.70209616
0.71327436 -0.08645052 -0.20648047
0.720824 -0.08447245 -0.0026537683
0.48420143 2.9521353 -0.10546882
0.7023592 -0.4153825 -0.7666714
0.30182767 2.193981 0.06123815
0.24983373 2.9129386 -0.12840039
0.539015 1.7212942 -0.1982967
-0.47235662 -0.08546014 -0.730674
0.57988036 1.7388022 0.1634832
0.281133 2.1595604 -0.35903978
0.7080628 2.871862 -0.362641
-0.47682548 2.9609318 0.13733874
-0.76525927 -0.2493274 -0.31451273
-0.4227785 -0.41724646 -0.17739627
0.76992035 2.1712465 0.39036706
0.35031015 2.804883 0.0120325945
0.17527035 2.3838248 -0.8987677
-0.7712984 -0.25449562 -0.52017987
-0.33438727 2.8784401 -0.4669959
0.26547137 -0.41246572 -0.28459412
-0.6394632 2.025181 0.12045063
-0.6853846 2.478229 -0.2948485
0.4214313 2.5327537 0.56831086
0.09295716 -0.24253023 -0.7686186
0.2461138 -0.08785188 0.32569128
-0.14112276 2.4338756 0.3206975
-0.5949421 2.378416 0.0067558
-0.8896002 -0.4129934 0.3256132
-0.85950017 -0.40654558 0.9048537
-0.7247175 2.8209276 0.3621993
0.353941 -0.418778 0.77815354
0.6556176 2.1493154 0.5662323
-0.579249 -0.25329846 -0.78406185
0.22970599 -0.24281035 -0.1909559
-0.8944179 -0.4060014 -0.7274654
-0.42267108 2.7914557 -0.6959492
-0.24301654 2.2912116 0.36991432
0.6204957 3.0709786 0.16626874
0.54844606 2.5841944 -0.16506383
-0.61570764 -0.24385518 -0.0125983395
0.7249228 2.512537 0.1519359
-0.8968981 -0.4080997 -0.3169189
0.80401987 2.3443878 -0.41496646
0.2756827 1.6274363 0.34669644
-0.6519904 3.0438309 0.11575572
-0.73279756 -0.415663 0.21713224
-0.41951603 2.1891613 0.7722963
-0.7383617 -0.08683439 -0.5979107
-0.21067345 -0.41484088 0.89568985
-0.6732857 2.7321806 0.5379536
0.87774384 2.6347337 0.1144303
-0.7453091 -0.24463099 0.11774723
-0.024505563 1.965013 0.30527544
-0.45816377 3.0111303 -0.056172602
-0.52824914 1.9565194 -0.22411768
0.21494462 2.1514149 -0.6813099
0.1960935 2.3391995 -0.72280294
0.2945965 2.7049088 -0.8100095
-0.5473634 -0.4171522 -0.52052844
-0.44305754 2.4588494 0.608376
-0.26245558 -0.08758445 0.31211132
-0.9025723 -0.09660868 0.35283554
0.095901445 -0.08530603 0.6687816
-0.45197448 -0.25237876 -0.08034926
-0.68065715 2.8517804 -0.4166838
0.45636314 2.0612793 0.10927181
0.38848764 -0.083951436 0.005012053
0.12791115 1.6863439 0.51458055
0.7816611 -0.24402726 0.10828593
0.48917705 2.1684146 -0.056647874
0.179133 -0.07932554 -0.87897694
-0.41464967 2.8131714 0.019419778
0.60289454 -0.24822131 0.41865033
0.30453178 2.2151535 0.41687894
0.47410578 2.9865406 0.21429291
0.1259667 -0.25293157 0.14230186
0.6804314 2.7096262 0.11310907
0.54533255 2.5878658 0.21824135
0.015247656 2.460781 -0.5917349
-0.019129962 2.1994448 0.2679997
-0.3991146 -0.41883096 -0.38285655
-0.7272184 -0.09127861 0.6199496
0.5516037 -0.41656947 0.32787043
-0.9004611 -0.094366506 0.54077065
-0.6362859 2.9862604 0.30630964
0.0337044 -0.417285 0.18592921
-0.6673939 2.505661 -0.61376226
0.7486609 -0.25336784 -0.30694073
0.3685246 2.024875 0.45365945
-0.030838277 2.3373423 0.9114899
-0.91926837 -0.27221245 0.22194748
-0.2187714 -0.093991145 0.9009457
0.1405954 2.620613 -0.51068234
-0.8500453 -0.40747625 -0.9138269
0.32944632 2.2367005 -0.15769418
0.22326998 1.9796855 0.29881263
-0.6036912 -0.41108257 0.10086423
0.47684664 2.0822694 -0.42313516
0.20905048 3.1155772 -0.020585116
-0.39699048 2.6090174 -0.30209005
-0.9254545 -0.24888673 -0.6390922
0.89311934 -0.08843885 -0.29635167
0.6302906 2.0250425 0.02600257
-0.7106371 2.6094384 -0.13161471
-0.32440042 2.4434102 0.44210508
0.20148489 2.0136185 0.55851865
-0.52498275 2.780695 0.66392654
-0.042219702 -0.08700598 -0.30889297
0.50337327 2.2621822 0.12568834
-0.5387848 2.7710075 0.19527252
0.13369179 2.1130936 0.3837937
-0.7281413 -0.4177543 -0.41945317
0.3974766 -0.41890585 -0.4049432
-0.07120113 -0.086251125 0.76082206
0.14728057 2.551961 0.8887651
-0.4902979 -0.08512436 0.04472971
0.538394 -0.42200756 -0.6868855
-0.39668685 -0.08401591 0.6493715
-0.020489683 2.9561021 0.12867299
-0.71761227 1.857791 -0.03108934
-0.44272757 -0.41626203 0.030655209
0.198116 1.9737034 -0.56642836
-0.68343925 1.8620017 -0.23255327
-0.10763691 3.2136517 -0.42465335
0.42580807 1.9149423 0.27964467
0.54414916 2.357019 -0.112801485
-0.0430412 -0.25061458 0.106683664
0.5824494 -0.08623876 0.53035975
0.07674907 2.161909 0.86493003
-0.69595003 -0.41354686 0.5978873
-0.2583893 2.266462 0.860035
0.5172416 2.7484233 -0.36779702
-0.8899298 -0.090607435 -0.7309612
0.89517987 2.4129367 0.16316652
-0.6042685 2.675735 0.35973614
0.17983018 2.8162088 -0.5983668
-0.08216144 -0.41393292 -0.31945688
-0.28776574 2.6287913 -0.63508224
-0.22863731 3.0969334 -0.5618263
0.5599866 2.3649194 0.5298639
-0.3968125 -0.08683519 -0.4209441
0.2606554 -0.18706952 0.9255855
-0.7699959 -0.24448684 -0.73653144
0.6825615 2.6338177 0.31647158
-0.44774428 2.7087495 -0.48796433
-0.3445211 2.4367933 0.22193149
-0.3221197 2.9440103 0.42705762
-0.31433004 2.0129817 -0.75170934
0.07576129 2.2627373 -0.35822934
0.06238763 2.4182475 0.76449513
-0.5998547 2.6607325 -0.31060225
-0.03210652 2.982493 0.7058475
-0.19546287 3.0808759 0.36717725
-0.013427118 1.8307662 -0.044854105
-0.07783045 3.3256185 -0.10153495
-0.07386364 2.8197389 -0.027550496
-0.0019223974 2.004698 -0.16998664
0.038354155 -0.08305004 0.05699089
-0.5578675 2.320259 0.7077985
0.18996018 2.281231 0.7108983
0.73170114 -0.41765738 0.22007737
0.4305873 -0.2554884 0.07701521
-0.89180267 2.1913295 -0.04110635
-0.51940876 1.9159676 -0.0096122045
0.17012861 1.8925152 -0.053324968
0.0686337 2.5767622 0.108766496
-0.40967315 -0.085764304 0.8866528
0.2725333 2.6832757 -0.13373601
-0.3484524 3.1832476 0.36778712
-0.48778394 2.2945538 -0.7553549
-0.24118413 1.979749 -0.24503586
-0.9238328 -0.25621182 0.86756647
-0.33972055 2.1137528 0.5999546
0.37004876 -0.41915697 0.4343547
-0.24906391 2.5970516 0.2744518
0.051519714 -0.41636276 -0.018956399
0.33359802 1.7243207 0.5110795
-0.46699858 2.3035388 0.12539883
0.19460058 -0.4146223 -0.4571585
-0.48203617 2.0153124 0.32353997
0.17966239 2.9349551 0.07525482
-0.017266251 2.098057 0.48963323
0.85240126 2.142177 -0.12941751
0.19387785 -0.08262685 -0.0827862
0.64474785 1.78702 -0.03091638
0.20622091 2.5089374 -0.66504425
0.37854445 1.9240847 -0.65760493
0.07557203 2.435604 0.5719327
-0.13102993 -0.41522086 0.068379
-0.18501705 -0.08469477 -0.18809316
-0.561705 2.1264849 0.65156627
-0.5387968 2.8819711 -0.56535757
0.8994801 -0.4090184 0.114170805
0.81250566 2.7532663 0.2618693
0.57316446 -0.41340643 0.73960924
0.050277825 2.9630423 -0.72193503
-0.25279868 -0.25208443 -0.5850624
0.5145669 2.70145 0.41121477
0.89631605 -0.4097829 0.5267844
0.27235454 3.0872283 0.17959847
0.35008472 -0.088093825 -0.90886617
-0.076752946 2.8202667 -0.8072375
0.14786558 -0.078444526 0.87645394
0.014240643 3.1517167 -0.017782558
-0.20135047 3.2609212 0.27340218
0.272345 3.1031842 0.53314614
0.60141313 2.9984593 0.3676018
-0.5680311 2.5302026 -0.4426853
-0.26524884 -0.087936275 -0.7486021
0.7188765 -0.086069316 0.8776113
-0.7207327 -0.08390419 -0.21220268
-0.44462144 -0.25246543 -0.6327677
-0.45347807 3.1972175 -0.13190353
0.6270445 2.5627074 -0.63931215
-0.6414139 2.338201 0.25320476
-0.33093625 2.4245777 -0.65720636
0.3578871 2.1218555 -0.5607411
-0.14245084 2.1232271 0.67542875
-0.33793998 2.0725627 -0.56696343
0.38086256 1.6130688 -0.16880459
0.8594999 2.2034693 0.20414957
-0.3479848 -0.4209243 0.35396636
-0.34125596 2.9516475 -0.65628684
0.1867819 2.3451295 0.8939699
0.7367952 -0.0843122 0.4238923
0.38018942 3.0272093 0.031132953
-0.9250015 -0.2540806 -0.4230844
0.43032503 2.968419 0.5795182
-0.20583162 1.7310835 0.5535774
-0.8828002 -0.41463926 0.5243008
0.5119028 2.4341116 -0.5171911
0.47703242 2.180482 0.5141357
-0.37672663 1.7049699 0.42320472
0.46391284 2.1243927 0.7282903
-0.16403675 -0.25615218 -0.76245546
-0.71504253 -0.26167387 -0.9253528
0.391219 2.6909556 0.20415603
-0.07861498 -0.24549952 0.6440474
-0.173416 -0.091275394 -0.91640496
-0.87228775 2.3972375 0.2706474
0.08243539 1.8692063 -0.25346234
0.57768464 -0.08846307 0.7451396
-0.032916766 2.2935123 -0.5131537
0.17623942 3.2770772 0.24722323
0.24532968 -0.41952014 0.6140119
-0.4747128 1.9357347 -0.6016105
-0.31236434 1.9882247 0.056456167
-0.58111537 3.075421 -0.23165444
0.03947858 -0.24701771 0.47427166
-0.65966994 2.4219778 0.6056242
-0.8019252 2.2233589 0.36041984
0.7492105 -0.25501603 -0.10008168
-0.25121918 2.6795626 -0.4389987
-0.059750564 2.5977812 0.2538104
0.7120762 -0.08686573 -0.39955467
-0.67607844 2.703456 -0.5224182
-0.8198358 2.0293322 0.056607664
0.5673044 -0.084710345 0.31707418
0.25326192 2.9225652 -0.45717
-0.113397315 2.904014 -0.20916608
-0.27695447 3.1012974 0.5417305
0.40598422 2.9303346 -0.30457127
-0.53171754 2.469739 0.40121916
0.28261954 1.7518268 0.038389537
-0.2314799 1.7357259 0.20523724
-0.43512416 2.2873526 0.53294766
-0.0834865 2.1485786 -0.27771455
0.31292045 -0.23781323 -0.7834394
-0.1630821 2.0947666 0.34578562
0.62473416 -0.27621305 0.068228155
0.6515022 -0.24936965 0.23996526
-0.40077198 2.9821038 -0.29089165
-0.15138933 2.9683423 -0.70937747
0.09485808 -0.41563916 -0.62606347
-0.17850962 2.3430605 -0.8932253
0.6438366 -0.24583879 -0.9183444
-0.66419214 1.9210043 0.34961116
-0.5954546 -0.26776484 0.28437954
0.57620704 -0.41531146 0.5200056
-0.15173717 2.4970167 0.094811566
0.30709523 2.6783998 -0.62558436
-0.01061287 2.261813 0.6502975
-0.7015701 2.5098238 0.28567904
-0.18905273 1.9853454 0.5248935
0.8960422 -0.09117542 0.72997177
-0.57184696 3.002737 -0.39880586
-0.57839084 -0.09154542 0.36641538
0.37744623 1.6650226 -0.34199208
0.29798046 2.636163 0.67512596
0.2528718 2.730024 0.82582444
0.67664945 2.413817 0.34298688
-0.17954624 2.0941486 -0.08246526
-0.13992542 2.1038513 0.13195671
-0.6236446 -0.24974653 0.4943538
0.14408389 2.159181 -0.21494284
0.91620564 -0.2515617 0.6395319
0.1555556 2.5806851 -0.87887096
0.40876013 -0.25225154 -0.29724863
-0.5773346 1.7241551 0.08022261
-0.4762677 -0.2624162 0.59528863
-0.36190462 1.9540694 0.46069974
0.9224995 -0.24953118 0.43329227
0.5987083 -0.25213468 0.6471658
-0.5600364 2.658565 0.011910386
0.5227957 2.4101443 0.24862102
0.84304047 2.3499289 0.34756982
0.12545475 1.7874626 0.33753103
-0.3993752 2.057973 -0.3552788
-0.7824242 -0.25521117 0.52361906
0.22684026 3.2544281 -0.28534222
-0.022666724 3.0763001 0.3297388
0.5391743 -0.08805627 -0.911075
0.19130063 1.8190465 0.6465917
0.099668756 -0.26128942 0.9230031
0.65250504 -0.08464829 -0.74360526
-0.0043313093 2.6088505 -0.29349416
-0.09525363 1.5127494 0.018472556
0.476812 2.6336546 -0.7468548
0.1457158 -0.08467975 -0.28682387
-0.7859937 -0.25534096 0.7197429
-0.73685825 -0.08302221 0.4277075
0.48933762 2.4429169 0.75234354
0.19342974 2.5974984 -0.29656398
0.0868683 2.6823387 0.31911802
-0.40880597 1.9801481 0.68991596
0.583881 -0.24595115 -0.2287558
-0.22479013 2.4592805 0.87880945
0.7682537 2.5005846 0.4855486
-0.59920233 2.1496854 0.28627622
-0.17011768 3.1815348 -0.03428206
-0.6192385 -0.40603054 0.9025923
0.21471095 -0.24757534 -0.37286103
-0.57897353 1.8823804 -0.43546683
-0.43066427 3.1657834 -0.3135165
0.78008777 -0.24898216 0.3352873
0.9135294 -0.24380365 -0.5975205
-0.15803388 -0.089471236 0.006537847
0.012981451 2.6230233 0.5347059
0.32743293 -0.08642179 -0.36299294
0.5776035 2.282872 0.6955439
0.54267216 2.8813033 0.06878279
-0.70616376 2.546235 0.05311118
-0.4000016 2.6134892 -0.7937019
0.89693844 -0.41013435 -0.09413687
0.68152833 1.9920032 0.44869792
-0.15547955 1.961601 -0.5600884
-0.38258833 1.8307432 0.29223844
-0.32489574 1.9387147 -0.4560502
0.04449963 -0.2550566 -0.35901812
0.71276057 2.1721697 -0.5247977
-0.5004033 2.3711267 -0.5447358
-0.071421295 2.5520191 0.7072825
-0.6818013 2.6808681 0.17145634
0.2714879 -0.0832271 -0.698226
-0.8945125 -0.40828094 -0.5247991
0.02449132 2.0423498 -0.6496527
-0.2951249 2.3080614 0.657959
-0.0359461 2.1142433 -0.4798547
0.8904408 -0.410495 0.730045
0.22607866 -0.08490236 0.11946911
-0.21946192 2.1295052 -0.42445898
0.056260265 2.9622679 -0.08144595
-0.44632855 -0.2517901 -0.27827615
0.89904916 -0.08995588 0.52727723
0.888081 -0.4023859 0.9053495
-0.060702935 2.630087 -0.0483106
-0.51773477 2.1315532 0.4692332
0.5726311 3.0400507 -0.33181766
0.2964878 -0.40308613 -0.918893
-0.3026324 2.917696 -0.12345055
-0.56217086 1.7495236 0.2732424
-0.37579954 2.271738 -0.40209216
-0.1595495 -0.41011786 -0.9091966
-0.18017483 2.93144 0.2776081
0.39699194 2.1358533 0.26891333
0.27755398 2.9336572 0.7011653
-0.36442155 -0.41641948 0.54644716
0.5525251 1.9705629 -0.29779953
0.19577421 -0.41394848 -0.7649454
-0.13774902 3.115475 0.1553424
-0.5323857 -0.08607325 -0.14081928
0.5383709 -0.10198241 0.91440976
0.73631406 1.8827635 0.11598615
0.53616214 -0.07400425 -0.13359469
-0.20991772 -0.25945008 0.7645825
-0.032371536 2.4658062 -0.9188019
0.1250722 -0.41938862 0.7509103
0.26766324 -0.24604475 0.008094537
-0.3185268 -0.41973376 0.15664802
0.23555577 1.7474091 -0.20163588
0.010495311 2.2604764 -0.89004266
0.23636201 -0.25803173 -0.62133527
-0.124434695 2.8376524 0.7962276
-0.0625804 3.1154532 0.5767781
-0.21479245 2.5912857 -0.8728968
-0.44671202 -0.2594524 0.4097605
-0.15861985 3.3131847 0.097391695
-0.12573928 -0.2595836 0.48200342
-0.3444093 2.2409573 -0.6307926
0.08554596 2.054686 0.16778323
0.23775227 -0.26417613 0.77156436
0.93095386 -0.24961804 -0.7842138
0.43844694 -0.25547743 -0.6245958
-0.3054011 -0.25428116 0.034599002
0.29920822 2.706483 -0.4320596
0.7208749 -0.40043315 -0.9204968
-0.7194275 2.921875 -0.23974514
0.081555165 3.12093 0.15659279
-0.37626383 1.8041115 0.09320049
0.17769067 3.066003 -0.6127844
-0.928306 -0.262065 0.42565304
0.4621092 -0.2485471 0.5264387
0.40845123 -0.25519443 0.35616812
-0.9163219 -0.10972893 0.17533875
-0.49218726 2.1096487 -0.706582
0.4102398 1.627044 0.16536306
0.3905631 1.8569012 -0.29602954
-0.3124615 -0.0871921 0.124918334
0.013267418 -0.084194586 -0.478492
0.6839988 2.217381 0.0052882982
-0.4070543 -0.24148181 0.7598911
-0.25250834 1.7419484 -0.20476514
-0.064113066 -0.25147626 0.29602355
-0.23609135 2.9028432 0.085885316
-0.43018594 2.3213053 -0.108013324
0.77126014 2.0145922 -0.27610075
0.9009087 -0.08827101 -0.49451324
-0.32958853 2.6198745 0.5065986
0.08913548 2.111189 0.6810232
-0.3258726 2.8117652 0.7617096
0.51466906 1.8484222 0.47331852
0.23768738 1.9762034 -0.22320612
-0.64251935 2.2662554 -0.63107544
-0.1767612 1.6649323 -0.49896312
0.3920581 -0.41969293 0.012531048
0.07417887 -0.40479714 -0.9129143
-0.15392801 2.6963842 -0.22034281
-0.7328427 2.22339 -0.057507075
0.3858632 1.8850479 0.61762846
0.015001305 -0.41321737 0.906402
-0.04331532 2.5304408 0.90345395
0.46908522 3.1603365 0.24932659
0.4002427 -0.084968686 0.21349466
-0.42693233 2.6277637 0.31744462
0.05700579 1.8600533 -0.71822226
-0.4653502 2.093687 0.12309791
-0.18622527 2.2993793 0.18871719
-0.08691596 1.6676989 -0.10505868
0.26778823 -0.090361476 0.72875506
-0.912593 2.3816013 0.04835639
0.4590196 2.6262488 0.7641758
-0.75160897 2.37747 0.11421943
-0.009818599 3.2792635 0.2761772
-0.73568475 -0.087155595 -0.905783
0.4124109 -0.41977578 -0.18639217
-0.10187477 1.8251288 -0.22726697
0.13513288 -0.25668615 0.61108196
0.893731 -0.08923482 -0.09813742
0.8880766 -0.08379686 -0.7103462
0.5619273 -0.41514194 -0.301372
-0.17863491 2.6831079 0.64861023
-0.48847604 2.4081275 -0.31066954
0.3350999 2.3392017 0.23949361
-0.29082683 -0.24782248 0.581465
-0.38613713 1.855238 -0.30192518
-0.40634695 1.7667319 -0.4944986
0.38944387 2.103465 -0.7617178
-0.63793474 2.056372 -0.5564878
0.5487878 2.0520399 0.36428332
-0.643015 3.0573199 -0.0695748
-0.093628675 2.7496943 0.43259656
-0.60918236 -0.096507534 0.17576945
-0.73447704 -0.08647066 0.79489326
0.49777454 -0.25031778 0.22380468
-0.024861779 1.5174189 -0.18364331
0.1939531 1.8243021 -0.4009781
0.20142484 2.1769118 -0.85948765
-0.026755538 3.1108515 -0.59244514
0.7259356 2.6827426 0.49225155
0.32442695 1.9691193 -0.43087173
-0.35771745 -0.08671312 -0.25197572
-0.8356955 2.730398 0.22967967
0.15103923 2.2474074 0.5261531
-0.10446592 1.7818801 -0.6329368
-0.4094319 1.6293552 -0.18587035
-0.83427113 2.3604827 -0.34294036
-0.56810224 2.0724316 -0.3895803
-0.4148067 2.9482296 0.61357963
-0.19473398 1.9018543 -0.06373413
-0.11740894 3.2193942 0.43893
-0.9247258 -0.25471985 -0.21381915
0.56853884 -0.40789592 -0.08318701
-0.86856663 2.5490732 -0.24883609
0.8564036 -0.25118774 -0.9298489
0.47235984 2.6298733 -0.5178782
-0.20676093 1.8127197 -0.40868795
-0.39318955 2.048858 -0.11572327
-0.33043528 2.1783457 0.2170203
-0.12236291 2.4762626 -0.14494666
0.05710604 1.6901007 -0.22917137
0.5683842 2.5341172 0.44508004
0.7523658 -0.2502591 0.5380603
0.8923497 -0.4095312 -0.6899133
-0.054442078 2.4385712 -0.37728435
-0.38910878 1.8298949 -0.10740784
0.36875564 2.9904404 -0.609458
0.40855223 -0.25604525 -0.11318204
0.4092462 3.1735044 -0.30516946
-0.23402277 1.6177591 0.35785636
-0.23275009 -0.085907176 0.51302075
0.22451362 -0.41315114 -0.09755656
0.110387824 1.5121222 -0.04135724
0.6472002 2.1391003 0.19790827
0.35181853 3.253576 -0.09789036
-0.898268 2.361646 -0.15672377
-0.02258402 -0.09804449 0.9145058
0.8964516 2.2739568 0.00821964
-0.01688182 2.0063238 0.025269695
-0.24392146 -0.087258756 0.7136586
0.37832814 1.8219256 -0.107729234
-0.31772363 3.080426 0.041227467
0.34855884 2.0172586 -0.05505713
0.18809718 -0.2456487 -0.9277328
0.08515971 2.4397554 -0.22269924
-0.22689116 3.2734714 -0.23668796
0.56896675 -0.08627011 -0.54619956
-0.34023875 2.799806 0.20861074
0.44316834 3.0544147 -0.45959604
0.58764076 2.5550585 -0.37639832
0.89950776 -0.0880871 0.10457526
0.5760013 2.2428513 0.350366
0.5839342 1.951987 0.18976736
-0.37145177 1.8260233 0.58480847
0.22217548 3.0430322 -0.3304401
-0.42489278 -0.4103059 0.8943274
0.10621442 2.7901669 0.46143615
-0.73463094 -0.25319612 0.91416043
0.3687638 2.299591 -0.8248471
0.56267035 -0.24739026 -0.42950422
0.69198954 2.4617581 -0.22456917
0.57429683 2.9141219 -0.50420517
0.3453345 2.8729396 0.1884506
-0.8406274 2.1880996 -0.2547424
-0.8099705 2.0174797 -0.14983843
0.3874054 -0.41172677 -0.7703066
-0.66244 2.1350563 -0.23783404
0.6978616 2.838907 0.39084166
0.726753 -0.4181239 -0.19493577
0.7211863 2.9239023 0.20515008
0.73730195 -0.08529331 0.6470865
-0.61628413 -0.25170925 -0.6099735
0.022443362 2.4223661 -0.014248006
-0.25377467 -0.41540384 -0.25372446
-0.41170022 1.6347061 0.21853876
0.20062974 -0.087811895 -0.5000752
0.121563844 1.9533975 0.77952904
0.098517545 3.1968536 -0.44843808
0.44500172 2.4235067 -0.27085018
-0.6621367 -0.08352715 -0.74387836
0.15435737 3.073205 0.34576136
-0.5733229 1.7307861 -0.1137964
0.32096535 -0.25059903 0.610338
0.00748006 3.283235 -0.28172007
-0.34028167 2.1341414 0.40553147
-0.33532876 3.0330706 0.23528114
0.89954853 -0.40913868 0.3196504
0.20942786 2.53007 0.262753
0.036554784 -0.24221504 0.7720617
-0.78687114 2.722681 -0.33015838
-0.5330088 2.5170367 -0.15535973
-0.52398705 2.6075735 0.5272203
0.21071683 2.1849823 0.21803558
0.6410208 2.1554122 -0.35337332
0.56916445 -0.20611845 -0.0544753
-0.71281254 1.8641734 0.16483893
-0.614035 2.2894988 -0.39202285
-0.31494957 2.1979327 0.017914448
-0.28213984 3.1793199 -0.39765492
-0.84346914 2.7496536 -0.15284199
0.1656478 2.3032281 -0.08181363
0.6723171 3.009494 -0.18363196
-0.9328164 -0.25759274 0.6335963
0.4911967 -0.4160121 0.90421
0.7024425 2.5839198 -0.043147337
0.15892124 2.898531 0.2691117
-0.34029675 -0.086011715 -0.06723343
0.019005597 2.7129245 0.8541297
-0.7713605 2.9118688 -0.039005965
0.045661334 2.4937198 0.38892075
-0.21913084 2.3100545 -0.519204
0.0678466 -0.08773878 0.24911329
0.102516204 1.9124063 0.46507603
-0.13222161 -0.4162964 -0.610222
0.25706428 2.9080906 0.49069232
0.89724374 -0.4083403 -0.49452972
0.18204701 2.790513 0.6265652
-0.446696 2.4926934 0.005682883
0.37721825 2.7415476 0.5360402
-0.20593718 1.850518 0.37325794
0.0891294 1.8648505 0.14158294
0.43979135 2.7606964 -0.16314313
0.735268 -0.42031205 0.014689819
-0.008792294 1.9570744 0.6208853
0.06843144 2.9721887 0.50021017
-0.27381533 2.7635095 0.3810558
-0.028697765 2.6520538 -0.8755324
-0.32132655 2.208957 -0.8212192
0.1309279 3.0523372 0.6449636
0.5506276 1.7916372 -0.38240373
0.89484507 -0.41009474 -0.2969271
-0.5723517 -0.41627964 -0.30968916
-0.050685715 1.7487305 0.28718132
0.021993551 -0.09230319 -0.9179009
0.5668516 2.4541574 0.048832897
0.09723146 3.2037873 0.46009648
-0.73897576 2.005402 -0.3555208
-0.18590653 -0.41404736 0.62446177
0.5601816 2.799016 0.24117456
0.21159153 2.6068032 0.49242756
-0.4228145 1.6171637 0.0068887514
0.5345908 2.234858 -0.5176424
0.012150187 2.399676 0.19780043
0.7612406 -0.24218988 -0.7447618
-0.13582028 3.0052447 -0.038786337
-0.32672927 -0.41572708 0.7369307
-0.07596968 -0.41443276 0.75781715
-0.61520046 -0.2543715 0.7239144
-0.14441536 2.3135767 -0.7079078
-0.26551557 -0.25715083 -0.9238378
0.7271749 -0.41506448 -0.5900303
-0.6050243 -0.251559 -0.4142199
0.7738112 2.0130248 0.26355237
-0.13804205 -0.0861679 -0.594161
-0.01385055 2.8083773 -0.6002641
0.6734574 1.9809558 -0.4461494
-0.37000525 2.6252728 0.10284352
-0.18395919 2.3233886 -0.33367223
-0.55891347 -0.09131423 -0.91241944
0.24997899 2.421771 0.46282774
-0.8687076 2.2121465 0.16549163
-0.27975792 -0.24914792 -0.3715028
0.5246265 -0.41102087 -0.9014503
0.3591727 -0.25514776 -0.4737627
-0.7049136 -0.41853246 -0.79073167
-0.31790602 -0.25587088 0.9220325
0.38552743 -0.4179244 0.22128522
-0.007400413 2.1781192 -0.07422194
0.030306673 1.8953222 -0.51018894
0.8046812 2.8448825 0.054395154
0.7046404 -0.41834164 0.8778485
0.49002677 1.6585112 -0.009164465
-0.55564654 -0.08727491 -0.32790214
0.63707805 2.0950613 -0.15928206
0.52962184 3.1413174 -0.1516177
-0.100468144 2.6478724 -0.6866332
0.63862073 1.8448892 0.3188666
0.070563175 2.9590945 -0.49101955
0.8942367 -0.40782696 -0.88219
0.55610704 2.0548348 -0.62279654
-0.78857887 2.0486522 0.25983083
0.42711794 2.3680072 0.40814203
0.53952795 -0.25417376 -0.7804251
-0.37042332 -0.088955574 -0.91077304
-0.12846026 1.9415877 -0.7638284
-0.052926518 1.8342493 0.47439706
-0.2064718 -0.24767551 0.17712106
-0.25525135 2.7529726 -0.072576195
-0.063807905 1.977295 0.80004764
0.1473089 2.331511 0.32146108
0.29017723 1.8520406 0.42720753
-0.9235044 -0.2521267 0.00869403
-0.024422836 1.7591364 -0.39250976
0.10335056 2.872471 0.783568
-0.8316803 2.7367096 0.036094192
0.38131142 2.4935951 -0.6434897
-0.11212273 2.2931743 0.029942898
-0.6417512 2.3193903 -0.19633713
0.5805559 2.859633 0.5451547
-0.05911408 1.6371918 0.46402058
-0.5214202 -0.41985208 0.7048222
0.7060026 2.320907 0.1717624
-0.28604802 3.098457 -0.17539145
-0.639675 2.0354342 -0.079530075
-0.1874178 2.6829705 0.08699671
0.49255472 2.2289674 -0.26648247
0.9013774 -0.088860616 0.316491
0.2513383 -0.25070632 0.43887943
0.24839681 2.3602388 -0.30147272
-0.5588844 1.9604719 0.5502591
0.13132915 3.3085287 -0.11752023
-0.016383566 1.7787333 0.6603367
0.051994413 1.695826 -0.55539286
0.4974599 2.6682992 0.033255003
0.3100219 2.1429334 0.620334
0.6223886 -0.25320435 -0.62000597
