0.585589 2.5250454 0.6241826
0.44815657 1.6917369 0.07490046
0.4503039 2.709168 0.38502872
0.7502316 -0.2515694 0.75686693
0.37542063 2.166758 0.6066489
-0.611389 2.1499362 0.44099367
0.004811841 1.4211941 -0.38268512
0.6462177 2.3399625 0.64030564
0.28560865 2.986515 -0.47188127
0.7804171 -0.249201 0.93543255
0.46307176 -0.0856338 -0.7280834
0.00606183 -0.4168296 -0.4690186
0.022355609 2.606959 0.13614836
-0.75015175 2.2739418 -0.09448263
0.2868082 2.5849264 0.3553056
0.1004491 -0.24629879 -0.5293666
0.29270065 1.6282911 0.22223464
-0.33734852 -0.08583666 -0.5828626
0.104993105 1.8691394 -0.36785358
-0.90501535 -0.09636793 0.7330859
0.4578785 2.921404 0.43242425
-0.6109532 2.694075 0.027532663
-0.4747737 -0.25270367 -0.9256078
0.42911527 -0.0826095 0.6447931
0.2100536 1.6246024 -0.6181036
0.8599155 2.5346227 -0.07625514
0.87432045 2.3808122 -0.18720543
-0.2899354 2.2426815 0.023252562
-0.21394767 2.843575 -0.3483354
0.18354532 1.3933706 -0.23115984
-0.4419906 2.545971 -0.14403544
-0.7597449 2.0295334 -0.4461494
0.0029471642 -0.08602904 -0.12800768
-0.7490827 2.7328296 0.17063175
-0.7240975 -0.08483645 -0.42024162
0.3179766 2.3333807 -0.4541366
-0.58989155 -0.4158584 -0.10494244
-0.38436592 2.5111718 0.6655068
0.096231274 2.6090577 -0.40471795
-0.29926103 2.026288 -0.22813156
-0.055938017 2.4794543 -0.48534718
-0.2589271 2.3476334 0.6706227
-0.75533736 -0.07826211 0.21931638
0.21250695 1.8098123 -0.7671895
-0.05741334 -0.088524476 -0.76272917
0.7568486 -0.250569 -0.4957473
-0.5626272 2.4099078 0.71283853
0.59508324 2.5878766 -0.60354507
-0.105060995 -0.24748054 -0.46193105
-0.16317882 2.3257368 -0.74055195
-0.112912014 -0.0816412 0.18846864
-0.7858377 2.4018254 -0.43981162
0.37515998 2.1965547 -0.00277687
0.13433826 2.6044984 -0.01954782
0.19750324 2.1701536 -0.5292225
0.9250188 -0.24842818 0.0033985786
0.03532113 1.8937953 -0.8338349
0.8193705 2.0140529 -0.33334625
0.6884615 2.8447766 -0.007465273
-0.25576842 1.3870628 -0.10888393
-0.44354415 2.6195335 0.4820637
-0.12916875 -0.24575746 -0.26318365
0.85272527 2.3918712 0.30687404
-0.7185359 -0.4202526 0.77697134
0.32766932 2.3484805 0.8459446
-0.49999002 -0.4192445 -0.72969174
-0.7457665 2.2217393 -0.5069196
0.12150071 1.5304054 0.17186353
0.26557004 1.9815941 0.82736546
-0.561851 -0.08552807 0.55360335
0.7524923 -0.08834988 -0.59159565
0.82402253 2.363125 -0.3600648
-0.12610158 2.792471 -0.51356876
0.28933018 1.3995187 -0.020886384
-0.0303158 -0.41437334 -0.7677491
0.73437375 -0.41800228 0.64545625
-0.14710973 1.9709971 -0.8465948
-0.49852848 2.0164356 -0.5157591
-0.022650978 2.1373448 0.4277226
0.56571543 -0.08480449 0.105089866
0.21119502 -0.41656175 0.29321736
-0.35530195 -0.41764343 -0.58576417
-0.3776334 2.442524 0.81566286
0.116819575 2.629243 -0.8230748
-0.89171445 -0.09851698 -0.91151935
-0.786503 2.2485776 0.45069855
0.092320755 -0.42075115 -0.25373876
0.38582775 2.337379 0.14007166
0.45890337 1.5534847 0.33658904
-0.061460815 -0.08252554 0.5724319
0.11431547 2.957666 -0.20090452
0.1114314 2.4137807 -0.09755193
-0.76184475 -0.24077545 0.3252914
-0.50588155 2.972124 0.25068262
0.4146975 2.3747802 -0.076019675
-0.52395225 1.6674633 0.44655603
-0.87143517 -0.0838899 0.02343012
-0.53321683 2.0219707 -0.038501203
0.7380283 2.3360453 -0.5132205
-0.20967804 2.6360393 -0.59581584
-0.21686405 2.8197322 0.6806847
-0.34689528 3.0799932 0.15865985
0.5425596 2.0630112 -0.70819473
0.3246066 2.8350482 0.33846217
0.6746961 2.1839185 -0.6068276
-0.40175867 -0.08892523 0.45036933
-0.6209589 -0.092318654 0.9181087
0.41411686 -0.08362307 0.43266532
0.6019565 -0.26362652 0.90262127
0.92239773 -0.2467652 -0.3945374
-0.8966328 -0.4080028 0.108407214
0.74414515 2.2273955 -0.036503177
0.9200412 -0.24749844 -0.19636658
0.50515145 1.7329972 -0.52517956
-0.53270847 -0.42026561 0.47523665
-0.17605913 1.4298916 -0.2998708
-0.70465595 -0.41512161 0.4006818
-0.13794258 1.7319747 0.14201722
-0.34512776 2.3158264 -0.44497806
-0.8989722 2.4078245 -0.045318574
0.008728601 -0.4163512 0.58170784
0.11046006 1.5270245 -0.03262807
-0.69247854 -0.078974485 -0.012138328
-0.71487296 -0.41697806 -0.62272716
0.029793132 2.0748212 -0.6909351
-0.8961426 -0.40717202 0.72287285
-0.90307224 -0.09254436 -0.52819824
-0.6121781 -0.25135678 -0.2113713
-0.34819907 2.2607994 -0.84233886
0.4293666 -0.25423092 -0.9249493
-0.58656275 2.7477505 0.499398
0.002976262 -0.41732383 0.37648916
-0.26152793 1.9033996 0.7993689
0.33976603 2.336062 -0.83762556
0.40819398 2.6681783 -0.5044232
-0.51780117 2.730699 -0.16589028
-0.5222175 -0.24472761 0.91519034
-0.4935626 -0.25373322 0.11874938
0.6162834 2.1885371 -0.37696546
-0.00057393534 2.723548 0.32542393
-0.0636089 1.5354997 0.09693664
0.079957485 1.4164011 0.33720875
-0.26650143 -0.4184323 -0.7495562
0.40480807 -0.269485 0.9255202
-0.25316876 2.659491 0.5716206
0.39707106 -0.084825866 -0.53488636
-0.17154667 2.3327727 -0.5354131
0.8298936 1.9032539 0.064368576
-0.47642612 2.7211103 0.328112
0.3770554 -0.07703732 0.87680995
-0.098472014 2.0061278 0.8617983
0.2639935 2.6431208 -0.28476983
0.30910105 3.0431714 0.35354918
-0.36099806 -0.2537241 -0.77330136
0.7381508 -0.08184193 0.21275455
0.26919323 2.300198 -0.14021438
0.38247597 2.142654 0.8131518
-0.4746421 2.8985367 0.44240302
0.55827713 -0.4233139 0.12518056
-0.7124034 2.4067965 0.53140116
-0.15046674 2.418172 0.45748687
-0.034906566 -0.24955782 -0.6361226
-0.5481348 -0.0853059 0.74751973
0.7846451 2.69837 -0.15662232
0.16505553 1.9280869 -0.0324449
0.9096674 2.3167472 -0.020373631
0.52405584 1.7672739 -0.10685905
0.58456314 2.6924467 -0.24277562
-0.08602871 2.9586492 -0.20782652
0.36184335 1.6014903 -0.506296
-0.08854543 -0.4170764 -0.13855095
-0.7434311 -0.41572288 -0.21543682
-0.26890466 -0.4168384 -0.058334097
-0.28862715 1.8230515 0.24627027
0.90471166 -0.089247786 -0.8972994
-0.37715435 -0.41040885 -0.90200865
0.12017332 -0.2548039 0.31824917
-0.8956711 -0.09182406 -0.33147275
-0.02726188 2.1512847 -0.1948731
-0.20622548 1.7253232 0.7005482
-0.67253506 2.0438051 0.1212064
0.031841993 3.1632173 0.0829377
-0.097646385 2.6556377 -0.38402253
0.9272497 -0.24696615 0.21898933
0.16379184 -0.41438013 0.46648216
-0.039288253 -0.25623745 -0.9155322
-0.91564333 -0.2601682 -0.8718049
-0.16011259 -0.41486937 0.26127014
-0.7048017 1.9179466 0.4640339
0.029880198 2.2848654 -0.7633973
-0.25398982 2.6197834 -0.7960601
0.7002517 2.1046066 -0.20012271
-0.34542608 1.4932561 -0.35837275
0.63558227 2.6185806 -0.070695825
0.4485494 -0.23969662 0.7582631
-0.017783273 2.6404996 0.6296282
-0.41201118 2.896167 -0.49829906
-0.11763924 -0.25197315 -0.061066635
0.73615247 2.1551223 0.5301665
-0.26501077 1.3948982 0.12286048
-0.17716838 -0.42115283 0.4494369
0.25644737 -0.08421965 0.539968
-0.2892301 2.4136376 -0.09738152
-0.30398446 2.6391659 -0.28229237
-0.50161755 2.6597276 -0.34208372
-0.41258305 2.2484808 0.80878407
0.31604654 1.8247738 0.7346623
-0.5497397 -0.08489379 -0.5466401
0.09196295 -0.08299911 -0.66691864
0.19845484 2.2395935 0.09328115
-0.8133334 2.4556642 0.37816936
0.3703711 2.1392393 -0.6298828
-0.7010312 2.0818322 0.5669833
-0.45239103 2.4009488 -0.59065455
-0.12851366 2.2564807 0.5443142
0.04205375 -0.26088873 -0.18677491
-0.7711183 -0.24238664 -0.103807196
-0.016433438 2.8937287 -0.36582696
-0.32600462 2.2635117 -0.22225738
0.25307673 2.2999868 0.675881
-0.25846398 -0.25348982 0.37987798
-0.51146054 1.7498667 0.18350083
-0.5354979 2.3559859 0.18564877
0.2284238 1.3889478 0.16048649
-0.13174906 2.612267 0.23210257
-0.9025614 -0.40423363 -0.10866451
-0.58537054 -0.40588772 -0.91549194
0.52826214 1.8390586 0.6023885
0.08892277 2.4916523 -0.696198
0.25466636 2.7378502 -0.7374085
0.43745464 2.6592455 -0.69304353
0.059712052 2.5995522 -0.19442776
0.3551944 -0.08495684 -0.18783885
-0.51441085 -0.4222632 0.26317364
0.0986162 -0.08342321 0.45290625
0.044197492 1.3603528 0.14122829
0.884779 2.1815305 -0.20646822
0.67217106 1.6846453 -0.23348567
0.7388004 -0.0860992 -0.90460694
-0.43145782 -0.2561947 -0.47519732
0.21198179 3.1370695 0.053027865
0.094683915 -0.24246362 -0.032099586
-0.21535774 -0.41459346 -0.45253718
0.4030052 1.8960212 -0.22907597
0.380282 2.3939552 0.35702395
0.3363555 -0.421608 -0.59219134
-0.29655877 1.6774156 -0.63545144
-0.5017448 3.0159552 0.052742846
0.4329981 -0.41275638 0.6209084
0.5259478 2.9949772 0.02665488
-0.08171727 -0.08624573 0.38195124
0.38284346 2.1370063 -0.4272047
-0.308002 3.1231494 -0.041269444
0.2404982 -0.40130773 0.91433537
-0.20377067 -0.082635485 -0.4088559
-0.10563316 1.3905989 0.24964899
0.14599772 1.9947658 -0.51103187
0.3908564 2.439706 -0.29262012
-0.646152 2.6108007 -0.14728504
-0.28398186 -0.25178528 -0.16479947
0.82728076 2.5514293 -0.29048038
0.5467566 -0.4133944 -0.5061957
-0.44861925 2.1373615 0.32572985
0.11752494 2.3020315 -0.42429954
-0.3769275 -0.2599675 0.2375702
-0.44139755 -0.088092394 0.25130314
-0.20227033 2.3815312 -0.319286
0.896042 -0.09542164 0.90785587
-0.09396981 1.806288 -0.3630095
0.93127316 -0.24955355 0.85352635
0.08563694 2.762794 -0.27931726
0.21796621 -0.4160904 0.098686285
-0.12752235 2.196397 0.74206954
0.36903423 3.0821767 0.11737873
0.19255349 1.4806892 -0.42691988
0.6789759 2.5108447 -0.24321443
-0.48878664 2.0381045 -0.24221082
0.43049088 2.6489244 0.7033231
0.7361312 -0.41644177 0.42397076
-0.56579757 2.521297 -0.6721431
0.52497053 -0.08271593 -0.33658078
-0.534552 2.309505 -0.73879695
0.72423327 -0.41626438 -0.3974517
-0.89697164 -0.093101814 -0.14284244
0.76942456 1.7797408 -0.08367012
-0.8668899 -0.09503685 0.9135785
-0.88073826 2.4034486 0.1624327
-0.20637187 2.1378694 -0.12653041
0.2709001 1.8126804 0.11816932
-0.24119471 1.561793 0.003165163
0.3340612 2.9152677 -0.17004174
0.2915458 -0.25006914 0.21527779
0.069829345 2.074877 0.093557894
-0.18537475 2.0611186 0.5250725
-0.10789197 -0.2604729 0.9195465
0.52346516 2.2567518 -0.7461792
0.7188487 2.5317192 -0.47103462
-0.119678766 2.7799866 0.49476087
0.20955749 2.5671878 0.16377608
-0.18986416 2.504252 0.8500496
0.2653421 2.4331956 0.039863415
-0.16478044 1.9763895 -0.6471447
-0.53547764 1.5847511 -0.30351877
-0.75218016 -0.4136088 -0.0047066454
0.11287445 2.4631784 0.70079136
0.7163112 -0.08500059 -0.20522308
0.72432196 -0.08304185 -0.0006004579
0.4869998 2.788873 -0.107856214
0.70561016 -0.41498506 -0.76568127
0.30158773 2.0335958 0.059727393
0.2523471 2.751913 -0.12991172
0.53096426 1.5548368 -0.19776668
-0.4655177 -0.084350824 -0.73407304
0.5743857 1.5742704 0.16357175
0.27704376 1.9961326 -0.35884404
0.70972407 2.7052846 -0.3669132
-0.4749846 2.802779 0.13791442
-0.76468635 -0.24865842 -0.31785208
-0.42309558 -0.4167946 -0.1828406
0.76915467 2.00517 0.38946825
0.35211778 2.6425781 0.009690391
0.17410234 2.2208266 -0.8991459
-0.7717115 -0.25375623 -0.5245291
-0.33210966 2.719019 -0.46813858
0.26645654 -0.4117618 -0.28340018
-0.64129 1.8673834 0.12761228
-0.6857053 2.3216934 -0.29372084
0.42463523 2.372486 0.5649082
0.099119276 -0.24168739 -0.7670871
0.24835043 -0.0870585 0.32665378
-0.14022914 2.2733922 0.32036602
-0.59475386 2.2220182 0.008351635
-0.89008737 -0.4120584 0.32609063
-0.8572709 -0.40485853 0.90817666
-0.72118723 2.664117 0.36562425
0.35310423 -0.4180004 0.7806439
0.6545453 1.9868413 0.56662846
-0.57681406 -0.25170463 -0.7868606
0.23159051 -0.24208145 -0.19003241
-0.8946304 -0.40498465 -0.7329811
-0.41976583 2.6320288 -0.69710803
-0.24167624 2.1312215 0.37120095
0.6252301 2.9070477 0.16195099
0.5498492 2.4183536 -0.16657221
-0.6133121 -0.24366504 -0.014433524
0.7262722 2.3475013 0.14849982
-0.8973384 -0.40741974 -0.32321787
0.8026264 2.1757388 -0.41608268
0.27036655 1.465805 0.34662956
-0.6491498 2.8865914 0.116162986
-0.7331344 -0.4152947 0.21552569
-0.4169805 2.033386 0.7752487
-0.7400006 -0.08588663 -0.6021172
-0.21098253 -0.41274017 0.9001987
-0.6679369 2.575262 0.54201114
0.8799784 2.4681334 0.10966987
-0.74450856 -0.24360101 0.11614607
-0.027950108 1.8047268 0.30731705
-0.45598722 2.852922 -0.056412324
-0.53410006 1.8004377 -0.21967776
0.21090376 1.9882617 -0.6814922
0.19531114 2.1765757 -0.723585
0.29588675 2.54101 -0.81112266
-0.5471884 -0.41688237 -0.52596927
-0.43966645 2.3005748 0.60848355
-0.26077923 -0.08592135 0.31195313
-0.9020928 -0.09583877 0.3514704
0.09766041 -0.084253296 0.67050195
-0.4499737 -0.25146985 -0.08609675
-0.67820495 2.6949475 -0.41763636
0.45364225 1.8988519 0.10720648
0.39001033 -0.0828294 0.007249562
0.12456933 1.526134 0.51512873
0.7850846 -0.24302375 0.11124726
0.48748296 2.005119 -0.05905606
0.18681675 -0.07841453 -0.87811375
-0.4123007 2.6556785 0.019689037
0.6053797 -0.24737516 0.4215185
0.3028722 2.0521998 0.41500163
0.47761482 2.8243527 0.21004236
0.12574497 -0.252322 0.14447138
0.6830182 2.545303 0.10959695
0.54739964 2.4250731 0.2156876
0.014434495 2.3012311 -0.592124
-0.022848304 2.041173 0.26820236
-0.3989815 -0.41856638 -0.38790137
-0.7266629 -0.09009455 0.622795
0.55376923 -0.41596025 0.3296834
-0.90015626 -0.093765676 0.5410414
-0.63324463 2.8291674 0.30821937
0.03303889 -0.41682893 0.18619621
-0.66754335 2.348368 -0.61311036
0.7516898 -0.2517295 -0.30362323
0.36814308 1.8631775 0.45293465
-0.028230589 2.180606 0.9122288
-0.91855836 -0.27041957 0.22143097
-0.21847984 -0.09287682 0.9021936
0.14022294 2.4600325 -0.51181865
-0.8493575 -0.40635782 -0.9147085
0.3264656 2.072905 -0.15864502
0.22085406 1.819725 0.29979187
-0.60239005 -0.41069204 0.09890731
0.47255918 1.9177811 -0.42393368
0.2120341 2.954966 -0.0220294
-0.39660853 2.4506862 -0.3020497
-0.9255756 -0.24722378 -0.64485776
0.8959658 -0.087119445 -0.29398012
0.62676895 1.8588964 0.024304837
-0.7097868 2.4533777 -0.13060795
-0.3222567 2.28337 0.4424523
0.20223969 1.8544896 0.5577824
-0.517365 2.6184745 0.6698588
-0.038926855 -0.08628857 -0.31049985
0.50353533 2.1000924 0.122006394
-0.53627217 2.6128035 0.19526613
0.12919188 1.9534465 0.38305992
-0.72872984 -0.41730636 -0.4247982
0.39972797 -0.41841596 -0.40207455
-0.070766464 -0.08468956 0.7606415
0.15090284 2.3948953 0.88767874
-0.48491406 -0.08454107 0.03988973
0.5429059 -0.42151135 -0.68461144
-0.39706755 -0.08295596 0.64864767
-0.017545156 2.796218 0.12813073
-0.7214223 1.7024612 -0.026245352
-0.44152886 -0.41626525 0.02509648
0.1934531 1.8111033 -0.5656503
-0.6890104 1.7065794 -0.22766599
-0.10317469 3.053754 -0.4253013
0.42272255 1.7537551 0.27953875
0.5426732 2.1928763 -0.1148886
-0.043572024 -0.24973634 0.10533206
0.58526254 -0.08502862 0.5334617
0.080712885 2.005053 0.8652429
-0.69380033 -0.41285425 0.59910023
-0.25561267 2.1104279 0.86179805
0.51864433 2.5841122 -0.37014788
-0.8885597 -0.08884545 -0.7341391
0.89572537 2.2451253 0.16014051
-0.60238385 2.518373 0.36074394
0.18407924 2.6551454 -0.598655
-0.08124165 -0.41365921 -0.32151827
-0.2871226 2.4693847 -0.6348626
-0.22441617 2.9373245 -0.5626658
0.5618609 2.2043064 0.5260671
-0.39783603 -0.08557311 -0.4237498
0.25992 -0.18467245 0.9297832
-0.76881766 -0.24294925 -0.7405757
0.6859064 2.470943 0.3123725
-0.44700652 2.5503662 -0.48805875
-0.34516597 2.2787395 0.22335842
-0.31983706 2.7853875 0.4268968
-0.3195123 1.8533322 -0.7494663
0.072015025 2.1018338 -0.3592748
0.06613934 2.2598672 0.7646431
-0.5990498 2.5036826 -0.3103448
-0.028793758 2.8235934 0.70512366
-0.19253796 2.9220457 0.3668474
-0.018405346 1.6712139 -0.044333786
-0.07398155 3.1657772 -0.10178806
-0.0717932 2.6605287 -0.028930884
-0.0063113756 1.8451304 -0.16887619
0.040191352 -0.081843615 0.057210535
-0.55434436 2.1643147 0.7115848
0.19355315 2.1230736 0.7099283
0.73472846 -0.41709715 0.21996109
0.43338007 -0.25490916 0.07749927
-0.89310896 2.0356755 -0.037320968
-0.52351135 1.7591951 -0.005816431
0.16582666 1.732079 -0.051887937
0.06924477 2.416703 0.107786946
-0.4091717 -0.084297016 0.88743734
0.27266094 2.5221078 -0.13561204
-0.34510785 3.0246258 0.3678273
-0.49056998 2.1353726 -0.7539845
-0.24514258 1.8211163 -0.24266675
-0.9222471 -0.25485164 0.8708415
-0.33838785 1.9565603 0.6028208
0.37150377 -0.41885075 0.43543088
-0.24694881 2.4379396 0.27402198
0.05072608 -0.41605866 -0.018868655
0.32962018 1.561249 0.5094379
-0.467244 2.1456637 0.12749252
0.19676915 -0.41404432 -0.4558736
-0.48321256 1.8581522 0.3257112
0.18217127 2.7742906 0.073608816
-0.017982243 1.9386876 0.49173343
0.8490411 1.9729917 -0.13115245
0.19564989 -0.08157714 -0.081210695
0.63861424 1.6203859 -0.031069152
0.20461556 2.346872 -0.66595423
0.37299424 1.7589417 -0.65724516
0.0781479 2.2763314 0.57180744
-0.13237867 -0.4146731 0.06755075
-0.18320957 -0.08367579 -0.19166851
-0.55973625 1.9704165 0.6550424
-0.53580177 2.7238574 -0.56675327
0.90298575 -0.40729833 0.115153514
0.81659853 2.588057 0.25706947
0.5733051 -0.41263235 0.74387866
0.054054223 2.8021111 -0.72209
-0.25022823 -0.25183344 -0.5869514
0.5181787 2.5399303 0.40800524
0.8993715 -0.4084398 0.5283121
0.27579236 2.926381 0.17770052
0.35683548 -0.08696158 -0.9079813
-0.07308969 2.6609936 -0.8066342
0.14650288 -0.07707446 0.8774203
0.017292663 2.9918947 -0.018191867
-0.19794992 3.101797 0.27292988
0.27723455 2.9428015 0.531045
0.60699224 2.835697 0.36166796
-0.56808364 2.3724246 -0.44204125
-0.25944537 -0.08695302 -0.7484067
0.72124517 -0.08484091 0.8788554
-0.72103894 -0.08263603 -0.21565285
-0.44458064 -0.2505952 -0.63628066
-0.4502648 3.0387337 -0.13269423
0.62720895 2.3964965 -0.64015955
-0.6408678 2.1816845 0.25588804
-0.33190957 2.2652383 -0.65663457
0.3534734 1.9566591 -0.5607492
-0.13961647 1.9652146 0.6774055
-0.34204146 1.9138948 -0.56446743
0.37179935 1.4489148 -0.1673736
0.8578683 2.0359678 0.2022703
-0.34823427 -0.42013714 0.3542354
-0.33744636 2.7917771 -0.6577155
0.18996266 2.1880991 0.89368224
0.7399358 -0.08342795 0.42666805
0.38280058 2.8652244 0.0286033
-0.9249671 -0.25307631 -0.42802858
0.43398207 2.8071938 0.57703847
-0.20609671 1.5727766 0.55645394
-0.8821591 -0.4140456 0.52610135
0.5103424 2.268734 -0.5178282
0.47755408 2.019938 0.5114249
-0.37842727 1.5472687 0.42743415
0.46654594 1.9717191 0.7288083
-0.15851465 -0.25531155 -0.7629278
-0.71348256 -0.26039553 -0.9257772
0.39371884 2.5295923 0.20157596
-0.07951131 -0.24424517 0.6446979
-0.16606607 -0.09009399 -0.9159483
-0.87149477 2.241713 0.2739169
0.07700588 1.708888 -0.25133836
0.5791086 -0.087652855 0.7486981
-0.035301212 2.1344943 -0.5147188
0.1807209 3.1161785 0.24683878
0.24517581 -0.41929734 0.61506486
-0.48078924 1.7777506 -0.5988976
-0.31582072 1.8307164 0.059162714
-0.5781034 2.9175277 -0.23297669
0.039925493 -0.24636912 0.47508663
-0.6563034 2.266088 0.609144
-0.80134016 2.0682552 0.36479482
0.7522615 -0.2530357 -0.09746973
-0.2508862 2.5202587 -0.4394377
-0.05774945 2.4376888 0.25359738
0.7152803 -0.08529395 -0.39931047
-0.6747302 2.5463357 -0.5228821
-0.82176244 1.874089 0.06171983
0.5701817 -0.083539166 0.31831712
0.25600824 2.7614532 -0.45643288
-0.11108683 2.7449393 -0.21011713
-0.27376354 2.9421039 0.542133
0.40855238 2.768689 -0.30529726
-0.53007895 2.3114827 0.4009227
0.27668795 1.5894296 0.03932359
-0.23498777 1.5772597 0.206838
-0.43350852 2.1292105 0.53516936
-0.08694155 1.9885377 -0.27577686
0.31817564 -0.23726106 -0.78201735
-0.16426656 1.9345617 0.34853226
0.62815094 -0.2753471 0.07051854
0.6535536 -0.2488788 0.24280941
-0.39807844 2.8235402 -0.29157192
-0.14780548 2.8084288 -0.7099554
0.09920539 -0.41510886 -0.6255431
-0.1800348 2.1816094 -0.8927605
0.6471791 -0.24418491 -0.9182515
-0.66504645 1.7648598 0.35493943
-0.59515166 -0.26587492 0.2797718
0.57822365 -0.4149555 0.52356577
-0.15190841 2.3385177 0.094433054
0.30795717 2.5134137 -0.62678695
-0.007733924 2.1034806 0.65133667
-0.70085824 2.353951 0.28709668
-0.18974844 1.825892 0.5282916
0.89901555 -0.09072386 0.7305063
-0.5684382 2.845159 -0.40040457
-0.58123493 -0.08987759 0.3608382
0.36743686 1.4996071 -0.34117538
0.30225348 2.4771986 0.67280483
0.2573241 2.5722601 0.82372296
0.678442 2.2515473 0.3389064
-0.18287943 1.9354508 -0.080386125
-0.14252058 1.944803 0.13363384
-0.62281364 -0.24857345 0.49119282
0.13925067 1.9987545 -0.21455157
0.920318 -0.25053787 0.6417459
0.15468274 2.4184222 -0.87942946
0.4122476 -0.25135124 -0.293773
-0.581104 1.5676007 0.0849181
-0.47726423 -0.26180688 0.59577465
-0.36339313 1.7971437 0.46315387
0.9267111 -0.24841127 0.43517333
0.6002369 -0.2513312 0.64951044
-0.5587396 2.5015783 0.012192683
0.52355844 2.246687 0.24549544
0.84341216 2.183301 0.3446656
0.12143073 1.6273053 0.33759987
-0.40288943 1.9006506 -0.35069698
-0.7801963 -0.25501692 0.5293455
0.23098457 3.0931888 -0.28529763
-0.018958658 2.9166374 0.32925588
0.54535013 -0.08668961 -0.91014194
0.19008386 1.6593757 0.6471442
0.09878901 -0.25941217 0.9278065
0.6560422 -0.083577424 -0.7417834
-0.003413098 2.4485984 -0.2939155
-0.102899745 1.3535142 0.018766653
0.47756076 2.4679565 -0.7475573
0.1491676 -0.08365485 -0.28573328
-0.78507864 -0.25453115 0.7251662
-0.73803365 -0.08225213 0.4314379
0.4929209 2.2856867 0.74947864
0.19376108 2.4355783 -0.2976363
0.08913757 2.5218678 0.31810588
-0.4070823 1.8235879 0.6931727
0.58698153 -0.2450772 -0.22588071
-0.22330904 2.3039808 0.8788889
0.7712583 2.337114 0.48105395
-0.6006362 1.9934775 0.2901548
-0.16746435 3.021988 -0.034341734
-0.61795413 -0.40429044 0.90555656
0.22023623 -0.24599755 -0.3731388
-0.58537996 1.7255329 -0.4316712
-0.42682347 3.0073924 -0.31480396
0.78348047 -0.24821985 0.33716702
0.91646063 -0.24316375 -0.59683424
-0.15512231 -0.088162236 0.004433959
0.017255288 2.4632385 0.5333984
0.33207923 -0.085036576 -0.36139047
0.5809452 2.126429 0.6932621
0.54531485 2.7179885 0.065350085
-0.70576084 2.3903813 0.054319352
-0.39928728 2.4535904 -0.7939614
0.90021944 -0.40807986 -0.092115104
0.67765415 1.8276513 0.45130488
-0.1614145 1.8014624 -0.557943
-0.3848842 1.6720113 0.29613638
-0.3324436 1.7804086 -0.45333478
0.04922101 -0.25522077 -0.35880458
0.7093148 2.0044918 -0.52570593
-0.5015013 2.2128124 -0.5435262
-0.06717609 2.3929758 0.70715153
-0.6805903 2.52505 0.17241085
0.27634585 -0.08221732 -0.6968545
-0.8948709 -0.4072265 -0.532629
0.01981375 1.8819633 -0.6491225
-0.29285944 2.1506271 0.65961945
-0.040811792 1.9554229 -0.47867304
0.89385253 -0.4084211 0.73122996
0.22742715 -0.08400203 0.12107587
-0.22350645 1.9692425 -0.42178032
0.058898486 2.8023324 -0.08261259
-0.44654608 -0.2513125 -0.28392446
0.90186524 -0.08937733 0.52874136
0.8911029 -0.40084136 0.90676033
-0.059904464 2.4706168 -0.049053717
-0.51737005 1.9739177 0.47224158
0.57571733 2.8758445 -0.33479798
0.30115074 -0.40261853 -0.9180205
-0.29993355 2.7588537 -0.123520955
-0.56496704 1.5934217 0.27795792
-0.37816674 2.1129017 -0.40006068
-0.1540367 -0.4088899 -0.90918374
-0.17687836 2.7727122 0.27742204
0.39995238 1.9755869 0.2681767
0.28183377 2.7745304 0.69908655
-0.3642567 -0.4157502 0.5478344
0.54638284 1.8024988 -0.3000705
0.20158058 -0.41360456 -0.7634059
-0.13443123 2.9559278 0.15506741
-0.5319178 -0.084918514 -0.14438246
0.54009503 -0.101679824 0.9172003
0.7315501 1.7160239 0.11554554
0.53884006 -0.07281008 -0.13093102
-0.20960462 -0.25804722 0.766703
-0.032994322 2.3041296 -0.9188159
0.123632915 -0.41881764 0.7531315
0.2689865 -0.24552609 0.009366981
-0.32075953 -0.418936 0.1554605
0.22814141 1.5855596 -0.20046872
0.008265618 2.0986266 -0.8900006
0.2421675 -0.25714934 -0.618474
-0.12079653 2.6789503 0.7954426
-0.058880758 2.9561992 0.57595336
-0.21554711 2.4283354 -0.87319696
-0.44748992 -0.25802064 0.40910202
-0.1549114 3.1537743 0.09693129
-0.12536648 -0.25839615 0.48206407
-0.34775102 2.0816472 -0.63024044
0.080128014 1.893885 0.1692619
0.23657146 -0.26320046 0.7753499
0.93479943 -0.2487742 -0.7841407
0.4429053 -0.2547703 -0.62337005
-0.3031104 -0.2534792 0.0323015
0.2996512 2.5432887 -0.4332307
0.7232286 -0.39924377 -0.91988206
-0.7171394 2.764955 -0.23995873
0.085243195 2.9606123 0.15609302
-0.37900233 1.6464757 0.095981576
0.18167558 2.904181 -0.61343706
-0.92707944 -0.26114178 0.42769724
0.46216607 -0.24775338 0.52832985
0.41040355 -0.254392 0.35707694
-0.9140988 -0.10768247 0.17310601
-0.49652183 1.9508479 -0.7040851
0.40354466 1.4638803 0.16627249
0.383145 1.6911943 -0.29449236
-0.3088755 -0.08606952 0.122890905
0.016725969 -0.08308314 -0.47824395
0.6826862 2.0503736 0.00272509
-0.40633914 -0.24046469 0.7615675
-0.25951123 1.5840054 -0.20269975
-0.06353322 -0.25053215 0.2955776
-0.23284194 2.7436876 0.08598657
-0.43090042 2.1646233 -0.1068811
0.76610816 1.8456758 -0.27700296
0.90430117 -0.08726664 -0.49327877
-0.32323998 2.4593828 0.5004311
0.09249783 1.9527719 0.6812536
-0.3222143 2.651833 0.76150334
0.51191616 1.6862066 0.47332305
0.23297045 1.8156165 -0.22214305
-0.6450695 2.1090722 -0.62893987
-0.18603632 1.5065455 -0.49769127
0.39288306 -0.4194215 0.012576062
0.07906756 -0.40407696 -0.91223073
-0.15261914 2.5372736 -0.22103015
-0.73459387 2.0691144 -0.054510765
0.38229972 1.7190466 0.6147398
0.014918812 -0.41119576 0.90935934
-0.04002402 2.3729625 0.9032645
0.47458977 2.997459 0.24704361
0.40268317 -0.08403845 0.21479271
-0.4250577 2.4700413 0.31687975
0.050551176 1.6989822 -0.7181653
-0.468208 1.9360578 0.12505697
-0.1904243 2.140987 0.18881461
-0.09346533 1.5083945 -0.10473876
0.26942456 -0.0890342 0.73136926
-0.9125226 2.2258253 0.05125104
0.46370584 2.4683852 0.76083434
-0.7508527 2.2216287 0.11684066
-0.0060866782 3.1194098 0.27553323
-0.7326453 -0.085640565 -0.9040023
0.41380125 -0.41931355 -0.18513384
-0.107871175 1.6655033 -0.22627476
0.13449413 -0.2555728 0.61278
0.89643335 -0.088005766 -0.09538996
0.8908769 -0.082956985 -0.7095252
0.5645541 -0.41470483 -0.2992392
-0.17150362 2.5245686 0.6463958
-0.48934934 2.2504678 -0.30956948
0.33488312 2.1772153 0.23652506
-0.2913335 -0.24660122 0.5820824
-0.39279985 1.6985364 -0.29830462
-0.4141798 1.6087871 -0.4910223
0.3856195 1.9384611 -0.7615452
-0.6426151 1.8996212 -0.553334
0.5488695 1.8892999 0.36456975
-0.640581 2.8996527 -0.06996794
-0.0899664 2.5906215 0.43297642
-0.60533947 -0.09539525 0.16661552
-0.7327697 -0.08546054 0.7974582
0.49962014 -0.24957912 0.224723
-0.033438325 1.3577979 -0.18384671
0.18676844 1.6624236 -0.3999033
0.19858262 2.013658 -0.85938746
-0.022460714 2.9505026 -0.59298956
0.7300182 2.5199513 0.48778385
0.32005996 1.804589 -0.42966533
-0.35921705 -0.085700415 -0.25382534
-0.8332321 2.574111 0.2337717
0.15235427 2.0881333 0.5252252
-0.111827254 1.6222985 -0.63200116
-0.41761163 1.4724165 -0.18237783
-0.83571374 2.2049541 -0.34104854
-0.57105255 1.9149334 -0.38715598
-0.41128653 2.7887363 0.6147188
-0.19995004 1.7429224 -0.061742797
-0.113659084 3.0600915 0.4383796
-0.92431194 -0.25407612 -0.21729204
0.5707042 -0.407302 -0.08202569
-0.868183 2.3935814 -0.24736239
0.85809433 -0.2500512 -0.9294416
0.4723032 2.464775 -0.5193275
-0.21442485 1.6540525 -0.4059449
-0.39662796 1.8907092 -0.11284126
-0.3315539 2.0175548 0.21931258
-0.12213264 2.3169398 -0.1455363
0.04901754 1.5298913 -0.23085657
0.570938 2.3721704 0.44096997
0.75572467 -0.25030386 0.54133916
0.89553833 -0.4085029 -0.6888529
-0.05521223 2.2783737 -0.37706465
-0.39499253 1.6718934 -0.10421115
0.37134206 2.8263602 -0.6109797
0.41069657 -0.2551803 -0.11065538
0.41290885 3.0113354 -0.306446
-0.23724908 1.4595277 0.35990867
-0.23195416 -0.08451665 0.5141525
0.22461781 -0.4124929 -0.09810033
0.10175577 1.3511014 -0.041573808
0.6453878 1.9743652 0.19564772
0.35637158 3.091658 -0.098718315
-0.8991662 2.2060843 -0.15405235
-0.023790572 -0.09740784 0.91647613
0.8949579 2.1054149 0.005790907
-0.020225635 1.8469143 0.024989836
-0.2444623 -0.085853025 0.71491134
0.37200883 1.6586268 -0.10635228
-0.31526846 2.9208612 0.04101137
0.3452431 1.8552485 -0.055481873
0.19412498 -0.24485853 -0.9272209
0.08482267 2.2781706 -0.2236875
-0.22318609 3.1143084 -0.23703311
0.5714421 -0.08527535 -0.54497576
-0.3378331 2.6417959 0.20911051
0.44547606 2.891599 -0.46119153
0.587586 2.3893716 -0.378061
0.9025657 -0.08717099 0.10643987
0.57941395 2.0807118 0.34832174
0.58016074 1.7886236 0.18925878
-0.3702929 1.6693165 0.58835924
0.22488973 2.8823955 -0.33040398
-0.42427725 -0.4083573 0.8975214
0.11081284 2.629901 0.4597845
-0.7319648 -0.25139523 0.9189978
0.3673283 2.1351547 -0.82547295
0.5668855 -0.24628048 -0.42662594
0.69189954 2.294905 -0.22669819
0.5749439 2.7499442 -0.5067196
0.3479246 2.7115905 0.18581018
-0.8426286 2.0327997 -0.2514389
-0.81301343 1.8624406 -0.14540467
0.39292634 -0.4110431 -0.7682378
-0.6647507 1.9779135 -0.23390937
0.70239997 2.6758432 0.38580745
0.729902 -0.41712147 -0.19349957
0.7257205 2.7590814 0.19947758
0.73997205 -0.084353834 0.64942944
-0.6163938 -0.25202918 -0.614115
0.021289036 2.2619839 -0.01447214
-0.25346583 -0.41492468 -0.2571764
-0.41567868 1.47749 0.22224632
0.2046982 -0.08639601 -0.49857754
0.12687318 1.79592 0.78042114
0.102665104 3.0361853 -0.4484694
0.4429538 2.259512 -0.27262563
-0.6556361 -0.082303375 -0.7435577
0.15868239 2.9124784 0.34518635
-0.5795655 1.5746975 -0.10915522
0.32077152 -0.25012547 0.61462605
0.011330704 3.1231647 -0.28186125
-0.34016478 1.9758984 0.4084373
-0.33264244 2.8740377 0.23525721
0.9028318 -0.4078523 0.32090724
0.21092977 2.3693752 0.26088938
0.035093043 -0.24188092 0.77419
-0.78577316 2.567247 -0.3294648
-0.53279066 2.3598723 -0.15462792
-0.5202006 2.4482427 0.52569515
0.21222942 2.019306 0.21687749
0.63694423 1.9882224 -0.35400015
0.57218856 -0.20513907 -0.052398168
-0.7154521 1.707974 0.16979879
-0.6158272 2.1322312 -0.39019895
-0.31701675 2.0401697 0.019511264
-0.2775736 3.0202723 -0.39833504
-0.8421267 2.5930626 -0.15134072
0.16423407 2.1425686 -0.08167438
0.67577225 2.844038 -0.18761235
-0.93161285 -0.25687963 0.63627875
0.49128753 -0.4142787 0.90769255
0.70488656 2.4189258 -0.046190865
0.16207369 2.7382627 0.26755214
-0.33630288 -0.08482437 -0.0703758
0.022931479 2.5550375 0.853271
-0.7692205 2.7546866 -0.037964895
0.048426524 2.3322015 0.3878794
-0.2224067 2.1486506 -0.5180001
0.06902351 -0.08646943 0.25018767
0.1011904 1.7529339 0.46583426
-0.12971893 -0.41609883 -0.6124551
0.26095155 2.7482386 0.4880393
0.9004022 -0.4068774 -0.49079818
0.18697861 2.6311734 0.6245672
-0.44622856 2.3356543 0.0064630047
0.3812285 2.5812445 0.5328579
-0.20841917 1.6911647 0.37616217
0.08528327 1.7047722 0.14228418
0.44216102 2.5970612 -0.16507852
0.73870116 -0.41945618 0.014870808
-0.0072817057 1.7983942 0.6229137
0.07186661 2.8119283 0.49955073
-0.27015084 2.6055686 0.3807319
-0.030332394 2.4915657 -0.87584096
-0.32430273 2.0483751 -0.8200735
0.13495639 2.8930802 0.64302945
0.54253584 1.6242259 -0.3822999
0.8982805 -0.40818822 -0.29356414
-0.5731628 -0.41573197 -0.31481627
-0.054586172 1.5892963 0.2880063
0.03007121 -0.09121916 -0.9162152
0.5670614 2.291815 0.04561977
0.101592004 3.043697 0.45873547
-0.7433199 1.8497322 -0.35174352
-0.18564472 -0.412993 0.62400675
0.5635073 2.6364589 0.23756456
0.21508801 2.4460392 0.4903469
-0.42826462 1.4600406 0.010350542
0.53175884 2.0693386 -0.5178088
0.0109282965 2.2404523 0.19705772
0.763926 -0.2416167 -0.7436892
-0.13281345 2.8460884 -0.039147392
-0.3243155 -0.4150949 0.73970854
-0.07881066 -0.41394275 0.7605969
-0.6138414 -0.25338146 0.72558725
-0.14700592 2.1531181 -0.70723706
-0.259664 -0.25542605 -0.92346525
0.7308387 -0.414456 -0.587646
-0.60503566 -0.25071913 -0.4198891
0.77036065 1.8465655 0.2635802
-0.13468358 -0.0851111 -0.5928525
-0.010309413 2.6474757 -0.6003921
0.66838324 1.8139036 -0.44667614
-0.36795524 2.467453 0.102732465
-0.18479797 2.163333 -0.3334235
-0.5543379 -0.09023509 -0.91313684
0.2515115 2.260319 0.45960906
-0.8688456 2.0569658 0.16964571
-0.27917463 -0.24772747 -0.3739532
0.52810276 -0.41042024 -0.90088725
0.3660544 -0.2543437 -0.4714922
-0.7032558 -0.4179356 -0.7952107
-0.31774575 -0.25346965 0.92651206
0.38663143 -0.41752416 0.22111821
-0.0098794745 2.0185747 -0.07160558
0.024698554 1.7359107 -0.5104141
0.8083556 2.6787858 0.04932349
0.7070372 -0.41693133 0.88037544
0.4826284 1.493536 -0.008312015
-0.55682415 -0.08588892 -0.3337292
0.6329253 1.9273708 -0.16151643
0.53397334 2.9773188 -0.15426198
-0.09955482 2.4869256 -0.68638635
0.63490057 1.6808927 0.3185376
0.07378953 2.7984967 -0.4914016
0.89623773 -0.40663454 -0.88242686
0.5512275 1.888399 -0.6229886
-0.78957134 1.8932221 0.26510292
0.42803186 2.2045436 0.40443343
0.5438259 -0.25354856 -0.77952695
-0.36374217 -0.088082075 -0.9108474
-0.13444349 1.7813377 -0.76249576
-0.054419324 1.6752223 0.47643465
-0.20621811 -0.24690613 0.17721005
-0.2536264 2.5938582 -0.07276843
-0.059551753 1.8203456 0.8021157
0.14743178 2.169113 0.31721276
0.28717452 1.6905403 0.4264391
-0.92328167 -0.25057164 0.006883856
-0.03174565 1.6005766 -0.39309397
0.10745228 2.7141752 0.78190756
-0.830593 2.5805025 0.03879547
0.37928456 2.327001 -0.6439971
-0.11280782 2.1336236 0.032543242
-0.6434326 2.1628706 -0.19479492
0.5849958 2.6998496 0.5399733
-0.061964393 1.4780631 0.46492678
-0.5194639 -0.41931486 0.707242
0.70595473 2.1557817 0.16833866
-0.28331906 2.9391541 -0.1760881
-0.6436399 1.8807144 -0.072368294
-0.18506175 2.5249953 0.08714186
0.4891955 2.0649118 -0.26806888
0.90455115 -0.08780575 0.3181829
0.25331587 -0.25024927 0.44134697
0.24633268 2.1967974 -0.3027436
-0.55856323 1.8038821 0.5547179
0.1356307 3.147968 -0.11762436
-0.016242843 1.6203507 0.66235876
0.043417558 1.5354266 -0.5557163
0.49957812 2.5055587 0.030735457
0.31195155 1.9839343 0.6192238
0.6257741 -0.25227648 -0.6178379
