0.57708335 1.2729974 0.53577304
0.48711872 0.37533146 0.08350429
0.44660312 1.4152281 0.27600858
0.74619406 -0.2517053 0.7556293
0.3869211 0.8997789 0.55267143
-0.59389246 0.84435 0.3714894
0.06513486 0.068586364 -0.38658202
0.6452414 1.0936759 0.57643855
0.29551595 1.6050969 -0.5926955
0.7720388 -0.24821684 0.93385315
0.4614179 -0.08260359 -0.72889745
0.0015471757 -0.41099784 -0.4679442
0.027316486 1.2788709 0.035275236
-0.7247148 0.90279335 -0.18627237
0.29103804 1.2777469 0.25859797
0.09559577 -0.22804028 -0.53176075
0.33076015 0.3254375 0.23496595
-0.33457625 -0.07064819 -0.5793644
0.14923729 0.49848056 -0.39293557
-0.9052141 -0.09457934 0.73342836
0.45468515 1.6191629 0.31511623
-0.6030122 1.3306057 -0.10773729
-0.46627367 -0.2525576 -0.9249491
0.42853945 -0.08009708 0.6456518
0.27063733 0.23264244 -0.6211834
0.87768257 1.2036734 -0.15110666
0.9001658 1.0370007 -0.23690924
-0.27624804 0.90244377 -0.05014544
-0.19694811 1.449258 -0.4794711
0.23758188 0.06780712 -0.21899211
-0.42029285 1.1718652 -0.25273275
-0.72332704 0.6192083 -0.5034293
0.017135762 -0.096318826 -0.13250485
-0.7446095 1.3788801 0.032160275
-0.72691894 -0.081840366 -0.42342204
0.35381252 0.9555986 -0.512981
-0.5893678 -0.41193914 -0.10826896
-0.36960322 1.2118754 0.53381634
0.12426202 1.2286779 -0.49996918
-0.25827247 0.66926754 -0.26245093
-0.032329813 1.0874724 -0.57201064
-0.2564429 1.063164 0.5837402
-0.7528682 -0.077327885 0.22311094
0.27493525 0.40024853 -0.78178275
-0.060617603 -0.08476345 -0.76538306
0.7640618 -0.24931592 -0.49098068
-0.5680299 1.1184186 0.611781
0.633639 1.2083309 -0.66704184
-0.099858195 -0.22970396 -0.45929217
-0.11438322 0.9026913 -0.81178164
-0.11128831 -0.058103967 0.18755834
-0.7509618 0.98486364 -0.54197264
0.39842063 0.87313336 -0.06959038
0.14580399 1.2578633 -0.11647847
0.24338874 0.78113437 -0.5828084
0.92463046 -0.24718282 0.013922021
0.09715226 0.46949822 -0.86272454
0.85587454 0.655227 -0.3449188
0.6990987 1.5178868 -0.123834416
-0.21758777 0.07103872 -0.102632746
-0.44561315 1.3040307 0.3658568
-0.1200909 -0.2311639 -0.26873082
0.8607906 1.104646 0.24720582
-0.7192023 -0.4204911 0.77452785
0.31766406 1.1088405 0.77341574
-0.4983165 -0.41798073 -0.7311102
-0.7062627 0.8007729 -0.58652043
0.16147643 0.2261791 0.1831089
0.27878067 0.73543847 0.79255223
-0.5693946 -0.08573376 0.5394663
0.74596393 -0.08595881 -0.5841765
0.8608264 0.9979142 -0.40735292
-0.09759547 1.3888636 -0.63605934
0.32594186 0.09110209 0.007981533
-0.021782063 -0.41289276 -0.7635993
0.72902036 -0.4180979 0.64627135
-0.08682518 0.5407064 -0.8862576
-0.44491088 0.595971 -0.5601276
-0.0040656254 0.8353623 0.37661487
0.56558895 -0.060805943 0.113005035
0.19926983 -0.41106367 0.28825617
-0.3534882 -0.41372037 -0.5929568
-0.3945325 1.1776044 0.70895624
0.157897 1.2069957 -0.92160845
-0.8904412 -0.09839781 -0.9136873
-0.7765962 0.92766476 0.3633232
0.07983653 -0.42333388 -0.2490001
0.40338737 1.0165097 0.07197144
0.4941014 0.26345935 0.3555159
-0.062520236 -0.07137705 0.5723554
0.11838931 1.593174 -0.33013058
0.13500908 1.0514975 -0.17419334
-0.7630102 -0.24320103 0.32464507
-0.5156374 1.6325316 0.092626244
0.430637 1.0506482 -0.14499447
-0.496944 0.35645857 0.43654692
-0.8683059 -0.08061644 0.024634417
-0.5021869 0.67120904 -0.107954666
0.7803098 0.94907135 -0.5610739
-0.17217591 1.2245424 -0.7080025
-0.23369572 1.5328993 0.5417536
-0.3549073 1.731725 -0.00379931
0.5956276 0.66806805 -0.73515904
0.32460284 1.5345774 0.2146482
0.71995044 0.7979077 -0.6444638
-0.4059763 -0.0798062 0.4325413
-0.6175268 -0.09105174 0.91636336
0.41238856 -0.06840041 0.43012512
0.59479475 -0.2661094 0.90065753
0.9235531 -0.2460883 -0.3885005
-0.89585376 -0.40684223 0.10807541
0.7641698 0.89841956 -0.081314415
0.9207774 -0.24659759 -0.18646815
0.5640199 0.35335496 -0.5244938
-0.5353211 -0.42133078 0.48486292
-0.11751616 0.10163829 -0.30558872
-0.71065617 -0.41519782 0.40091527
-0.102296725 0.4099331 0.12947033
-0.3072233 0.9091677 -0.52739847
-0.8801687 1.0314002 -0.1528875
0.0037768288 -0.41293746 0.5763359
0.1548388 0.21967347 -0.029009901
-0.6950431 -0.07562958 -0.024860978
-0.7154083 -0.41729492 -0.62501705
0.0795165 0.6581787 -0.7446326
-0.8966647 -0.4068237 0.71963924
-0.9038488 -0.09164393 -0.52768946
-0.60716844 -0.24158072 -0.20856309
-0.29974085 0.81417906 -0.9128666
0.4277987 -0.25437385 -0.924663
-0.59298706 1.4284809 0.36656934
-0.0069837463 -0.41193646 0.3694886
-0.2462058 0.6390805 0.7600783
0.38720638 0.92580503 -0.89529735
0.42936137 1.2838907 -0.5912615
-0.500678 1.349195 -0.29683945
-0.5231291 -0.24490261 0.9129567
-0.46221036 -0.23674954 0.10404013
0.6521523 0.82325184 -0.41611296
0.0024206883 1.4110196 0.20935062
-0.021412563 0.22665603 0.103209764
0.11732547 0.114636436 0.36169422
-0.25646454 -0.41928923 -0.7519052
0.39562017 -0.26677552 0.9235486
-0.25631806 1.3638811 0.45303237
0.37671405 -0.06641361 -0.5453023
-0.13449979 0.9198193 -0.61114126
0.85725355 0.5871997 0.0639779
-0.48598418 1.3862586 0.19939895
0.3823709 -0.074462354 0.87460583
-0.08929375 0.7537122 0.81828296
0.29602045 1.2768083 -0.38544694
0.30206358 1.734839 0.21451145
-0.35512626 -0.25745213 -0.7687417
0.73878026 -0.079085454 0.22156985
0.30322933 0.9520314 -0.22052151
0.38592756 0.9046695 0.7667131
-0.48881745 1.5798538 0.28930795
0.5480107 -0.41948712 0.12978631
-0.71324503 1.0942447 0.4246592
-0.13834365 1.112073 0.36287704
-0.0380851 -0.24068958 -0.6351887
-0.5448658 -0.08240226 0.7412275
0.7986163 1.3547192 -0.25936216
0.201112 0.59723806 -0.054189797
0.93050814 0.99171984 -0.06279962
0.56458163 0.4198956 -0.11252861
0.60343313 1.344162 -0.34257424
-0.08118659 1.5836148 -0.34473416
0.42120063 0.22418806 -0.500296
-0.097436726 -0.41537026 -0.14066412
-0.74261266 -0.4147141 -0.21451429
-0.2720137 -0.4120837 -0.06783064
-0.2610357 0.48777688 0.2257905
0.9031317 -0.08820197 -0.8975034
-0.37015116 -0.41130978 -0.90197253
0.11924034 -0.23844686 0.3194667
-0.8969307 -0.09152255 -0.33012098
0.0050926143 0.78865993 -0.25841022
-0.1797672 0.45263723 0.69010246
-0.64890504 0.69269323 0.055571925
0.026501391 1.8218212 -0.07036984
-0.07372515 1.2673733 -0.4927181
0.9269552 -0.24635619 0.22718051
0.15433428 -0.41071558 0.45808923
-0.03255524 -0.25622338 -0.91633695
-0.91546124 -0.2591173 -0.87218523
-0.17493995 -0.4087186 0.25489208
-0.6846733 0.6050714 0.4181593
0.07604644 0.8592636 -0.8223564
-0.2050436 1.1781535 -0.90558344
0.72889495 0.7563547 -0.22910267
-0.30576912 0.11159274 -0.35477978
0.6523694 1.2852148 -0.16089061
0.44465214 -0.23969385 0.75745654
-0.02128745 1.356636 0.51889133
-0.38679498 1.4797592 -0.64223397
-0.1157832 -0.24134226 -0.07460772
0.7464734 0.89006394 0.49320543
-0.22550902 0.08482253 0.14179277
-0.18341604 -0.41732067 0.44182032
0.2577346 -0.07439957 0.5427285
-0.2676369 1.044455 -0.19478065
-0.27979714 1.2488828 -0.3952813
-0.47532487 1.2595854 -0.46310765
-0.41270068 0.9805211 0.7269993
0.34361893 0.57359594 0.7119917
-0.5519583 -0.0805174 -0.5502629
0.086829185 -0.06707538 -0.67240906
0.21573529 0.92494226 0.020091666
-0.81133986 1.126415 0.2677993
0.42118412 0.7311499 -0.6721245
-0.6882576 0.7777184 0.50023496
-0.41390824 0.97921836 -0.68124545
-0.114979014 0.9652875 0.47403252
0.045523502 -0.26176238 -0.18620971
-0.76667035 -0.24375793 -0.10254116
-0.00021962903 1.5045696 -0.4905874
-0.28707847 0.88236535 -0.30638015
0.25901297 1.0327566 0.60477877
-0.26282474 -0.23713157 0.3785551
-0.47384167 0.41170645 0.16099745
-0.5290513 1.0210087 0.08752664
0.26915145 0.0848904 0.19308516
-0.124810904 1.2799275 0.13804458
-0.8993459 -0.4053722 -0.10462667
-0.57953966 -0.40506136 -0.9169172
0.5333699 0.57804215 0.5992969
0.12962052 1.0860734 -0.7858691
0.2875118 1.3262054 -0.841218
0.47077394 1.2539358 -0.77628464
0.08324514 1.2333391 -0.29302448
0.36632875 -0.058501177 -0.18722673
-0.5264894 -0.4146952 0.28394794
0.097862095 -0.055288844 0.46267122
0.08352175 0.06949794 0.15547988
0.9151981 0.8345445 -0.23220158
0.7186023 0.3351236 -0.22157812
0.73596096 -0.0855203 -0.9034586
-0.42140353 -0.24861091 -0.47923106
0.209393 1.7957859 -0.089329064
0.09558397 -0.23353085 -0.029200811
-0.21723719 -0.40844536 -0.45612362
0.45328528 0.54049176 -0.2468893
0.38881147 1.0890299 0.28190213
0.3350044 -0.41626012 -0.57952917
-0.24644732 0.26836216 -0.65088415
-0.5054446 1.6542755 -0.11007744
0.4227779 -0.41182286 0.61525357
0.5233599 1.6638386 -0.10090755
-0.08296373 -0.051579464 0.3898043
0.41983914 0.7623312 -0.47544205
-0.31309092 1.7526729 -0.20252405
0.23516965 -0.3989253 0.91339433
-0.20460436 -0.046078943 -0.41281617
-0.06574325 0.09178612 0.27026874
0.18708724 0.606644 -0.5476887
0.42574674 1.085144 -0.36720282
-0.62558675 1.2290436 -0.27616638
-0.2790557 -0.23354548 -0.1757642
0.85005057 1.1936697 -0.36262697
0.54187965 -0.4112897 -0.49334955
-0.42416152 0.806965 0.2617455
0.15760702 0.9200698 -0.49447492
-0.38431972 -0.24207261 0.24839655
-0.4438528 -0.05963756 0.2332524
-0.17315912 1.0036799 -0.40992418
0.8937589 -0.09461522 0.9083842
-0.038838945 0.43435892 -0.38299912
0.92857385 -0.24965519 0.8573377
0.10757278 1.3883303 -0.3908245
0.20513831 -0.4107355 0.09977239
-0.12180436 0.92804825 0.67778873
0.36573917 1.7512163 -0.016057633
0.25708604 0.1101024 -0.4321166
0.6957625 1.1609558 -0.3184871
-0.45188352 0.66672903 -0.30066407
0.4130423 1.3883188 0.60288054
0.7296595 -0.415604 0.42754567
-0.52572715 1.0873688 -0.7835889
0.5312113 -0.06446433 -0.32479274
-0.48887473 0.8725246 -0.8243996
0.72297764 -0.41625196 -0.38841385
-0.8988725 -0.0933602 -0.14116286
0.8052373 0.45004338 -0.07402985
-0.8686363 -0.09421757 0.9126659
-0.8707664 1.0485578 0.053493768
-0.16153665 0.7984227 -0.16585904
0.2977816 0.48874748 0.106459185
-0.20017342 0.23286283 0.0042580226
0.34297204 1.5657402 -0.28640783
0.28411826 -0.2317495 0.21289575
0.11885898 0.7538423 0.05965121
-0.17171906 0.77054596 0.47419882
-0.11088313 -0.2594766 0.91893065
0.5710054 0.85906 -0.7911053
0.75604326 1.142489 -0.5365151
-0.13227132 1.4811734 0.36387175
0.2156216 1.243079 0.07111407
-0.20526724 1.2407529 0.74950993
0.2819065 1.1050129 -0.039435312
-0.113557614 0.5592489 -0.6923997
-0.49946123 0.19927762 -0.31553382
-0.74093455 -0.4134075 0.0019985354
0.11225915 1.1920823 0.6144405
0.7202234 -0.08044316 -0.19403872
0.7275715 -0.077775344 0.010532973
0.5003194 1.4487004 -0.21468309
0.70301366 -0.41508543 -0.7619919
0.3331261 0.7220893 0.016815048
0.26622385 1.3982522 -0.23950024
0.5800072 0.2071659 -0.17540897
-0.45684913 -0.08112995 -0.74074376
0.61287206 0.2650864 0.18522738
0.3172747 0.62198234 -0.39118916
0.72892386 1.3355376 -0.47297907
-0.4798308 1.4527731 0.002326726
-0.75934446 -0.24753016 -0.31855172
-0.4242986 -0.40986395 -0.19648242
0.7892461 0.7142929 0.38048318
0.36396995 1.3054619 -0.08790642
0.2298559 0.7980746 -0.9493556
-0.7712455 -0.2523682 -0.5244683
-0.30493152 1.3094466 -0.5920346
0.25033373 -0.40312803 -0.27892676
-0.6163404 0.51761687 0.11529988
-0.6544587 0.92497176 -0.38806438
0.4279828 1.0985621 0.48949167
0.10234761 -0.23745619 -0.76156974
0.247319 -0.05546657 0.33619523
-0.13056844 0.94959986 0.24346109
-0.57235235 0.8645959 -0.07321596
-0.89146566 -0.411205 0.32288474
-0.85840595 -0.40452763 0.906011
-0.727523 1.3297716 0.2406754
0.34308967 -0.4167827 0.7756234
0.6634747 0.72469854 0.5507096
-0.57534003 -0.24945152 -0.79051495
0.23200911 -0.22537738 -0.19781938
-0.89432293 -0.40431964 -0.732772
-0.37830934 1.1984376 -0.8144754
-0.21172312 0.7971953 0.29944593
0.6309398 1.5928212 0.038210377
0.5760567 1.064608 -0.22862904
-0.60420024 -0.23957229 -0.0053072292
0.74344075 1.0436603 0.08302759
-0.89605427 -0.40791404 -0.3238219
0.8412887 0.8059611 -0.44345656
0.30694622 0.16462661 0.36997548
-0.6500939 1.5283186 -0.03886258
-0.72875667 -0.41355973 0.2108417
-0.40916714 0.7602035 0.7196299
-0.7445189 -0.084124364 -0.6070819
-0.21357235 -0.41080576 0.90119743
-0.6731522 1.2623975 0.43143788
0.89376307 1.1585423 0.040811263
-0.75101054 -0.24001867 0.111606166
0.0025782653 0.48862112 0.29242048
-0.45185095 1.483546 -0.19973361
-0.5074695 0.42785758 -0.23270342
0.26058647 0.58304787 -0.71217585
0.24569815 0.76722896 -0.7704762
0.3384111 1.1268137 -0.890867
-0.5450386 -0.41479063 -0.5280302
-0.4366508 1.0022105 0.5190099
-0.2618598 -0.045012742 0.31077987
-0.90306604 -0.09475963 0.35049313
0.0956144 -0.080621414 0.6757713
-0.44253007 -0.23132047 -0.09556134
-0.6485961 1.278501 -0.5521946
0.4694857 0.5934501 0.10104245
0.40042728 -0.052856073 0.014328118
0.15325315 0.24204534 0.53035444
0.7827755 -0.24176286 0.12157109
0.5207564 0.67233014 -0.08981493
0.18673198 -0.07859374 -0.8868971
-0.39927542 1.3047252 -0.09963904
0.5973315 -0.243442 0.42585975
0.30832607 0.7443405 0.37408596
0.47562754 1.5147265 0.08577457
0.110719986 -0.23658055 0.14850175
0.69444084 1.2325997 0.028966162
0.55940366 1.1137366 0.1480479
0.05557701 0.92012846 -0.66208684
-0.027952421 0.7406957 0.21243083
-0.3987776 -0.41399288 -0.39390403
-0.7250359 -0.08625555 0.6285949
0.54337955 -0.41258943 0.33126944
-0.8995661 -0.092317864 0.5424608
-0.6374549 1.4895425 0.16250175
0.019131396 -0.41211718 0.1831181
-0.6272843 0.9148622 -0.70855397
0.7574086 -0.24948886 -0.29009372
0.4034962 0.5791538 0.4385216
-0.026108235 0.9340842 0.85036534
-0.9197678 -0.26730227 0.22233514
-0.22080761 -0.091319755 0.90235555
0.16802567 1.074316 -0.59426266
-0.8507215 -0.40561947 -0.9147728
0.353772 0.7145477 -0.19645669
0.24694636 0.52329564 0.29634422
-0.57434255 -0.4096007 0.10501769
0.5181509 0.5489743 -0.4419661
0.21054667 1.6115608 -0.15227732
-0.37105107 1.0588083 -0.40227002
-0.9250529 -0.24567808 -0.64454097
0.897156 -0.08578101 -0.28823888
0.6451658 0.5334714 0.016005555
-0.68735576 1.0747244 -0.23994973
-0.3006765 0.94955313 0.3712471
0.22547336 0.58323777 0.5272761
-0.5204486 1.3171685 0.55946004
-0.033822007 -0.073816 -0.31798083
0.53062826 0.7918978 0.066567674
-0.5305884 1.2677385 0.06885249
0.12138568 0.66039205 0.33713275
-0.72720665 -0.4159891 -0.42649448
0.3872556 -0.41236198 -0.39173943
-0.080994144 -0.08155842 0.7568493
0.13563614 1.1411705 0.8087195
-0.48523742 -0.047989484 0.02764604
0.5418874 -0.42017388 -0.6740679
-0.40536222 -0.08152588 0.62977445
-0.013799872 1.4614896 0.005502335
-0.6899665 0.3408996 -0.04833483
-0.43586582 -0.40925014 -0.0040025394
0.25095767 0.42083728 -0.5790602
-0.65189016 0.3266362 -0.25358593
-0.08949907 1.6541933 -0.56695354
0.44907582 0.46866006 0.27730536
0.5703083 0.85491073 -0.16196218
-0.062055714 -0.2383757 0.09457791
0.58282894 -0.08199783 0.5355754
0.08991669 0.7571069 0.82767403
-0.6930635 -0.41178703 0.5993068
-0.25163865 0.85213095 0.79826236
0.5450814 1.2191169 -0.45731354
-0.8888768 -0.087215364 -0.73622894
0.9104465 0.94264543 0.12597129
-0.6030489 1.1920456 0.24987376
0.22298366 1.258935 -0.694589
-0.08490597 -0.40759468 -0.3249843
-0.24770305 1.0503207 -0.7289922
-0.20059589 1.5232005 -0.69830847
0.5725928 0.939551 0.46914658
-0.403579 -0.060220636 -0.42336464
0.2568134 -0.16903517 0.92885196
-0.767878 -0.24075045 -0.7439596
0.69319713 1.1881738 0.23686095
-0.42070743 1.1389167 -0.5986024
-0.3464519 0.96286166 0.15269426
-0.3316001 1.4658283 0.28976184
-0.26466262 0.4282327 -0.78431046
0.10345541 0.7253041 -0.41586453
0.07094949 0.9957738 0.6973779
-0.57172227 1.1048334 -0.42243242
-0.04773386 1.5442653 0.57127047
-0.20879975 1.6043487 0.21873912
0.02089601 0.3469743 -0.048527002
-0.0773868 1.7961602 -0.25750512
-0.05708207 1.3068553 -0.14285761
0.03384433 0.49836475 -0.18627837
0.039324656 -0.07561898 0.05823841
-0.54859483 0.8777274 0.6383656
0.20567074 0.8603208 0.65836215
0.7271743 -0.4163905 0.2265433
0.42888567 -0.24055907 0.07981456
-0.863982 0.6577884 -0.09625748
-0.49645543 0.40223366 -0.024503589
0.2076869 0.4053982 -0.058498204
0.07891223 1.0876033 0.021573177
-0.4113281 -0.0830749 0.88631713
0.2862969 1.1745235 -0.22618935
-0.36448324 1.7040291 0.20508727
-0.4442187 0.6997467 -0.81912076
-0.20165226 0.45380902 -0.2623341
-0.92493033 -0.25488216 0.8720199
-0.3245635 0.6704098 0.5614237
0.36123413 -0.41584408 0.43013412
-0.2378853 1.1095998 0.1773093
0.03813588 -0.41352654 -0.016343698
0.35453022 0.27571625 0.5200457
-0.448095 0.80608326 0.06250337
0.1880964 -0.41069353 -0.4485278
-0.46152127 0.5377923 0.28693396
0.18647563 1.4380077 -0.041734654
-0.0016733663 0.645377 0.46859407
0.88387764 0.6371759 -0.1396763
0.209189 -0.06941546 -0.07975099
0.68056035 0.28945166 -0.012618575
0.24131694 0.94551784 -0.7351152
0.4324708 0.36462134 -0.66183245
0.08795713 0.9931431 0.50532293
-0.14939836 -0.41166374 0.06696413
-0.17958602 -0.058092643 -0.2027604
-0.5471959 0.6792538 0.6054572
-0.5041431 1.2981429 -0.69962645
0.9000331 -0.40695003 0.12285018
0.8211503 1.2912052 0.17158207
0.56440187 -0.4125921 0.74019027
0.089987256 1.3894184 -0.8358891
-0.24611162 -0.2426655 -0.58839595
0.51835173 1.2526023 0.32080525
0.89714456 -0.4080053 0.5319438
0.26904362 1.6035941 0.049008083
0.3561074 -0.08715518 -0.9091822
-0.028451795 1.2423048 -0.904073
0.13815947 -0.07443769 0.87453413
0.014114342 1.639899 -0.15421663
-0.21151173 1.7734368 0.111095324
0.26367253 1.6556048 0.396787
0.60794854 1.5426452 0.23406227
-0.5342694 0.958981 -0.5371734
-0.25789666 -0.0850091 -0.7517178
0.720652 -0.082761414 0.8769587
-0.7264646 -0.0795168 -0.21921831
-0.4503272 -0.23887534 -0.6372727
-0.4483173 1.6572807 -0.29484236
0.67079127 1.0095706 -0.6934401
-0.6216414 0.84797966 0.1811458
-0.28650457 0.84531206 -0.72901034
0.40034062 0.56384325 -0.58179975
-0.12364009 0.6930355 0.63945866
-0.28145474 0.5079045 -0.6081581
0.42452717 0.11035918 -0.14124772
0.8763745 0.73613346 0.18981895
-0.35343316 -0.41602403 0.3540743
-0.30275455 1.3629248 -0.78765357
0.19291332 0.9429623 0.8356347
0.7388024 -0.08182713 0.43181133
0.3812992 1.5293794 -0.0908806
-0.92396927 -0.2528703 -0.4251724
0.40908712 1.5279188 0.4691748
-0.1742116 0.2851745 0.56253093
-0.8823507 -0.41227338 0.524405
0.5502094 0.8873987 -0.5701351
0.49670464 0.75008315 0.47371805
-0.3476275 0.23886183 0.4355387
0.48264444 0.73908615 0.70111907
-0.15339807 -0.25396186 -0.76543725
-0.7111527 -0.2615495 -0.92864805
0.4024884 1.2126842 0.115388855
-0.09065141 -0.2375279 0.635629
-0.16377735 -0.09070027 -0.91899705
-0.8565524 0.90134704 0.18505237
0.12512614 0.35843068 -0.2530566
0.5785725 -0.086838014 0.7485709
0.021809407 0.75482225 -0.59341043
0.16750199 1.7928145 0.10329795
0.23458314 -0.41661787 0.607425
-0.43459302 0.36331803 -0.6349997
-0.29025137 0.48972124 0.034717727
-0.5656532 1.5211759 -0.3885465
0.034007203 -0.23395821 0.46888763
-0.6537546 0.9670053 0.5236604
-0.7840387 0.74261767 0.30169678
0.75103134 -0.2504564 -0.08514154
-0.22777885 1.1214385 -0.54396844
-0.047534537 1.1105154 0.16626275
0.7202121 -0.081482366 -0.39068684
-0.641039 1.119056 -0.6398752
-0.794021 0.51351285 0.025144828
0.5693328 -0.07419143 0.32273716
0.27866167 1.3839014 -0.5567663
-0.09273664 1.3724327 -0.32950366
-0.29404807 1.6352531 0.38826984
0.42942154 1.4133438 -0.40653348
-0.509653 0.99372613 0.30565652
0.31725657 0.27061677 0.05735515
-0.19760877 0.2614384 0.2104952
-0.42386687 0.8230401 0.474154
-0.052195225 0.61747813 -0.3057756
0.3145427 -0.23683506 -0.7808031
-0.13517949 0.6075696 0.3236963
0.62387234 -0.26843852 0.07844277
0.6473039 -0.24505246 0.2510294
-0.37978947 1.4271348 -0.42813158
-0.113096185 1.3905421 -0.83350766
0.102828294 -0.41037267 -0.6182534
-0.122396596 0.7435849 -0.9511684
0.6449046 -0.24366385 -0.91963047
-0.63871586 0.44038522 0.33075744
-0.5943037 -0.25055707 0.24653235
0.5700917 -0.41372076 0.52276945
-0.13921195 0.99646896 0.009876214
0.34373468 1.1076832 -0.7068728
0.0050667124 0.82830596 0.60311544
-0.690464 1.0193138 0.19323042
-0.17480318 0.53405076 0.5157683
0.89742404 -0.08956435 0.734617
-0.54508483 1.4326534 -0.54712695
-0.58690524 -0.08500318 0.34419873
0.42557174 0.13204627 -0.32635808
0.3013059 1.2096665 0.5847293
0.24057646 1.3173808 0.7262125
0.69350135 0.9822369 0.2727112
-0.14896376 0.5911976 -0.10868652
-0.12937984 0.60982925 0.10895812
-0.6241977 -0.25125527 0.45657524
0.16729212 0.64622384 -0.25168854
0.9197101 -0.24979243 0.6462517
0.19691253 0.9954084 -0.95366704
0.41458392 -0.2382417 -0.2859686
-0.54624873 0.2187762 0.08085522
-0.49921024 -0.25975907 0.5937649
-0.34522927 0.4951647 0.4367193
0.92659307 -0.24808048 0.44075447
0.5941247 -0.2503954 0.6461427
-0.54601705 1.1444836 -0.10058127
0.5353844 0.9292991 0.19360662
0.85085213 0.8939409 0.31309372
0.1545524 0.3277339 0.34335455
-0.3537584 0.5267124 -0.35932732
-0.76602304 -0.25189114 0.5457238
0.23871018 1.7286351 -0.41738147
-0.028771568 1.6020164 0.19492513
0.54281116 -0.086272314 -0.9108834
0.21192735 0.39316308 0.649879
0.096213624 -0.25598687 0.92601013
0.6530287 -0.081138335 -0.73658955
0.029835664 1.0754399 -0.38256702
-0.0670398 0.06384969 0.03262536
0.52155906 1.0636082 -0.80939406
0.15674934 -0.06846726 -0.292745
-0.7904766 -0.25209418 0.73707074
-0.74250406 -0.08173691 0.4356184
0.49107122 1.0405852 0.6902529
0.22479756 1.0666687 -0.37768662
0.091545984 1.2071117 0.22592625
-0.3882234 0.54319537 0.6629741
0.5869854 -0.23749445 -0.21074922
-0.23436049 1.0473557 0.79537207
0.77477807 1.0655041 0.4234096
-0.58350575 0.6717684 0.23882559
-0.17341533 1.6577318 -0.17999718
-0.6210287 -0.40325642 0.90536547
0.25049463 -0.22911954 -0.39922342
-0.5486746 0.3222599 -0.4582361
-0.41352934 1.6043237 -0.4703176
0.7811585 -0.24777123 0.34254774
0.91698754 -0.24173027 -0.5954174
-0.15155274 -0.0762766 -0.005578913
0.024884723 1.1701958 0.44290048
0.34495315 -0.05143089 -0.36665833
0.592244 0.88930976 0.6484016
0.5543643 1.3955675 -0.038378384
-0.6924033 1.033409 -0.048642937
-0.35462165 1.0111978 -0.8905408
0.8981063 -0.4075331 -0.08273563
0.68741775 0.54734385 0.4593808
-0.11480759 0.39790726 -0.5714286
-0.35748374 0.34625182 0.29219332
-0.3280244 0.3965636 -0.48117322
0.071233295 -0.24428631 -0.35703123
0.75522435 0.63050675 -0.54135734
-0.46022534 0.7923428 -0.61734974
-0.066131406 1.1187447 0.62258464
-0.6750122 1.1788929 0.058359995
0.26728183 -0.07659352 -0.70626795
-0.8947011 -0.4062726 -0.5330063
0.06954207 0.47878316 -0.6729489
-0.28464842 0.8677895 0.59866786
-0.009409381 0.5828916 -0.5142597
0.89191854 -0.40803462 0.7327665
0.22538176 -0.06384125 0.12254214
-0.1886159 0.562272 -0.44775975
0.06933519 1.4474468 -0.20242809
-0.44246262 -0.23454207 -0.2901395
0.9009867 -0.08802144 0.53588074
0.88654566 -0.40069228 0.90659547
-0.041474313 1.1167808 -0.14139058
-0.50118136 0.6638671 0.42121294
0.5967363 1.5183101 -0.45507547
0.3038224 -0.40346426 -0.9164638
-0.2847811 1.3838265 -0.24997792
-0.5342993 0.26608974 0.27318698
-0.33313715 0.7163115 -0.4609443
-0.1440534 -0.40916362 -0.91004515
-0.17528592 1.4463859 0.15146813
0.45434088 0.70514226 0.25057733
0.2569799 1.5084025 0.5813093
-0.36855382 -0.412975 0.5499214
0.5892733 0.43547052 -0.3114025
0.20513047 -0.41169336 -0.7550609
-0.1418689 1.6154748 0.013598815
-0.53330004 -0.056750596 -0.14921759
0.5427984 -0.10199727 0.9175496
0.76162463 0.40597546 0.12730357
0.5458988 -0.039428502 -0.12072165
-0.21205455 -0.25487828 0.76362115
0.024337614 0.8712378 -0.98222256
0.11784651 -0.41806722 0.7494832
0.26496795 -0.23109303 0.0121477395
-0.34564677 -0.4131884 0.15194872
0.27648497 0.24427077 -0.1922093
0.06851372 0.6690711 -0.93925446
0.24842139 -0.24594538 -0.60328794
-0.13767856 1.4067838 0.67346156
-0.07879472 1.6617341 0.4288851
-0.17186317 0.9758489 -0.9581614
-0.45352912 -0.25341335 0.41163087
-0.16089237 1.804911 -0.06581766
-0.129331 -0.2483641 0.47123244
-0.304657 0.6672262 -0.69058585
0.09535064 0.5867126 0.15088922
0.22493331 -0.25890344 0.7777841
0.93325937 -0.2463696 -0.7834978
0.43714714 -0.25062704 -0.63297117
-0.28761488 -0.2385202 0.024014521
0.32471544 1.1587098 -0.5218147
0.7220519 -0.39909333 -0.91920286
-0.6983604 1.3680807 -0.3841749
0.07866947 1.6296533 0.023497598
-0.34277916 0.30590543 0.09082708
0.20791589 1.5038296 -0.7323513
-0.92192763 -0.2588935 0.4314578
0.44826916 -0.2427567 0.5262594
0.399013 -0.2434965 0.3539791
-0.9134339 -0.104507804 0.17168644
-0.446128 0.5239743 -0.74927753
0.44619304 0.1514121 0.19741845
0.4262123 0.3276109 -0.28579885
-0.30861822 -0.053957652 0.112291545
0.0042723925 -0.047556058 -0.494647
0.71505153 0.7183844 -0.02677647
-0.4094073 -0.23960339 0.75477254
-0.2240237 0.23464698 -0.20722353
-0.06654385 -0.23286241 0.2874589
-0.21864739 1.3914063 -0.034373723
-0.4011367 0.8133683 -0.1775209
0.8056331 0.4941749 -0.27228576
0.9040232 -0.08560234 -0.49055284
-0.32154694 1.1304984 0.37852955
0.11300498 0.68465537 0.64823866
-0.33441013 1.3713291 0.63892674
0.5353156 0.40829867 0.48055792
0.27748722 0.47260654 -0.23342429
-0.5998187 0.6794473 -0.69358134
-0.14632466 0.12104522 -0.5111778
0.3807041 -0.41474944 0.017611306
0.08597023 -0.40530676 -0.9105099
-0.12575042 1.1667032 -0.32110846
-0.71016836 0.7105224 -0.1235033
0.39532912 0.4404009 0.6087223
0.011390774 -0.4101708 0.9064473
-0.056909367 1.120503 0.8188113
0.47362182 1.685473 0.12302421
0.40405685 -0.047138162 0.22032924
-0.4233533 1.1558009 0.20577109
0.11219135 0.29337704 -0.73226535
-0.45525092 0.5966631 0.06714822
-0.2197032 0.82160985 0.11960356
-0.046709675 0.18676165 -0.10258047
0.26951563 -0.08520162 0.73497176
-0.8903794 0.85858166 -0.035017572
0.4585213 1.2183406 0.67590576
-0.72866225 0.8714335 0.035167642
-0.021583354 1.79972 0.11811419
-0.73133326 -0.085018754 -0.9012685
0.40037185 -0.41495737 -0.17903556
-0.062442966 0.31327575 -0.23700109
0.12571812 -0.24801108 0.60928774
0.897725 -0.086354315 -0.08679968
0.8871007 -0.080765896 -0.707065
0.5561085 -0.41281083 -0.2880473
-0.16951454 1.2350466 0.5370612
-0.45649332 0.8592055 -0.3905914
0.34085488 0.86795175 0.17614958
-0.30095077 -0.24273947 0.5770549
-0.364345 0.3270123 -0.30919552
-0.36920106 0.20659038 -0.5018357
0.44083256 0.53654027 -0.7814667
-0.5995268 0.48659128 -0.59391606
0.58342916 0.6077368 0.3502624
-0.63529193 1.5256548 -0.2274377
-0.08490639 1.2897229 0.33375907
-0.60811114 -0.084549785 0.14159593
-0.73203814 -0.08140133 0.80265844
0.4924155 -0.23469126 0.22719163
0.009631017 0.044671513 -0.17339441
0.23294729 0.29073143 -0.40159625
0.25886065 0.59537524 -0.893216
0.001252034 1.5438173 -0.7241057
0.7271719 1.2489638 0.4092564
0.37318754 0.4256031 -0.43437
-0.36155695 -0.049442124 -0.25660843
-0.8305387 1.2270106 0.10965318
0.166033 0.80237883 0.47763678
-0.056064554 0.22219375 -0.6463823
-0.3968925 0.113887176 -0.17495096
-0.80260634 0.80065095 -0.4208557
-0.5205085 0.5045827 -0.42164987
-0.42513555 1.4858072 0.4753675
-0.16300336 0.40299314 -0.07550636
-0.13228725 1.7487433 0.28131235
-0.9222429 -0.25648326 -0.21563017
0.56002873 -0.40319592 -0.07401265
-0.8410044 0.99546075 -0.35102695
0.8557247 -0.24930093 -0.92974
0.5047797 1.0804803 -0.59340686
-0.18610308 0.28949907 -0.41414297
-0.36295876 0.5276339 -0.14547122
-0.31932348 0.6644577 0.1740393
-0.09011002 0.96207005 -0.23758289
0.099521376 0.18712683 -0.24051446
0.5755088 1.0919703 0.37042838
0.75385153 -0.2501243 0.5433161
0.893789 -0.40761292 -0.6868081
-0.018881079 0.89782596 -0.4509134
-0.36076817 0.3149249 -0.11050465
0.3923789 1.4299505 -0.71769845
0.40560836 -0.23941326 -0.10592486
0.42379946 1.6534247 -0.42808136
-0.20178303 0.15174681 0.3772588
-0.23465174 -0.07342958 0.5147122
0.21449092 -0.40723377 -0.0949487
0.13639715 0.063756555 -0.028274678
0.6688942 0.6750425 0.16994202
0.35973397 1.7476368 -0.23437756
-0.8716175 0.8195157 -0.23535624
-0.028532092 -0.09602099 0.9137215
0.9198563 0.7855523 -0.0129649015
0.013174831 0.5255343 0.0051357737
-0.26049423 -0.08247993 0.7176157
0.41168004 0.32037127 -0.0933343
-0.3172102 1.5547171 -0.100528
0.3896734 0.5215143 -0.06496234
0.19406766 -0.24678752 -0.9274231
0.11748935 0.9125184 -0.29565746
-0.22092102 1.7268827 -0.39132342
0.5599422 -0.08040137 -0.53177106
-0.3313947 1.3096089 0.0947234
0.45569342 1.5218148 -0.572988
0.6189523 1.0217769 -0.44054055
0.902743 -0.085493736 0.11828551
0.631796 0.8040494 0.3200093
0.60726357 0.48849744 0.1893571
-0.3426177 0.37998295 0.5787047
0.24011868 1.513974 -0.44315434
-0.42513293 -0.40742844 0.8964632
0.11663035 1.328337 0.3526232
-0.733085 -0.24887949 0.9207815
0.42223418 0.72727007 -0.8651648
0.59253675 -0.24446464 -0.40406042
0.72370064 0.9456195 -0.27876478
0.58450484 1.3831959 -0.6072971
0.35189173 1.3914478 0.07998069
-0.8090542 0.6378894 -0.31220675
-0.7772224 0.4842549 -0.18546814
0.39327797 -0.4113797 -0.76182824
-0.6261052 0.589329 -0.28005782
0.7013586 1.391213 0.28981847
0.7242749 -0.41592395 -0.18405913
0.7324231 1.4539232 0.092201166
0.7383768 -0.08252256 0.64992964
-0.6199471 -0.25453356 -0.6163511
0.025899626 0.9088471 -0.082764566
-0.25503337 -0.4088497 -0.2644102
-0.38150233 0.14810401 0.23555902
0.19382656 -0.05145198 -0.504439
0.15374331 0.54355776 0.7632805
0.11480048 1.6457055 -0.57945096
0.47271794 0.9030297 -0.3298325
-0.6458549 -0.08036843 -0.7412778
0.15052477 1.5988362 0.21812093
-0.5502861 0.21046779 -0.11574882
0.31154364 -0.24752821 0.62302065
0.01567832 1.741997 -0.42570502
-0.31589597 0.6646948 0.3693847
-0.34049648 1.533836 0.09383948
0.90021205 -0.40766776 0.32623714
0.21999487 1.055932 0.18413845
0.022678915 -0.24342449 0.76953745
-0.7578961 1.1603446 -0.45178205
-0.5074476 0.984601 -0.24965093
-0.52273357 1.1367987 0.42112136
0.26838273 0.6768058 0.18255514
0.6729126 0.6254345 -0.36900502
0.5688859 -0.18885572 -0.043398567
-0.68375564 0.36124444 0.14841697
-0.57613856 0.72046125 -0.46110502
-0.2960444 0.6956305 -0.034751244
-0.26224422 1.6177492 -0.54580265
-0.8197808 1.2050924 -0.27808115
0.19305375 0.8075907 -0.13523082
0.6936563 1.4989433 -0.30617553
-0.93103635 -0.25519636 0.6356745
0.48195067 -0.41378042 0.905207
0.72929335 1.0921912 -0.11444131
0.16615865 1.4209251 0.1537291
-0.33561283 -0.058632214 -0.07597759
0.0072412556 1.2970662 0.75136244
-0.75881886 1.378976 -0.18181142
0.06101363 1.0190227 0.31286526
-0.17304847 0.7265861 -0.5757121
0.06924105 -0.062333327 0.2628767
0.1273815 0.4634806 0.4614818
-0.12657098 -0.4130031 -0.61151916
0.25305635 1.4588761 0.36851516
0.90063477 -0.40625525 -0.48719662
0.1830521 1.3509094 0.5185238
-0.43234152 0.98736596 -0.07945468
0.37747645 1.3020831 0.43584558
-0.18144542 0.38200524 0.37456048
0.1210769 0.39529413 0.1383479
0.4660306 1.2485876 -0.25194246
0.7317539 -0.4186836 0.022738164
0.016244061 0.52269816 0.61073357
0.05944356 1.5097859 0.37796685
-0.26590872 1.2863324 0.27489224
0.0054469984 1.0640066 -0.96166134
-0.27053997 0.6101892 -0.8724485
0.114580005 1.6150119 0.5047066
0.5938287 0.25642103 -0.36954254
0.8972571 -0.4078834 -0.2856311
-0.5740911 -0.41125202 -0.31756082
-0.01985617 0.28241593 0.29399535
0.02948495 -0.09028074 -0.9163308
0.58592844 0.97809744 -0.013353985
0.08369224 1.7425823 0.30986515
-0.70452356 0.45534354 -0.39426374
-0.18830703 -0.40968972 0.61262643
0.56641376 1.3329585 0.14151636
0.22186425 1.1504016 0.40579253
-0.39259344 0.11792524 0.021363031
0.5770056 0.6907797 -0.5455092
0.025728175 0.92336524 0.12701505
0.76011455 -0.24101141 -0.73905176
-0.12633714 1.486517 -0.16911957
-0.32078427 -0.41490784 0.73910606
-0.08764883 -0.41447586 0.75611323
-0.61945903 -0.25064033 0.72812915
-0.10330388 0.73149776 -0.7662555
-0.2539265 -0.256962 -0.9244128
0.7280866 -0.41301584 -0.58091646
-0.5982669 -0.24384898 -0.42329395
0.7908344 0.5512055 0.26484382
-0.1379255 -0.061726384 -0.5986141
0.02825604 1.2417505 -0.69959277
0.71983224 0.44662023 -0.44685915
-0.35098094 1.1265049 -0.001901149
-0.14056063 0.7759106 -0.39913946
-0.5530636 -0.09080334 -0.9162482
0.2588101 0.96021175 0.3895673
-0.84502137 0.7085005 0.10705514
-0.27299654 -0.22639167 -0.3772472
0.5271945 -0.4106778 -0.89902365
0.42046064 -0.2336322 -0.4672329
-0.7018928 -0.4178594 -0.7999127
-0.32049805 -0.25125256 0.9235599
0.37562758 -0.4117571 0.22105053
0.025068404 0.6857015 -0.10507816
0.080935895 0.35577792 -0.5315408
0.81488836 1.3586936 -0.048922766
0.7003404 -0.41698328 0.8784658
0.52643216 0.16189948 0.02085736
-0.5604619 -0.07056813 -0.3336444
0.66607904 0.5790188 -0.17690203
0.5482456 1.631327 -0.27958214
-0.058678202 1.0713439 -0.7747615
0.66268516 0.39113504 0.3299222
0.09964445 1.4070206 -0.6053747
0.8957156 -0.40583444 -0.88135326
0.6051072 0.5033804 -0.6317699
-0.7677249 0.55837774 0.22495332
0.43711197 0.90393305 0.34950462
0.54695076 -0.2537449 -0.77738297
-0.35950917 -0.08844355 -0.9139755
-0.07738042 0.3624913 -0.78521
-0.028330281 0.3879043 0.47427472
-0.22011366 -0.2274667 0.18430287
-0.23689553 1.2260377 -0.17697752
-0.03579148 0.5659982 0.78205454
0.16145325 0.8471887 0.24808279
0.3162741 0.4031549 0.4268596
-0.924521 -0.24815089 0.0058267517
0.008811172 0.24093065 -0.41205782
0.0887119 1.4482613 0.6642577
-0.81770134 1.214162 -0.08721244
0.4128949 0.9163935 -0.6984265
-0.08623273 0.77728903 0.012694858
-0.61628455 0.78115386 -0.27433863
0.57249004 1.435482 0.4308539
-0.028706815 0.18357521 0.48052657
-0.51848423 -0.4182481 0.71177167
0.7264069 0.853169 0.121408686
-0.2780955 1.5574412 -0.3181318
-0.61770225 0.5274285 -0.0883715
-0.16532469 1.184021 -0.008721768
0.5176455 0.714558 -0.30275714
0.90375674 -0.08654763 0.32878357
0.24746206 -0.24050345 0.4440512
0.27896255 0.819782 -0.35813025
-0.537727 0.5030812 0.5262364
0.13546395 1.7907283 -0.26270354
0.011560993 0.3490615 0.6646639
0.09903934 0.14531103 -0.5630878
0.51946074 1.1820035 -0.045469616
0.3306063 0.71991616 0.58596385
0.6199186 -0.24760002 -0.60411924
