0.5913408 2.1876502 0.6168035
0.44661206 1.3499496 0.07437648
0.45521045 2.3688083 0.37818146
0.747723 -0.2513225 0.7558232
0.38201845 1.8288184 0.60242236
-0.6064964 1.812052 0.4477489
-0.0029580342 1.0794764 -0.3805075
0.6532489 2.003199 0.6325091
0.28359783 2.6438212 -0.47605926
0.77508193 -0.24851954 0.93402606
0.46297413 -0.08454101 -0.7274312
0.005576374 -0.41650736 -0.46861836
0.02439008 2.2670622 0.13487196
-0.75059545 1.9360057 -0.089096956
0.29166377 2.2437005 0.3505902
0.10148324 -0.24543753 -0.52864945
0.2925498 1.2886845 0.22339079
-0.3347713 -0.08475204 -0.58157426
0.09973932 1.5260983 -0.36658818
-0.9054047 -0.09586022 0.7356243
0.46565706 2.5787768 0.4277149
-0.6097866 2.3549647 0.029418785
-0.46739042 -0.25260824 -0.92460406
0.42736655 -0.081461065 0.6446024
0.20147511 1.2799032 -0.6165377
0.86048335 2.1894217 -0.08783453
0.87387943 2.033928 -0.19646761
-0.28978845 1.9038382 0.024935521
-0.21519338 2.5016325 -0.3500185
0.17783889 1.0507679 -0.22949263
-0.44174743 2.205967 -0.14214404
-0.76469386 1.6886222 -0.43808442
0.0027850168 -0.084838346 -0.12854987
-0.74648416 2.3943038 0.17464915
-0.7242213 -0.08354181 -0.42201674
0.31426233 1.9892685 -0.4570581
-0.59228814 -0.4154654 -0.10629699
-0.3687526 2.1696482 0.6547775
0.09476262 2.2664037 -0.40651393
-0.30180424 1.686188 -0.22201917
-0.060103457 2.1367834 -0.48515627
-0.2516091 2.009248 0.67202634
-0.75360155 -0.07769517 0.22212464
0.20480648 1.4642689 -0.7658087
-0.05463023 -0.08803202 -0.7616953
0.7569045 -0.2501372 -0.49193144
-0.55658984 2.070848 0.7156606
0.59164464 2.2429628 -0.6094939
-0.10361923 -0.2463429 -0.4608034
-0.16840142 1.981708 -0.7388892
-0.11350642 -0.080686055 0.18877357
-0.78915435 2.060761 -0.43458903
0.3750503 1.8557158 -0.008101663
0.13504058 2.2628083 -0.021943115
0.19214761 1.8267605 -0.53094244
0.9233985 -0.24710223 0.0072472384
0.027893387 1.5485976 -0.8321396
0.81516635 1.665938 -0.33901197
0.6903485 2.5019178 -0.017780058
-0.25977063 1.0467072 -0.10405187
-0.4385255 2.2806115 0.48402083
-0.12815876 -0.24524844 -0.2641312
0.85716903 2.0491877 0.29663408
-0.7188374 -0.42048994 0.7751621
0.33468837 2.0133076 0.8428538
-0.4969795 -0.4191056 -0.73012865
-0.749694 1.8806629 -0.50044405
0.120736584 1.1900132 0.17369945
0.2751089 1.6448846 0.8260405
-0.56351656 -0.084395096 0.5514027
0.75149393 -0.08741229 -0.58927274
0.8218143 2.0156403 -0.36812288
-0.1273565 2.449895 -0.51538783
0.28518534 1.0566374 -0.018271064
-0.025296334 -0.414648 -0.7661358
0.73180616 -0.41808826 0.64653134
-0.154243 1.6259739 -0.8441719
-0.5032462 1.6742502 -0.5100259
-0.017447341 1.7980323 0.42949653
0.564237 -0.083756074 0.10903905
0.20757568 -0.4163132 0.2929229
-0.35326907 -0.41688383 -0.58656746
-0.37404716 2.1100402 0.81455445
0.11220129 2.2838569 -0.8257873
-0.89062965 -0.09846632 -0.91187406
-0.78208727 1.9114225 0.45697364
0.090332046 -0.42098865 -0.2520788
0.38767815 1.9958851 0.13561633
0.4600564 1.2135432 0.33648518
-0.06172999 -0.08136125 0.5726619
0.11411154 2.6162972 -0.20385465
0.11143935 2.070842 -0.099273056
-0.763362 -0.24083135 0.32728463
-0.5031286 2.6330752 0.25158834
0.4132892 2.0343301 -0.080813944
-0.51852083 1.3295316 0.4557131
-0.87064075 -0.082521096 0.022684176
-0.5334296 1.6840085 -0.034086253
0.7343503 1.9876776 -0.5199555
-0.21131498 2.293224 -0.5968186
-0.21093428 2.4819877 0.6806606
-0.34435648 2.7401466 0.15820624
0.5367224 1.7150764 -0.7111213
0.33008593 2.4952612 0.33301502
0.6694352 1.8360722 -0.6115972
-0.40301943 -0.08755666 0.44813603
-0.6210283 -0.09149709 0.9181012
0.41199118 -0.08234102 0.4333374
0.59826934 -0.26365963 0.901129
0.9207415 -0.24594012 -0.39118996
-0.89807343 -0.40687102 0.10868712
0.7430715 1.8827429 -0.043694198
0.9187739 -0.24659717 -0.19281062
0.49781114 1.3857934 -0.52602696
-0.53421056 -0.4201434 0.4752767
-0.18146771 1.089345 -0.29543704
-0.70576227 -0.41474956 0.39998513
-0.13780066 1.3912493 0.14639476
-0.34809244 1.9731046 -0.44229537
-0.8990484 2.0689964 -0.03930242
0.006217421 -0.41606995 0.5819057
0.10791618 1.1856624 -0.031291973
-0.6930356 -0.077811286 -0.014349939
-0.7137209 -0.41719264 -0.62344
0.023783311 1.7312397 -0.6908864
-0.896393 -0.40738958 0.7213754
-0.9027562 -0.091735214 -0.5303333
-0.61326396 -0.2503348 -0.21236289
-0.35527593 1.9150234 -0.8392372
0.42886704 -0.25443918 -0.92445827
-0.5806321 2.4087129 0.5044057
-0.00044323396 -0.41708565 0.3761902
-0.25336257 1.5667771 0.8041154
0.33350772 1.9899421 -0.84111243
0.40419564 2.3232644 -0.5094362
-0.51712877 2.3904424 -0.16462955
-0.5236174 -0.24472882 0.9142696
-0.49052674 -0.2544449 0.11696439
0.61277515 1.8426156 -0.38157123
0.0040413076 2.3843005 0.32425964
-0.06417642 1.194854 0.10056852
0.080451444 1.0766637 0.33969122
-0.26174918 -0.41901314 -0.749523
0.40157843 -0.2686509 0.9242114
-0.24600473 2.3222666 0.5717165
0.39667016 -0.08334838 -0.5343355
-0.17568952 1.9883608 -0.5339575
0.82833755 1.5581002 0.05975779
-0.4744311 2.3817677 0.3302629
0.3761825 -0.07572068 0.87647384
-0.09056017 1.6698166 0.8645475
0.26456392 2.3000035 -0.28893888
0.31533223 2.7023199 0.34883654
-0.35539478 -0.25480482 -0.7718496
0.7367164 -0.08079522 0.21590918
0.2686903 1.9573107 -0.14476588
0.38978535 1.808743 0.8105351
-0.47057658 2.5597997 0.4442769
0.55609274 -0.4231292 0.12834501
-0.7079331 2.0698984 0.53593075
-0.14188993 2.0775976 0.4567784
-0.0329986 -0.24965781 -0.6346356
-0.5477607 -0.08407224 0.74727404
0.7844913 2.353361 -0.16882594
0.1633924 1.5870612 -0.030104138
0.9100046 1.9711187 -0.029592138
0.5204811 1.4224095 -0.10973111
0.5839189 2.349022 -0.2510591
-0.08612393 2.6173644 -0.20972246
0.3534245 1.2560977 -0.50542426
-0.09146633 -0.4170402 -0.13871619
-0.74514735 -0.4155986 -0.21582471
-0.2719286 -0.4167061 -0.05961455
-0.28651732 1.4819567 0.25178486
0.9032253 -0.089138046 -0.89705205
-0.3711186 -0.41100645 -0.9019783
0.11872505 -0.25383562 0.31956214
-0.8961996 -0.091222584 -0.33370808
-0.02867494 1.8090183 -0.193313
-0.19806825 1.388243 0.7069418
-0.67140657 1.7044876 0.12706465
0.034404114 2.8226235 0.08031382
-0.09917332 2.3136063 -0.38504207
0.9260597 -0.24612756 0.22160882
0.16028605 -0.4142871 0.4655251
-0.034529984 -0.2566406 -0.9150375
-0.9148586 -0.259905 -0.87263536
-0.16462775 -0.41472694 0.26035917
-0.7003817 1.5806124 0.47303993
0.023977008 1.9396527 -0.7638197
-0.25603157 2.2740219 -0.797938
0.696967 1.758366 -0.20543207
-0.35192317 1.1515452 -0.34961903
0.6368742 2.2754369 -0.07895725
0.44595936 -0.23911846 0.75770605
-0.009664519 2.3033469 0.6280335
-0.4126976 2.5541039 -0.499182
-0.11899497 -0.25117505 -0.062745735
0.74110025 1.8149946 0.5222638
-0.26559848 1.0549033 0.12892896
-0.17982301 -0.42114374 0.44812053
0.25524348 -0.083338045 0.5416671
-0.28899866 2.0731866 -0.09658855
-0.30453357 2.2977197 -0.28186244
-0.5024921 2.3184757 -0.34064096
-0.40576112 1.9139478 0.81185603
0.32982177 1.4889481 0.7313746
-0.54873157 -0.083537854 -0.54717946
0.09358607 -0.08194476 -0.66638726
0.19916281 1.8995805 0.09045507
-0.8100699 2.1178856 0.38403988
0.365446 1.7904824 -0.6303707
-0.69612306 1.7446733 0.5742623
-0.4562114 2.0581605 -0.58746266
-0.12286341 1.9172794 0.5456176
0.04125337 -0.26067397 -0.1852603
-0.77156556 -0.2423471 -0.10431765
-0.017484115 2.551342 -0.3678319
-0.32669187 1.9223356 -0.22035474
0.26007786 1.9619787 0.672729
-0.26129258 -0.25306082 0.38107154
-0.50838983 1.410067 0.1910007
-0.53432286 2.0182598 0.18809956
0.22664699 1.0479846 0.16299477
-0.12799178 2.2721062 0.23364379
-0.9034951 -0.4040174 -0.1096068
-0.5807165 -0.405922 -0.91577697
0.52819014 1.5007203 0.6042615
0.084496886 2.1483376 -0.6988238
0.2505151 2.3923192 -0.74213815
0.43327087 2.313097 -0.69869953
0.060014993 2.257516 -0.1965268
0.35435992 -0.08375254 -0.18558711
-0.5176743 -0.42151737 0.26412827
0.097705714 -0.082441196 0.4545897
0.042908095 1.0197414 0.14357126
0.88219404 1.8340095 -0.21365896
0.66660166 1.3385715 -0.2366674
0.7369927 -0.08608024 -0.9048057
-0.43027553 -0.25568026 -0.47628576
0.21450591 2.7957163 0.050010793
0.09337063 -0.24152568 -0.030712377
-0.2149227 -0.41414675 -0.45238888
0.4013543 1.551497 -0.23145288
0.3846901 2.0518875 0.35189018
0.3373857 -0.42132142 -0.58892787
-0.3050605 1.335005 -0.6294329
-0.50001776 2.6763911 0.05302381
0.42871946 -0.41279557 0.6202768
0.5274929 2.6530952 0.01929117
-0.08284253 -0.08532723 0.3827861
0.37736377 1.7918968 -0.43036526
-0.30703965 2.7824564 -0.042093262
0.23823571 -0.4011631 0.9138268
-0.20314544 -0.08118294 -0.40902948
-0.10536535 1.0507656 0.2536322
0.14010361 1.651199 -0.5106286
0.39112595 2.0971456 -0.2972272
-0.6458719 2.2716012 -0.1447754
-0.2840672 -0.25128338 -0.16784889
0.825115 2.2045631 -0.30099517
0.54675436 -0.4127121 -0.5022192
-0.44498873 1.7968051 0.32983658
0.11391115 1.9593534 -0.42604434
-0.37823132 -0.25825417 0.23941287
-0.44308585 -0.086621754 0.24977714
-0.20410407 2.04046 -0.31836015
0.8939607 -0.09410183 0.90804136
-0.0982818 1.4640031 -0.35956913
0.9289507 -0.24913028 0.8566164
0.08546521 2.4204416 -0.28162682
0.21429248 -0.41561255 0.09975471
-0.12080774 1.8586719 0.74419
0.37202752 2.7406318 0.112871006
0.18417402 1.137354 -0.42562062
0.67677104 2.1663122 -0.25111836
-0.49161917 1.6983461 -0.23642728
0.43683726 2.3107793 0.6972704
0.7341184 -0.41617268 0.42686105
-0.56910104 2.1783159 -0.66955936
0.525421 -0.08174757 -0.33347258
-0.5401764 1.9664059 -0.734833
0.723487 -0.41628194 -0.39411768
-0.89798266 -0.09286082 -0.14423233
0.7658176 1.4345348 -0.08783623
-0.8679299 -0.094937496 0.91381556
-0.8793695 2.065446 0.16839302
-0.20608108 1.7979419 -0.122692354
0.27041614 1.4716965 0.118496776
-0.24235019 1.2205763 0.008830372
0.3343064 2.5733714 -0.1738213
0.28925174 -0.2493946 0.21665075
0.07307349 1.7348571 0.09634537
-0.18012922 1.7227768 0.5285618
-0.108701535 -0.25958586 0.9191923
0.5179651 1.9094348 -0.74974656
0.71592 2.1836877 -0.47922587
-0.11506583 2.4422338 0.4936151
0.21190941 2.2259786 0.16081406
-0.1828885 2.1666756 0.8496852
0.26616192 2.091723 0.036385372
-0.17213437 1.6328137 -0.6444916
-0.5413662 1.2446845 -0.29381526
-0.7540127 -0.41324654 -0.003820338
0.12020022 2.1253412 0.69926476
0.71501374 -0.08377077 -0.20147139
0.72262 -0.08189721 0.003238087
0.48774773 2.4462566 -0.11437945
0.70546615 -0.4151289 -0.7635265
0.30305868 1.6938548 0.056881443
0.25299734 2.4093995 -0.13396513
0.5250696 1.2097814 -0.1979967
-0.45853573 -0.083219096 -0.7358066
0.57273203 1.2323248 0.16264944
0.27198976 1.6511749 -0.35938814
0.7073722 2.3592067 -0.37858093
-0.47368962 2.4634595 0.13960916
-0.76463366 -0.24797739 -0.31998438
-0.425247 -0.4165094 -0.18568271
0.7724407 1.6611425 0.38540608
0.35349643 2.2998939 0.004683573
0.16722 1.8750298 -0.8998585
-0.7714698 -0.25338328 -0.5270001
-0.3336358 2.3761892 -0.4688744
0.26426995 -0.4111882 -0.28078592
-0.6409361 1.5269408 0.14059407
-0.687714 1.9816153 -0.2890234
0.4305094 2.0330997 0.5588867
0.10187495 -0.24186528 -0.76501584
0.24653497 -0.08592223 0.3289045
-0.13729677 1.9327068 0.3209194
-0.5943953 1.883642 0.012921952
-0.89135593 -0.4115222 0.32562858
-0.8584285 -0.40509498 0.90676093
-0.71712434 2.326128 0.37105379
0.34914148 -0.41766915 0.7798605
0.6579253 1.6471887 0.5641985
-0.5735317 -0.2510721 -0.7878088
0.23036908 -0.24128568 -0.18887113
-0.8938782 -0.4051785 -0.7336744
-0.42197514 2.2885547 -0.69730616
-0.23684251 1.790246 0.37323365
0.629392 2.5652165 0.1520614
0.549956 2.0726864 -0.17152222
-0.6135162 -0.24359313 -0.014121899
0.72841525 2.0053196 0.13963854
-0.89769155 -0.4073735 -0.3273422
0.7985839 1.8275526 -0.42205405
0.27075222 1.1257443 0.3475727
-0.6474644 2.5477037 0.11810355
-0.7351773 -0.4148479 0.21520804
-0.4102726 1.696943 0.78066343
-0.7405335 -0.08493462 -0.60422724
-0.2130432 -0.41211727 0.9009042
-0.66065264 2.2377105 0.5482707
0.88228935 2.1242223 0.09865666
-0.7466208 -0.24229655 0.115801275
-0.026658919 1.4641795 0.31109035
-0.455567 2.512919 -0.055843536
-0.53933173 1.4610188 -0.20997179
0.20375043 1.6430619 -0.68127215
0.19079265 1.8315403 -0.72454476
0.29075795 2.1945424 -0.8148321
-0.5462134 -0.41688246 -0.5268518
-0.4339131 1.9615725 0.61022556
-0.26092458 -0.084882036 0.31239456
-0.9027457 -0.09496183 0.35231027
0.09674239 -0.0832367 0.6719116
-0.44976676 -0.25053245 -0.08771375
-0.6789127 2.353889 -0.41595685
0.45245957 1.5578561 0.10385662
0.38847315 -0.08174031 0.010061713
0.12792744 1.1876307 0.5176629
0.78363115 -0.2424441 0.1150233
0.48657793 1.6622062 -0.06387322
0.18772379 -0.07808025 -0.8777578
-0.4104384 2.3169537 0.021219313
0.6030266 -0.24684356 0.42389905
0.30378222 1.7091444 0.4120862
0.48099464 2.4832766 0.20183821
0.121707976 -0.251434 0.14641853
0.6854877 2.202888 0.1011496
0.5506058 2.0831175 0.2099674
0.009929793 1.9596196 -0.59292626
-0.02533815 1.7037742 0.2686203
-0.39920187 -0.4182959 -0.38927293
-0.7266722 -0.08892469 0.62574935
0.5509201 -0.41575044 0.33210838
-0.90055555 -0.0927936 0.54426944
-0.629869 2.4905114 0.31144
0.028949164 -0.4165628 0.18645194
-0.6720878 2.006279 -0.60861087
0.75036466 -0.25101894 -0.2999217
0.37345946 1.5229719 0.45170984
-0.020585094 1.8444247 0.9127903
-0.9192189 -0.26825425 0.22237992
-0.21924543 -0.09191571 0.9022235
0.1357842 2.117399 -0.51434994
-0.8487148 -0.40622145 -0.9146143
0.32324752 1.7282944 -0.16109934
0.22323005 1.4810749 0.30166608
-0.6031152 -0.4104485 0.09885351
0.4674809 1.572957 -0.42646652
0.21273915 2.6139264 -0.02576448
-0.3983705 2.1095734 -0.30021918
-0.9255222 -0.24612245 -0.6475612
0.89418507 -0.086003475 -0.29159015
0.6243362 1.5146978 0.020018471
-0.71015537 2.1147537 -0.12648332
-0.31739318 1.9419671 0.44484723
0.20829919 1.517222 0.55687755
-0.5075168 2.276641 0.6766614
-0.037274726 -0.08535146 -0.31112936
0.50547874 1.7591692 0.11522351
-0.5335481 2.273694 0.1968465
0.1271533 1.6147618 0.38199717
-0.7290858 -0.41701913 -0.42592353
0.39843822 -0.41826147 -0.39843038
-0.07333217 -0.08357717 0.75972116
0.1577694 2.0578804 0.8863418
-0.4825043 -0.08380677 0.03729538
0.54379797 -0.42153758 -0.6806525
-0.3990326 -0.08199969 0.6464487
-0.015225261 2.455964 0.12655583
-0.7234013 1.3633235 -0.014303635
-0.44439057 -0.41634881 0.020563329
0.18709843 1.4668009 -0.56415033
-0.693534 1.3671011 -0.21650518
-0.10367304 2.7117019 -0.4276871
0.42371726 1.4147068 0.2784945
0.5411154 1.849533 -0.12018368
-0.04737009 -0.249248 0.10365516
0.582918 -0.08400049 0.5338118
0.08983117 1.6688709 0.8659875
-0.69328475 -0.41254753 0.59818137
-0.24853697 1.7749609 0.8649376
0.5168136 2.2400885 -0.37735352
-0.8875781 -0.08773108 -0.7355536
0.89706266 1.9010944 0.15153675
-0.5996293 2.1802063 0.36396664
0.18323691 2.3118153 -0.6010843
-0.08134807 -0.41331112 -0.32153177
-0.29086336 2.126457 -0.63357186
-0.2262201 2.594719 -0.56448114
0.5672046 1.8658864 0.51863027
-0.3992836 -0.084187984 -0.4229898
0.2581576 -0.1821826 0.9290221
-0.7667868 -0.24211384 -0.74236584
0.69068253 2.1308765 0.30423248
-0.45018163 2.2084098 -0.4866062
-0.34469163 1.9410317 0.2268296
-0.31654915 2.4465656 0.42700183
-0.32739836 1.5096216 -0.74457693
0.066473015 1.7589735 -0.36003852
0.07387806 1.9218097 0.7643408
-0.6005896 2.163176 -0.3073104
-0.02275933 2.4861062 0.70368814
-0.18927367 2.5832143 0.3659696
-0.020555243 1.3299174 -0.041087564
-0.073206015 2.8244474 -0.103976995
-0.07039125 2.3199008 -0.030781
-0.009383087 1.503725 -0.16558215
0.03931336 -0.08071318 0.057899505
-0.54829246 1.8270777 0.71620727
0.20162931 1.7855054 0.7082983
0.7327069 -0.41724476 0.22401673
0.43224669 -0.2547291 0.07991493
-0.89385056 1.6962106 -0.027744036
-0.52517474 1.4196362 0.0028133695
0.16404182 1.39091 -0.049289122
0.07034854 2.0763679 0.10610627
-0.40975833 -0.08364945 0.8876804
0.27166486 2.1799388 -0.13984185
-0.3417731 2.6853123 0.3677805
-0.49745893 1.79182 -0.74916446
-0.24815392 1.4796724 -0.23727465
-0.9231458 -0.25524485 0.870316
-0.3324132 1.6190908 0.6085266
0.36791968 -0.4188099 0.43542382
-0.24337368 2.0985346 0.27469134
0.046988044 -0.41577056 -0.017838575
0.33157176 1.2205342 0.50818485
-0.46600413 1.8071964 0.1322189
0.19642699 -0.41378808 -0.45326495
-0.4803595 1.5202241 0.33113003
0.18390867 2.4331174 0.06994392
-0.014530288 1.599906 0.4950534
0.84642327 1.6264875 -0.13704872
0.1948426 -0.08043551 -0.07951922
0.6348775 1.2762713 -0.032996718
0.19838451 2.002865 -0.66868484
0.36515802 1.4126189 -0.65714896
0.08445425 1.9377997 0.57135683
-0.13695106 -0.4145347 0.067326516
-0.1833435 -0.08240302 -0.19379878
-0.5537846 1.6331178 0.66190743
-0.537359 2.3816376 -0.566343
0.9014958 -0.40708488 0.11848626
0.82066154 2.24569 0.24619891
0.56910276 -0.41238886 0.7429325
0.05160187 2.4582758 -0.7242187
-0.24824354 -0.2514149 -0.58658314
0.5232802 2.1998582 0.40146956
0.89790523 -0.4083645 0.53236985
0.27819154 2.585888 0.17320715
0.35529798 -0.08705738 -0.9074881
-0.07562562 2.3192472 -0.80636466
0.14443332 -0.0759756 0.8766099
0.018038258 2.650958 -0.020141814
-0.19500558 2.7622437 0.27182946
0.28380704 2.603468 0.5260166
0.61328745 2.494853 0.35068828
-0.5710552 2.030746 -0.43817487
-0.2546903 -0.086424336 -0.7479253
0.7191309 -0.08349565 0.8780656
-0.722662 -0.08160487 -0.21653745
-0.4441743 -0.24829206 -0.6368482
-0.44994795 2.6982155 -0.13314313
0.62288916 2.0497313 -0.64587206
-0.63856757 1.8435569 0.26197702
-0.33685505 1.922286 -0.6537674
0.3469355 1.6096243 -0.5612617
-0.13207394 1.6276237 0.68111134
-0.34781757 1.5720406 -0.55899656
0.36624807 1.1054597 -0.16529857
0.8586947 1.691715 0.19613725
-0.35118234 -0.41994786 0.3540988
-0.33956772 2.4482944 -0.65938324
0.19799532 1.8515248 0.8921593
0.73890793 -0.08247543 0.42861837
0.38390493 2.5230834 0.023207974
-0.9248906 -0.25252384 -0.4309442
0.43851548 2.4669235 0.57261384
-0.20013598 1.2347887 0.5626093
-0.88204837 -0.41386902 0.52543473
0.506075 1.9227781 -0.52201355
0.48253566 1.6813529 0.5061528
-0.37414193 1.2088495 0.4357956
0.47579768 1.6423221 0.7267082
-0.15390651 -0.25559694 -0.7623836
-0.70960486 -0.26086205 -0.9265342
0.3969558 2.1882908 0.19633028
-0.082870916 -0.24334136 0.64346504
-0.16162917 -0.090351894 -0.9156195
-0.86885023 1.9045532 0.28124225
0.07299861 1.3669333 -0.24733824
0.5772228 -0.08657198 0.74785364
-0.03961315 1.79363 -0.5162972
0.18409231 2.7753015 0.24414656
0.24094135 -0.41885406 0.6144215
-0.48857996 1.4358597 -0.59209657
-0.3169877 1.4915731 0.06508862
-0.5778383 2.5768576 -0.23269081
0.036921166 -0.24597302 0.47424036
-0.6516473 1.9293637 0.6139578
-0.7984059 1.7308502 0.3734132
0.7511884 -0.2524336 -0.09391293
-0.25406897 2.178085 -0.43914402
-0.054291792 2.097279 0.2534668
0.7148878 -0.08396433 -0.39647266
-0.6774986 2.2043047 -0.51978016
-0.8220193 1.5354667 0.07312268
0.5689388 -0.082490325 0.32132268
0.2543075 2.4192786 -0.45834386
-0.11105847 2.4038951 -0.21155936
-0.26921958 2.6032925 0.5418565
0.40812206 2.42645 -0.3104378
-0.5260114 1.9725001 0.4026567
0.27469975 1.2468607 0.041526508
-0.23387587 1.237014 0.21268934
-0.42840543 1.7899456 0.5397776
-0.090804234 1.645962 -0.27140427
0.3187355 -0.23728067 -0.78030246
-0.16163099 1.5932866 0.35314256
0.62719774 -0.27496356 0.07429891
0.6517736 -0.24875271 0.24653108
-0.39856407 2.4817762 -0.29200333
-0.15069148 2.4654703 -0.7116047
0.10195609 -0.4148441 -0.6231914
-0.18676847 1.836112 -0.89054954
0.64587617 -0.24415582 -0.9179739
-0.66081357 1.4270201 0.36502236
-0.5974669 -0.2631973 0.27472544
0.57523125 -0.4147805 0.52461684
-0.15146764 1.9991047 0.09472285
0.30407757 2.166738 -0.63093317
-0.0007967694 1.7657589 0.6533299
-0.6985986 2.0167358 0.29133463
-0.18553329 1.4869869 0.5344181
0.89698714 -0.09010569 0.73357594
-0.5685836 2.503795 -0.40007812
-0.5844091 -0.08812907 0.3571596
0.35920575 1.1540841 -0.33977497
0.3096785 2.1386547 0.668592
0.26459348 2.234881 0.8196547
0.68250215 1.9134586 0.3298834
-0.18488061 1.5947406 -0.07570863
-0.1430803 1.6045477 0.13732669
-0.6237579 -0.24761128 0.4870173
0.13429868 1.6571398 -0.2137923
0.9186598 -0.24982855 0.64441216
0.14708456 2.0729249 -0.8819169
0.4121892 -0.25054276 -0.29044852
-0.58082604 1.2283223 0.09556341
-0.48054487 -0.2612282 0.5948824
-0.35996288 1.4597125 0.46871257
0.9254105 -0.24782369 0.43769634
0.5971075 -0.25073087 0.6486051
-0.5576221 2.1627176 0.014548743
0.52584106 1.9035635 0.2393638
0.84531426 1.839709 0.33677572
0.12241118 1.2879603 0.33963448
-0.4063418 1.5605038 -0.34195197
-0.77902794 -0.25454533 0.53263915
0.23104218 2.7513595 -0.28862846
-0.015214112 2.577483 0.32798332
0.54267293 -0.08645755 -0.9098374
0.1950801 1.3220915 0.6487332
0.09751672 -0.25828514 0.9268402
0.6555871 -0.082372546 -0.7408459
-0.0041127717 2.10661 -0.2945875
-0.10572899 1.0129528 0.022440027
0.47271666 2.1202898 -0.75231373
0.1504513 -0.08257638 -0.2850588
-0.784949 -0.25409925 0.7266097
-0.7402617 -0.08128058 0.4351841
0.50028443 1.9502316 0.74430645
0.1934124 2.091753 -0.30051202
0.09278619 2.1814394 0.3164026
-0.39983532 1.4865545 0.7000932
0.58603513 -0.2448382 -0.22162816
-0.21778153 1.9692296 0.8801726
0.7771716 1.9966224 0.47214252
-0.59949636 1.6560631 0.29775685
-0.1671797 2.6809711 -0.035615966
-0.62017775 -0.4043755 0.9049834
0.22378424 -0.24461403 -0.3738074
-0.5919504 1.3841912 -0.4224721
-0.42662174 2.6661181 -0.31564283
0.782503 -0.24774542 0.3393605
0.91548735 -0.24211231 -0.59388936
-0.15464056 -0.086776614 0.0037302068
0.024937086 2.1240816 0.5321226
0.3339734 -0.0836083 -0.3599751
0.5895786 1.793175 0.686696
0.54728574 2.3757527 0.057566382
-0.7054819 2.0525813 0.058464676
-0.40433317 2.1087983 -0.7918764
0.8991854 -0.4076457 -0.08740774
0.6782199 1.485872 0.45201528
-0.16883719 1.458323 -0.55290043
-0.38242102 1.3321702 0.30385792
-0.3418939 1.4390564 -0.4472726
0.052706797 -0.25536695 -0.35713196
0.7034948 1.6562636 -0.5301003
-0.50576174 1.8704485 -0.5390161
-0.059640653 2.053989 0.70730114
-0.67870283 2.187349 0.17547873
0.27655262 -0.08130759 -0.6964022
-0.894602 -0.40678686 -0.53556967
0.011843538 1.5391163 -0.64701307
-0.28677377 1.8127415 0.66338235
-0.048081733 1.6150267 -0.4758938
0.892452 -0.4081115 0.73371875
0.22546023 -0.08286226 0.12354981
-0.22902974 1.6253514 -0.41606182
0.05995495 2.461183 -0.08519179
-0.44749975 -0.25050408 -0.28490686
0.90072155 -0.08816696 0.53290176
0.8882463 -0.40107936 0.90666544
-0.059403203 2.1297998 -0.04980193
-0.5131171 1.6349795 0.4783824
0.57499754 2.5319638 -0.34368736
0.3041361 -0.4034319 -0.9167731
-0.29918242 2.418073 -0.12341431
-0.5623083 1.2552519 0.28828508
-0.38185686 1.7708825 -0.3953536
-0.14775467 -0.4096016 -0.9086356
-0.17268492 2.4338477 0.27693176
0.40742263 1.6375597 0.26657638
0.28736115 2.4365816 0.6943188
-0.3663492 -0.41536075 0.5478897
0.54022 1.4544339 -0.30470055
0.20453587 -0.4137399 -0.7607595
-0.1333709 2.6156425 0.1539276
-0.5327754 -0.083701976 -0.14485738
0.5389051 -0.100753285 0.9164858
0.72951293 1.3728578 0.11246334
0.53743184 -0.07166691 -0.12726226
-0.21113697 -0.25704843 0.7664292
-0.039778233 1.9588873 -0.918772
0.120504454 -0.41902453 0.7529119
0.26691347 -0.2447921 0.012067023
-0.3266449 -0.41829434 0.15423036
0.22312096 1.2429919 -0.19811694
0.001356483 1.752845 -0.8892094
0.24462429 -0.25631583 -0.6149398
-0.11382225 2.3416142 0.79479325
-0.0538216 2.617764 0.57422584
-0.22284308 2.0799727 -0.87259626
-0.45090258 -0.2570808 0.40828633
-0.15252621 2.813467 0.09513021
-0.12778878 -0.25789145 0.4811648
-0.35425436 1.7389607 -0.6275369
0.07724782 1.553474 0.17224622
0.23193319 -0.2624768 0.77589583
0.9332993 -0.24792561 -0.7823901
0.44447124 -0.2537647 -0.6222706
-0.3023433 -0.25288153 0.030928273
0.29674357 2.1987867 -0.43749547
0.7229465 -0.3996525 -0.9191016
-0.71716225 2.4250226 -0.23798366
0.08651464 2.6201668 0.15396169
-0.37783483 1.3067045 0.102950245
0.17994791 2.5603778 -0.6170559
-0.9267133 -0.26012015 0.42986882
0.45747826 -0.24729657 0.528554
0.40765554 -0.25372815 0.3580083
-0.9132849 -0.105557814 0.1724956
-0.5036916 1.6079733 -0.6983076
0.40205222 1.1225905 0.16814943
0.37609908 1.345251 -0.29292113
-0.3083828 -0.084730744 0.12317248
0.018556196 -0.082095906 -0.47793347
0.6825154 1.705148 -0.0036099316
-0.40777332 -0.24027526 0.7606076
-0.264309 1.2435222 -0.19621044
-0.065608695 -0.25014442 0.29463398
-0.22983359 2.403158 0.08629468
-0.43178 1.8261809 -0.1031241
0.7612736 1.4987094 -0.2817104
0.90306234 -0.08596164 -0.49075258
-0.31432116 2.1183872 0.49413034
0.10032501 1.6153936 0.68181276
-0.3146427 2.3137453 0.76232696
0.51471937 1.3468385 0.47220188
0.22900581 1.4745407 -0.22066115
-0.6507795 1.7666762 -0.62239534
-0.19448975 1.1650352 -0.49300015
0.38956583 -0.41938746 0.015694747
0.08404419 -0.4050502 -0.91147506
-0.15281156 2.1963155 -0.22131737
-0.7360554 1.732291 -0.047253855
0.38381222 1.375168 0.61134887
0.013109098 -0.41098374 0.90854675
-0.03300946 2.0356236 0.90322155
0.4796703 2.6558557 0.24095464
0.40070224 -0.0829692 0.21684578
-0.42230654 2.1323168 0.31767064
0.042503443 1.3551475 -0.7156878
-0.46967477 1.5977101 0.12966801
-0.19503132 1.8026087 0.1896292
-0.096273765 1.1672599 -0.10099281
0.26884997 -0.087793216 0.7321825
-0.9116788 1.8874477 0.058907017
0.47115067 2.1312504 0.75506943
-0.7489041 1.8838221 0.12316653
-0.0030046273 2.7795851 0.27323198
-0.7305283 -0.08537779 -0.9020462
0.41146886 -0.41908064 -0.1822403
-0.11205551 1.3237911 -0.22213583
0.13098782 -0.25441867 0.61244345
0.8949955 -0.08672376 -0.0931443
0.8891156 -0.08187744 -0.70818037
0.56346047 -0.41438857 -0.29530093
-0.1609452 2.1863472 0.6448631
-0.49178728 1.909605 -0.3054514
0.3357308 1.8357779 0.2316849
-0.2942227 -0.24582559 0.58190274
-0.39879405 1.3585488 -0.29026723
-0.42172742 1.2666514 -0.4828366
0.37839657 1.5919434 -0.76261246
-0.6490879 1.5585732 -0.5452128
0.55368155 1.5488763 0.36259162
-0.639751 2.5600286 -0.06907215
-0.08446096 2.2519674 0.43359333
-0.60513353 -0.093880445 0.15931386
-0.7330539 -0.08407919 0.7996347
0.49808854 -0.24873742 0.22734112
-0.038341478 1.0164046 -0.18104827
0.17959662 1.3191668 -0.39781144
0.19178851 1.6677991 -0.85968745
-0.024030797 2.607627 -0.59533966
0.7349898 2.1799574 0.47919655
0.31514987 1.4589063 -0.42846912
-0.36050183 -0.08442162 -0.2538368
-0.83023524 2.2363758 0.23892163
0.15735662 1.7493943 0.5242116
-0.12010047 1.2795265 -0.62859964
-0.42314875 1.1328623 -0.17308491
-0.83834195 1.864788 -0.33366108
-0.5740594 1.5729082 -0.38018778
-0.40605634 2.449875 0.6172401
-0.20272481 1.4019066 -0.05625725
-0.10959521 2.7208705 0.43692106
-0.9243107 -0.25430995 -0.21974508
0.56838524 -0.40729195 -0.078270175
-0.8697485 2.0540814 -0.24159998
0.8576808 -0.25085106 -0.929235
0.46855232 2.1188436 -0.5251569
-0.2221396 1.3127973 -0.39975527
-0.398729 1.5494015 -0.10706349
-0.33062372 1.6750175 0.22401056
-0.12223795 1.9761236 -0.1456976
0.043997943 1.1877311 -0.23003554
0.57552415 2.0320473 0.43365192
0.7542106 -0.25011957 0.54212904
0.8948934 -0.4077767 -0.68469656
-0.058191977 1.9362247 -0.37639827
-0.39831984 1.3311424 -0.09634425
0.3679487 2.4815125 -0.6167196
0.40892786 -0.254522 -0.10781169
0.4127534 2.6686203 -0.3120355
-0.23451102 1.120491 0.36620277
-0.23306736 -0.08337867 0.5154172
0.2215148 -0.4121178 -0.09608741
0.0977335 1.0097106 -0.039548095
0.6463768 1.6321799 0.19011453
0.35789105 2.7498975 -0.103377
-0.90022755 1.8671311 -0.1462893
-0.025035888 -0.09609915 0.9155197
0.89432573 1.7594601 -0.0013384791
-0.021910591 1.5054058 0.02778744
-0.24761868 -0.08462321 0.7159263
0.3677269 1.3157606 -0.104801595
-0.31426558 2.5795777 0.04090239
0.34339625 1.5132332 -0.05669879
0.19554695 -0.24534841 -0.9266157
0.083262905 1.9352609 -0.22516406
-0.22325516 2.773076 -0.23860708
0.5708375 -0.084205195 -0.5424858
-0.33502072 2.3033304 0.21062323
0.4425028 2.5486412 -0.46767122
0.5851123 2.0439296 -0.38400018
0.9007127 -0.08573571 0.109794
0.5880461 1.740866 0.34360766
0.5793095 1.4477208 0.18683797
-0.36274016 1.3323605 0.5957538
0.22399487 2.5407252 -0.33307022
-0.42576122 -0.40840733 0.8966764
0.117488846 2.2899034 0.45659328
-0.7330655 -0.25107896 0.9185586
0.3610717 1.7885437 -0.82619166
0.5681662 -0.24555281 -0.422854
0.6908226 1.9494908 -0.23371702
0.57010746 2.4060402 -0.5152076
0.35061097 2.370503 0.18073846
-0.84560895 1.6925287 -0.24267113
-0.8155019 1.5231273 -0.1345248
0.3942642 -0.41098422 -0.7652433
-0.66714454 1.6367997 -0.22494376
0.7083428 2.3352728 0.37636435
0.7286882 -0.41701794 -0.1896403
0.73019147 2.4166386 0.18843473
0.7379321 -0.083175816 0.6496511
-0.615497 -0.25268024 -0.6152574
0.019991014 1.9204102 -0.01475583
-0.25447744 -0.41467148 -0.2584951
-0.41414443 1.1385676 0.23091996
0.20578098 -0.085012764 -0.49736047
0.13909766 1.4602015 0.78068864
0.10166429 2.693665 -0.45141727
0.4397068 1.9157355 -0.27723885
-0.6485647 -0.08129029 -0.7416531
0.16319373 2.57199 0.34263235
-0.583355 1.2354386 -0.09804313
0.31711152 -0.24975419 0.61756074
0.011242521 2.7816749 -0.28457126
-0.33596957 1.6372046 0.41417724
-0.33025438 2.534122 0.23555142
0.90155095 -0.407702 0.3244022
0.21371365 2.028464 0.25794846
0.031036709 -0.24240577 0.77343917
-0.7867474 2.2272437 -0.32558998
-0.53359264 2.0201855 -0.1513727
-0.5143305 2.108547 0.5267136
0.21737601 1.6729089 0.21506459
0.63200796 1.6413908 -0.35776824
0.5708678 -0.20437306 -0.048796263
-0.713646 1.369066 0.18124747
-0.6193477 1.790453 -0.38429624
-0.31816506 1.7009273 0.023076884
-0.27781466 2.678585 -0.399787
-0.84197354 2.254546 -0.1469565
0.16330889 1.8013856 -0.0820424
0.67635 2.4998076 -0.19804743
-0.93185806 -0.2564531 0.6373031
0.48768437 -0.41432083 0.9066546
0.7066847 2.0756257 -0.054465547
0.16608134 2.3980591 0.2640468
-0.33449137 -0.08392553 -0.07109571
0.029944789 2.2176597 0.8513431
-0.76853865 2.4159198 -0.034870706
0.053989798 1.9906175 0.38648576
-0.22778822 1.8031787 -0.5149716
0.06744413 -0.08517283 0.25195557
0.10536789 1.4144415 0.46809906
-0.12777667 -0.4160441 -0.6122253
0.26628333 2.4090354 0.48275143
0.89992154 -0.4067507 -0.48716208
0.1945968 2.2921793 0.620633
-0.44555065 1.9969904 0.009385258
0.38724425 2.2418153 0.5270459
-0.20576459 1.3514965 0.3824341
0.08532789 1.3645847 0.14487773
0.44311845 2.2534685 -0.170616
0.73693216 -0.41938877 0.018256346
-0.00018896809 1.4605587 0.6263826
0.07686685 2.4721384 0.49765363
-0.26512605 2.2679956 0.3810529
-0.039339654 2.1478448 -0.8762734
-0.33146435 1.7034289 -0.816691
0.14057991 2.5551589 0.63930213
0.5339236 1.2760348 -0.38323337
0.89726806 -0.40799463 -0.2884168
-0.57474744 -0.41517094 -0.31609207
-0.05360267 1.2493503 0.29166025
0.031856 -0.09087524 -0.91558635
0.56768084 1.9508829 0.038936317
0.10669309 2.7041955 0.45577294
-0.74768317 1.5097721 -0.34219095
-0.18748862 -0.41242358 0.621386
0.5672198 2.2952676 0.22996604
0.22149396 2.1055865 0.4872138
-0.42988122 1.1201055 0.01924615
0.5266984 1.7232859 -0.5206027
0.011194725 1.9012334 0.19612342
0.7631761 -0.2413202 -0.74220407
-0.13162254 2.5053594 -0.040374134
-0.32456595 -0.41512305 0.73941296
-0.08352291 -0.41440484 0.7607384
-0.614296 -0.2526325 0.72501564
-0.153681 1.8090985 -0.7053215
-0.25349653 -0.2559327 -0.92338294
0.73128974 -0.4140454 -0.58457947
-0.6045945 -0.24961302 -0.4220463
0.7700599 1.5036967 0.260727
-0.13191164 -0.08422699 -0.59161556
-0.011655066 2.3038692 -0.6011707
0.6619009 1.4658566 -0.45014167
-0.36544645 2.1286895 0.103977546
-0.18655351 1.8205642 -0.3315916
-0.55094993 -0.09035836 -0.9134856
0.25576615 1.9188546 0.45521152
-0.8671492 1.7192106 0.17894186
-0.27909255 -0.24629451 -0.37502718
0.5280522 -0.41100633 -0.89925
0.3710093 -0.25336593 -0.46936357
-0.70115083 -0.41820562 -0.7969361
-0.31895223 -0.25278324 0.92549765
0.3839386 -0.41715932 0.22306143
-0.011279127 1.6777549 -0.06712264
0.018268602 1.394248 -0.50888914
0.810711 2.3347044 0.037267905
0.7034074 -0.41703925 0.87944955
0.47864026 1.1502601 -0.0075251446
-0.5588119 -0.08483136 -0.33321056
0.629127 1.5808337 -0.16686499
0.53553677 2.6341376 -0.16192259
-0.1035597 2.1430855 -0.68640006
0.6355211 1.3400434 0.31650227
0.07249117 2.4558997 -0.49379748
0.8958744 -0.40724164 -0.87884015
0.54420865 1.5408796 -0.62519276
-0.78785825 1.5553813 0.27541807
0.43143672 1.8609805 0.39828378
0.5441153 -0.2536751 -0.77805686
-0.3579024 -0.08792707 -0.9110582
-0.14286727 1.4373918 -0.75873375
-0.05023764 1.3368953 0.48044115
-0.2089132 -0.24650669 0.17824303
-0.2529438 2.253039 -0.07205628
-0.04889053 1.483758 0.80550355
0.14975524 1.8264067 0.31194225
0.2895935 1.3506806 0.42585674
-0.9241938 -0.24919303 0.0062768324
-0.03860493 1.2601882 -0.39118987
0.11462098 2.3761854 0.77891076
-0.8298603 2.2425966 0.043308068
0.37277693 1.9779465 -0.64752483
-0.11228998 1.7924924 0.037222143
-0.6460122 1.823144 -0.18970688
0.5910809 2.362461 0.5311765
-0.058532063 1.1393228 0.46889228
-0.5195515 -0.41927007 0.70716226
0.7076613 1.8131962 0.16054834
-0.2836978 2.5976863 -0.1770611
-0.64633393 1.543046 -0.059055574
-0.18224409 2.1860938 0.088019185
0.48500362 1.7214252 -0.2721482
0.9031714 -0.08673082 0.32178533
0.2510099 -0.25023478 0.44341812
0.2423842 1.851891 -0.30527008
-0.5523956 1.4663217 0.5627501
0.1364879 2.8067057 -0.12045397
-0.009726795 1.2833219 0.66560745
0.03488703 1.1925776 -0.5534289
0.50180113 2.1634402 0.02503395
0.31871152 1.6467167 0.61730665
0.6269893 -0.251229 -0.61515164
