0.5867095 1.4710728 0.55130994
0.47849184 0.5744128 0.092031054
0.44817695 1.6164603 0.29577738
0.74717826 -0.2514456 0.7543992
0.395244 1.0984039 0.56842005
-0.59000593 1.0385234 0.41274485
0.041323036 0.25110906 -0.34977892
0.6544255 1.2898396 0.58573806
0.27320907 1.8126254 -0.5720199
0.7731017 -0.24853267 0.9325049
0.46510842 -0.08487512 -0.7285801
0.0037116064 -0.41655505 -0.47289005
0.022862762 1.4809103 0.06428997
-0.73576415 1.10377 -0.13896966
0.29111862 1.4805975 0.28138793
0.09911272 -0.24434665 -0.5347432
0.3246172 0.5225367 0.24596062
-0.33573404 -0.08425318 -0.58174515
0.12956795 0.69832546 -0.3681354
-0.9045199 -0.0948821 0.7325483
0.4586859 1.8228414 0.3352602
-0.61222064 1.5334725 -0.06107944
-0.46400982 -0.25136358 -0.925913
0.4279416 -0.08200737 0.64355737
0.23983072 0.43343827 -0.59540683
0.8675604 1.406239 -0.14583927
0.88689345 1.2399855 -0.2344364
-0.28048855 1.1024268 -0.016782925
-0.21741736 1.658123 -0.44370824
0.22008684 0.23827869 -0.19260716
-0.43444234 1.3768739 -0.21238065
-0.740401 0.8227745 -0.45587072
0.0041363533 -0.076466635 -0.12896723
-0.7498797 1.5816112 0.08329187
-0.72556627 -0.084150836 -0.42616427
0.33069402 1.1594019 -0.49616814
-0.5932347 -0.41525978 -0.11115143
-0.3617857 1.4134325 0.5734987
0.10311682 1.4332776 -0.47351766
-0.2719824 0.86844003 -0.23187968
-0.05260651 1.2916844 -0.5414754
-0.24696527 1.2627797 0.61804056
-0.7507504 -0.07837461 0.22049534
0.24325311 0.604285 -0.7588103
-0.056172065 -0.088455275 -0.76287115
0.763587 -0.25020018 -0.49130177
-0.55748194 1.316879 0.65201485
0.6084757 1.4125644 -0.6590628
-0.09983203 -0.24697241 -0.46063733
-0.14419031 1.1081877 -0.7795934
-0.107848406 -0.078345545 0.18057638
-0.7739637 1.1894407 -0.49422902
0.3888653 1.0731966 -0.04996352
0.13639951 1.4620134 -0.09085624
0.21795091 0.9857183 -0.56149435
0.9248443 -0.2476817 0.009240155
0.06543198 0.67534184 -0.83460176
0.8382137 0.85701466 -0.34502962
0.6864505 1.7175498 -0.11044024
-0.2230997 0.23431477 -0.07411666
-0.44105768 1.5064948 0.40639147
-0.12058259 -0.24257253 -0.26742136
0.8630945 1.3037838 0.2525154
-0.7194092 -0.42062774 0.773919
0.3322825 1.3073335 0.7926172
-0.49836433 -0.41861582 -0.7346794
-0.72779334 1.0049274 -0.5394249
0.15528809 0.4133773 0.1995783
0.29306018 0.93106824 0.80893564
-0.564254 -0.08588603 0.5381775
0.7470621 -0.08724932 -0.5855111
0.83958936 1.2011601 -0.40316543
-0.12268795 1.5971142 -0.6019609
0.31885034 0.26655146 0.016244464
-0.020064851 -0.41437227 -0.767931
0.7306865 -0.41829664 0.6464145
-0.11866481 0.74543977 -0.85618246
-0.46765667 0.80188894 -0.5205686
-0.0011408557 1.0349228 0.40291226
0.56428397 -0.08498152 0.10987281
0.20229545 -0.41658276 0.28856987
-0.35431325 -0.41632617 -0.59727883
-0.38068634 1.3755813 0.7453461
0.123960465 1.4131799 -0.89433897
-0.8901911 -0.09808415 -0.9142952
-0.7722225 1.1256595 0.41096303
0.082955815 -0.4228177 -0.25065917
0.397986 1.2188311 0.08965981
0.49162418 0.4616117 0.3613884
-0.063806266 -0.08161311 0.5692661
0.10233738 1.800437 -0.30242044
0.12333585 1.2561991 -0.1493477
-0.7637054 -0.2432327 0.3249569
-0.5188309 1.8341396 0.1383658
0.4205808 1.2505686 -0.12828232
-0.48721066 0.5554904 0.46949995
-0.8682574 -0.08206184 0.021589663
-0.5091877 0.86832803 -0.064768
0.75336194 1.1545944 -0.5532228
-0.19938964 1.4316378 -0.6728107
-0.22533318 1.7367156 0.58272773
-0.36070758 1.9363742 0.03969577
0.56648934 0.8703822 -0.7252108
0.32418078 1.736805 0.23843569
0.69172573 1.0016962 -0.6358237
-0.4025979 -0.08744784 0.43064034
-0.6178518 -0.09105776 0.9161949
0.4136309 -0.08292094 0.42823553
0.5961907 -0.26492268 0.8996991
0.923445 -0.24555019 -0.39138943
-0.8973242 -0.4067616 0.10664666
0.755082 1.1001177 -0.074272975
0.9205797 -0.2460671 -0.1911608
0.53457344 0.55695903 -0.51058316
-0.5360756 -0.42165357 0.48288113
-0.13435969 0.26497954 -0.26754177
-0.70993817 -0.41502184 0.40028378
-0.10217102 0.60458624 0.15631211
-0.32907024 1.1164045 -0.4902616
-0.8900367 1.2327757 -0.10131976
0.00494669 -0.4158172 0.580135
0.14611869 0.39317065 -0.0058429097
-0.69240284 -0.07895999 -0.024390332
-0.71633506 -0.4177193 -0.6289707
0.052140087 0.86732006 -0.7153957
-0.8966096 -0.40693438 0.71961063
-0.90363264 -0.091963015 -0.5306854
-0.6101556 -0.25095212 -0.21414411
-0.3319217 1.0197473 -0.87558126
0.43136466 -0.25410184 -0.92584413
-0.59013474 1.6306517 0.4136701
-0.005846599 -0.4176245 0.37172666
-0.2327173 0.83668923 0.7934847
0.35471803 1.1307693 -0.8802718
0.40755817 1.4895746 -0.5737502
-0.5169598 1.5549436 -0.2544917
-0.52354467 -0.24477082 0.91211367
-0.4714871 -0.2542696 0.10671583
0.6320616 1.0261006 -0.4062005
0.0006613183 1.6130638 0.24084437
-0.025688803 0.40418577 0.12575781
0.11651233 0.31192458 0.37322837
-0.25628713 -0.42011118 -0.7558834
0.3980267 -0.2664276 0.9229604
-0.24956642 1.5658531 0.48984015
0.38280618 -0.08163437 -0.54450744
-0.15765637 1.1267014 -0.5775906
0.8495194 0.7879301 0.06407681
-0.4863439 1.587744 0.24253026
0.37902796 -0.07514708 0.8730302
-0.07519181 0.9541264 0.84634477
0.27693993 1.4810312 -0.36266816
0.30248958 1.9394319 0.23946527
-0.35398117 -0.25862232 -0.77141404
0.73751795 -0.08147167 0.21594387
0.28903556 1.1538177 -0.19783536
0.3988877 1.1014949 0.7804359
-0.48640317 1.779042 0.3367967
0.553053 -0.42391717 0.12803116
-0.7066407 1.2932473 0.47012043
-0.13366583 1.3121355 0.39727804
-0.03442678 -0.25010306 -0.6376078
-0.54328007 -0.083728895 0.74008834
0.7848335 1.5583558 -0.2477965
0.19125213 0.79485 -0.033004083
0.92157364 1.192733 -0.06186387
0.5509709 0.6221268 -0.10144364
0.58618426 1.545037 -0.3269884
-0.09741507 1.7925894 -0.31214416
0.3918051 0.42697206 -0.48257548
-0.09393046 -0.41680735 -0.14261669
-0.7461629 -0.41594627 -0.21817894
-0.2713161 -0.4168898 -0.0690315
-0.26233512 0.6862256 0.25282127
0.9032841 -0.08829525 -0.89820075
-0.36863616 -0.41049016 -0.90387017
0.11865835 -0.25447658 0.3179521
-0.8958937 -0.0917515 -0.333979
-0.009542997 0.9907567 -0.23073944
-0.16714647 0.65062237 0.7189174
-0.6498141 0.891616 0.09859303
0.016899865 2.0263386 -0.040295284
-0.093925446 1.4736128 -0.460111
0.926996 -0.24644823 0.2237954
0.15654254 -0.41473013 0.46068892
-0.02904347 -0.25559044 -0.9168974
-0.91504776 -0.25875008 -0.87428284
-0.17362005 -0.41468275 0.2554564
-0.6782967 0.80290866 0.46066436
0.045706466 1.0677516 -0.800254
-0.23879021 1.3871201 -0.87154776
0.71469843 0.9585148 -0.22261974
-0.3106488 0.30887544 -0.30964953
0.6407789 1.4859627 -0.14745016
0.4451995 -0.24024636 0.7567148
-0.013213055 1.5596082 0.5497037
-0.41444227 1.6879494 -0.601591
-0.11538935 -0.2477514 -0.07202062
0.7516937 1.0880516 0.49685675
-0.22678857 0.26295713 0.16374174
-0.183876 -0.42167065 0.44395912
0.2595635 -0.083578736 0.53718287
-0.27937055 1.2507663 -0.1577607
-0.29773283 1.4563103 -0.35768515
-0.49517253 1.4657269 -0.42126745
-0.40168124 1.178669 0.76546514
0.3561939 0.7700006 0.7267029
-0.55018985 -0.0840797 -0.5515777
0.093786746 -0.08148569 -0.6733117
0.20959282 1.122144 0.04602603
-0.80940837 1.3219323 0.31561303
0.39398527 0.9362761 -0.6554801
-0.6795913 0.9754058 0.5451586
-0.4406498 1.1850668 -0.6411773
-0.11107016 1.1630051 0.50432485
0.04482367 -0.2571265 -0.18634881
-0.7684522 -0.24462512 -0.10582946
-0.020583251 1.7133906 -0.45997304
-0.3043511 1.0882936 -0.2684198
0.26785251 1.2324086 0.6250754
-0.26279563 -0.25106072 0.37880182
-0.47511116 0.60794127 0.19942757
-0.53054184 1.220083 0.12971637
0.2651425 0.27190542 0.19783339
-0.127534 1.4843249 0.16776147
-0.9014312 -0.4049428 -0.10895811
-0.577881 -0.40414867 -0.91826904
0.5429037 0.7748691 0.61010724
0.10026863 1.2921879 -0.7599244
0.25828964 1.5321431 -0.81954
0.44472378 1.4624982 -0.76312125
0.06764035 1.4386187 -0.26542264
0.3588742 -0.08489105 -0.18690403
-0.52618563 -0.41878772 0.27942345
0.098964036 -0.08354963 0.454884
0.0820135 0.2363891 0.18165302
0.9004496 1.0374043 -0.23267084
0.7001915 0.5380429 -0.2174044
0.7375134 -0.085862786 -0.904735
-0.42379338 -0.25867718 -0.48246163
0.19946714 2.0023947 -0.061747395
0.095102444 -0.2354312 -0.032425977
-0.21747293 -0.4141304 -0.45987856
0.4368324 0.7410703 -0.23141494
0.38988584 1.29111 0.30087608
0.33954823 -0.419693 -0.58579814
-0.26910844 0.470452 -0.61202395
-0.5124488 1.8593154 -0.06257719
0.42463315 -0.41299862 0.6168684
0.51483655 1.866276 -0.08382784
-0.08092554 -0.08623492 0.37887716
0.398127 0.96551347 -0.4583568
-0.32547694 1.9616524 -0.16195214
0.23695648 -0.39926767 0.9138485
-0.20258406 -0.081420235 -0.41039
-0.068601504 0.2734754 0.28930604
0.16511871 0.8093504 -0.52404904
0.40668106 1.2871292 -0.35050926
-0.6406803 1.432813 -0.22887316
-0.27855515 -0.24843702 -0.17452267
0.8325809 1.3974874 -0.35717142
0.5471922 -0.41308957 -0.49892718
-0.42435747 1.0070639 0.2986338
0.13457586 1.1250484 -0.46936435
-0.3817055 -0.2566368 0.24554631
-0.44333094 -0.08563956 0.23619415
-0.19076997 1.2076868 -0.37411806
0.8941951 -0.094606586 0.9074379
-0.056819383 0.63165736 -0.35285938
0.9296974 -0.24928439 0.8577102
0.08927683 1.594436 -0.36316463
0.20710766 -0.41446823 0.097282805
-0.109758474 1.1260266 0.70865107
0.3596143 1.9578567 0.006129192
0.22651404 0.30932117 -0.39698932
0.68164855 1.3633085 -0.3074747
-0.46549952 0.8661606 -0.26029858
0.42608052 1.5882461 0.6237582
0.7322641 -0.41641265 0.42702323
-0.55275285 1.2932968 -0.73873615
0.5264856 -0.08316953 -0.33155936
-0.51650715 1.0780914 -0.7812587
0.72594464 -0.4172194 -0.39271164
-0.89753985 -0.09333191 -0.14532182
0.79250574 0.6509799 -0.073572084
-0.8680564 -0.09433611 0.9122683
-0.8726417 1.2483687 0.10529944
-0.17522211 0.99572945 -0.13977517
0.29402715 0.69129395 0.1251783
-0.20138021 0.42001003 0.033352107
0.32685912 1.7686682 -0.26442763
0.28480023 -0.24870141 0.21047646
0.1058552 0.9506538 0.080947205
-0.16527143 0.96797884 0.5037532
-0.11021883 -0.25939584 0.91848105
0.541245 1.0626411 -0.77963555
0.7332871 1.3489782 -0.53018093
-0.12739554 1.6835909 0.4002099
0.21182762 1.4453504 0.094552144
-0.19161278 1.4391248 0.77951914
0.2736807 1.3051271 -0.018137313
-0.14139853 0.7636851 -0.65874034
-0.50604236 0.4038244 -0.27266008
-0.74676394 -0.41435838 -0.0016277268
0.122233205 1.3924298 0.64057624
0.7162732 -0.08436073 -0.19867069
0.7234341 -0.08230659 0.0054514473
0.4857791 1.6498408 -0.19532537
0.70580554 -0.41551912 -0.76466644
0.32624418 0.91933763 0.03632939
0.25178725 1.602551 -0.21539769
0.56118774 0.40985587 -0.16781017
-0.45580816 -0.08286602 -0.74092525
0.6051427 0.46677727 0.18872717
0.29784065 0.82527155 -0.371125
0.707437 1.5382165 -0.46188408
-0.48593867 1.655299 0.046532564
-0.76180935 -0.24889779 -0.3219318
-0.42583984 -0.41562372 -0.19757485
0.7900349 0.91221845 0.38200426
0.35430092 1.5078752 -0.067014046
0.19480461 1.0032903 -0.9297316
-0.77187693 -0.2535571 -0.52845657
-0.3283822 1.5175538 -0.55351883
0.2546504 -0.40965676 -0.28256142
-0.6148821 0.7163745 0.15026805
-0.6717222 1.1288155 -0.34161863
0.43485928 1.2981834 0.5069466
0.106133655 -0.24214071 -0.76424193
0.24562135 -0.086925596 0.32449853
-0.1289311 1.1513231 0.27628744
-0.57890105 1.0649643 -0.0303897
-0.891821 -0.41124868 0.32317406
-0.85845697 -0.40471867 0.9057479
-0.7237839 1.5306418 0.28763536
0.34544355 -0.41747716 0.7772728
0.6705305 0.9220506 0.5576769
-0.57440805 -0.24997196 -0.7920494
0.23171508 -0.23873737 -0.19894889
-0.8944391 -0.40434164 -0.73690987
-0.40713274 1.4061475 -0.7744687
-0.21450248 1.0024083 0.33494484
0.6223718 1.7947669 0.051242862
0.5621029 1.2686298 -0.21698374
-0.6082622 -0.24661997 -0.011204837
0.7386919 1.2443166 0.09287879
-0.8974718 -0.40752876 -0.32912642
0.81984144 1.0093471 -0.44087616
0.30371138 0.3659096 0.3768086
-0.65814406 1.732287 0.010554154
-0.7325939 -0.41479167 0.21098366
-0.39547694 0.9586643 0.7583245
-0.7431593 -0.08524839 -0.6089023
-0.21442342 -0.41079575 0.901875
-0.6626656 1.4623039 0.47449043
0.88909245 1.359815 0.046554703
-0.74965227 -0.24280408 0.11129908
0.0038112288 0.68680656 0.31719542
-0.46349242 1.688308 -0.15571487
-0.5134542 0.62844825 -0.19375241
0.23357028 0.7876195 -0.69101757
0.21746412 0.9732764 -0.75064737
0.30652952 1.3322561 -0.87219
-0.54695827 -0.41697693 -0.5326896
-0.42826167 1.201953 0.55819035
-0.2556031 -0.08364983 0.30466086
-0.90271914 -0.09526548 0.34835482
0.095379636 -0.082918525 0.66954935
-0.44408426 -0.248072 -0.09656277
-0.67284894 1.4847467 -0.5040814
0.46766698 0.7906929 0.109516434
0.38868487 -0.081801385 0.009053444
0.15909527 0.44122964 0.5432153
0.78301257 -0.24323717 0.11692256
0.50920194 0.8737814 -0.077305734
0.19247717 -0.07904838 -0.88516134
-0.40912688 1.5069895 -0.059434235
0.5992279 -0.24712749 0.42448962
0.31185848 0.9455604 0.3913858
0.47160894 1.7162225 0.10589367
0.113724284 -0.24704215 0.14479277
0.6893734 1.4334763 0.040303186
0.5567807 1.3160207 0.16178189
0.031170893 1.1190166 -0.636073
-0.027828999 0.9384687 0.24060662
-0.40052104 -0.41896975 -0.39738125
-0.7224273 -0.08835776 0.6260489
0.5482303 -0.41593045 0.33132637
-0.89930516 -0.092548124 0.5410747
-0.6413535 1.6930946 0.21208373
0.021384686 -0.41597557 0.18223721
-0.6522181 1.1209953 -0.66180104
0.7560181 -0.2515035 -0.29439342
0.40636405 0.77620715 0.45150775
-0.010477237 1.134132 0.8776129
-0.9198375 -0.26762432 0.22107235
-0.22000498 -0.09165767 0.9015758
0.14534765 1.2784753 -0.5711274
-0.8500687 -0.4050481 -0.91649485
0.34090114 0.91641927 -0.17886657
0.24942736 0.72339404 0.31215447
-0.58407927 -0.41242278 0.101992175
0.4947223 0.7503959 -0.42738557
0.19956046 1.8161466 -0.12551278
-0.38844 1.2649199 -0.36265028
-0.92540115 -0.24554092 -0.64836407
0.89520586 -0.08606593 -0.2905324
0.6394912 0.735016 0.02266569
-0.70102906 1.2776995 -0.19270441
-0.30099854 1.156914 0.40352827
0.2324762 0.7804278 0.54557747
-0.511163 1.5169241 0.59881806
-0.030210977 -0.085061654 -0.31498632
0.5239537 0.9920794 0.082143694
-0.53370297 1.4682223 0.11321112
0.1262148 0.8589933 0.36147195
-0.7295739 -0.41693813 -0.4306118
0.39294297 -0.4171989 -0.3974843
-0.077999175 -0.08324875 0.7557522
0.15053396 1.3428812 0.83453894
-0.47818577 -0.08342454 0.025918797
0.54595685 -0.4212486 -0.6781812
-0.40167797 -0.083082624 0.6283573
-0.02086452 1.6656715 0.037256498
-0.6913737 0.5411694 -0.0052471906
-0.4394527 -0.41553837 -0.0019504002
0.22400415 0.62230575 -0.55748636
-0.66181797 0.52855456 -0.20811804
-0.11392383 1.865469 -0.5354968
0.4489761 0.66221195 0.28797728
0.557498 1.0571749 -0.1500754
-0.055425525 -0.24612607 0.093023956
0.58182067 -0.08395465 0.531772
0.10602687 0.95590425 0.8460042
-0.69276226 -0.41234404 0.5988947
-0.23746729 1.050869 0.83508706
0.52528155 1.422157 -0.4420153
-0.88876027 -0.087699555 -0.7376504
0.9079753 1.1424222 0.1266649
-0.6011493 1.3918936 0.2931034
0.19659111 1.4656823 -0.6707412
-0.08289215 -0.41208494 -0.32721907
-0.27510297 1.2568313 -0.69184226
-0.22864506 1.7323827 -0.6641917
0.57831 1.1369987 0.48061335
-0.40190756 -0.08573459 -0.42408055
0.25669962 -0.17244779 0.92882663
-0.7674691 -0.24113667 -0.7460951
0.69472766 1.3874974 0.24858508
-0.44236457 1.3446081 -0.55728793
-0.34565812 1.159956 0.18700871
-0.32877955 1.669083 0.33134544
-0.2925275 0.6307106 -0.7460159
0.08597727 0.9272866 -0.3894135
0.0834695 1.1945837 0.7231281
-0.59054315 1.3100638 -0.37771153
-0.037539557 1.7474122 0.60712016
-0.20685002 1.8068935 0.25830874
0.01433802 0.5322492 -0.023080107
-0.0924284 2.0061746 -0.22443247
-0.06790752 1.5124416 -0.109872684
0.021816771 0.69458896 -0.16111475
0.042867128 -0.07100111 0.054328762
-0.53760827 1.0750899 0.6794039
0.216946 1.0588069 0.6777585
0.7315203 -0.41762194 0.22446352
0.43023214 -0.25588655 0.07762383
-0.8708573 0.859823 -0.04815755
-0.4954716 0.6016599 0.012739383
0.19732332 0.5981226 -0.0381219
0.07443124 1.2888175 0.04950641
-0.4103921 -0.08339776 0.88577294
0.2739211 1.3770654 -0.20384532
-0.36102948 1.9023402 0.25151128
-0.47267967 0.9042729 -0.777444
-0.2135098 0.6509943 -0.23092644
-0.92457855 -0.25460505 0.87178516
-0.3145605 0.87042975 0.5954429
0.3642603 -0.41952705 0.4316845
-0.2386916 1.311319 0.21374637
0.04014896 -0.41406354 -0.018726364
0.35894686 0.4742034 0.52846766
-0.4500749 1.0047089 0.10032625
0.19207838 -0.415709 -0.45404994
-0.45687062 0.7369305 0.32280368
0.17758486 1.6422853 -0.014986724
0.0031575728 0.8434757 0.49094063
0.86960435 0.8389582 -0.13911499
0.19583206 -0.0749501 -0.08855409
0.66732585 0.49175668 -0.00854931
0.2143403 1.1519775 -0.7154459
0.40320876 0.5678052 -0.6458534
0.093760476 1.193351 0.52982813
-0.14661662 -0.41486228 0.065243244
-0.17752275 -0.07763365 -0.20023635
-0.5354649 0.876287 0.6447895
-0.5303627 1.5053203 -0.6542922
0.9018816 -0.40700817 0.11985378
0.8225582 1.4930133 0.1803368
0.5661588 -0.41246498 0.7407445
0.059002582 1.595437 -0.8056809
-0.24688408 -0.25140852 -0.5899476
0.5219351 1.453533 0.3375317
0.897806 -0.40767467 0.5316249
0.26456735 1.8085523 0.074165076
0.36139065 -0.087082624 -0.9092212
-0.061232798 1.4494355 -0.8752825
0.14030331 -0.07508886 0.87279797
0.0038329335 1.8458626 -0.123581804
-0.21444388 1.9769008 0.15236905
0.2690814 1.858161 0.42225224
0.6072253 1.7435447 0.2507215
-0.55555737 1.1644433 -0.4927979
-0.2550068 -0.08751153 -0.7501602
0.7200316 -0.08345741 0.876671
-0.7227564 -0.08240212 -0.22125837
-0.44922063 -0.24289487 -0.64013493
-0.4633791 1.8644922 -0.2510987
0.6430806 1.2140515 -0.6856109
-0.6227667 1.0464818 0.22334956
-0.3129341 1.0509675 -0.69263804
0.37518635 0.7673886 -0.56483936
-0.112130746 0.8924154 0.6682379
-0.3072264 0.7104348 -0.569352
0.40689802 0.30533072 -0.1315265
0.87355554 0.93592596 0.1892384
-0.3546579 -0.4199344 0.35565943
-0.33362418 1.5720191 -0.7498405
0.20889366 1.140495 0.8557528
0.737669 -0.0834202 0.42638746
0.37140858 1.7326064 -0.0685844
-0.924525 -0.25237477 -0.42979127
0.41860896 1.7293994 0.48989075
-0.16384035 0.4830755 0.587389
-0.8823981 -0.41295576 0.5243553
0.5255221 1.0914083 -0.5569088
0.501287 0.94689804 0.48516858
-0.33739477 0.4392711 0.46492147
0.49440455 0.935526 0.7123529
-0.15165624 -0.25647074 -0.7664881
-0.7098108 -0.2608933 -0.9295902
0.39888617 1.4153436 0.13496327
-0.08880953 -0.24230361 0.636858
-0.15881538 -0.09016034 -0.91835105
-0.8571354 1.0999808 0.23488519
0.10943653 0.5516639 -0.2271161
0.57839847 -0.08755933 0.74624205
-0.006386038 0.95709896 -0.5583415
0.16563055 1.998963 0.13268687
0.23619671 -0.4183119 0.6108204
-0.45569426 0.5661112 -0.5914391
-0.2886671 0.6853188 0.06445725
-0.58539826 1.7283068 -0.34187397
0.03331174 -0.24757539 0.46903008
-0.6451615 1.1644058 0.56654733
-0.78084266 0.94063884 0.34735864
0.7515372 -0.25338897 -0.08971988
-0.2472234 1.3283212 -0.5067241
-0.049705394 1.313952 0.1965934
0.71642125 -0.08379622 -0.39329284
-0.66579354 1.3255007 -0.5933554
-0.79543734 0.71461856 0.06973164
0.56899023 -0.08273378 0.31875527
0.2563941 1.5890431 -0.53458965
-0.10947098 1.5789049 -0.29625094
-0.28913864 1.8390583 0.432198
0.40935886 1.6159046 -0.38678467
-0.5113001 1.1919262 0.3475218
0.30797043 0.46461666 0.069620505
-0.19598025 0.45370036 0.23580605
-0.41571826 1.023232 0.5100515
-0.06682799 0.81808543 -0.28000444
0.31978387 -0.23837106 -0.7815136
-0.13500336 0.8072486 0.3474341
0.6257225 -0.2781371 0.07450628
0.64981914 -0.24957654 0.24792781
-0.39942175 1.6361327 -0.38751307
-0.14525723 1.5962551 -0.7981394
0.10545484 -0.41445476 -0.6245334
-0.15763608 0.94911975 -0.9211086
0.6472881 -0.24363837 -0.9205748
-0.63248074 0.6391946 0.37064195
-0.5963106 -0.25816643 0.2549225
0.57249546 -0.4147957 0.5236833
-0.14458227 1.2004702 0.042646825
0.31815803 1.3154961 -0.68794906
0.0147707295 1.0275028 0.6271496
-0.6906525 1.2183886 0.23637608
-0.1669504 0.733877 0.54340565
0.89718056 -0.08995202 0.7324362
-0.56950176 1.640279 -0.5008864
-0.58593744 -0.087949604 0.3445844
0.3970114 0.3371275 -0.3100028
0.31116945 1.410194 0.60604894
0.25579953 1.5170422 0.750767
0.6938149 1.1799927 0.28369975
-0.15684481 0.7895466 -0.08150706
-0.13037695 0.80996096 0.13354897
-0.6252803 -0.250632 0.46657687
0.15369761 0.8465402 -0.22831586
0.919587 -0.24881864 0.6445781
0.16219038 1.2014449 -0.9312445
0.41542763 -0.2532704 -0.2898276
-0.5434263 0.41897163 0.11844434
-0.49369526 -0.26154485 0.59456885
-0.3385767 0.69457483 0.47019404
0.9265064 -0.24729064 0.43837735
0.59556615 -0.25115132 0.6453055
-0.5541905 1.3457701 -0.056602716
0.5336874 1.1323043 0.20594364
0.8522813 1.0927606 0.3148821
0.1536606 0.52594304 0.35741395
-0.36725998 0.72728187 -0.32732773
-0.7713339 -0.25404614 0.543666
0.2180175 1.931228 -0.3946186
-0.028747017 1.804635 0.22819328
0.546774 -0.08655486 -0.9113337
0.22218269 0.59100556 0.66366225
0.09652643 -0.25672907 0.92543256
0.6558997 -0.0821231 -0.7382437
0.011263189 1.2795472 -0.35204458
-0.070791245 0.21403015 0.060018145
0.49190563 1.2691579 -0.7985068
0.15255606 -0.082408905 -0.28988987
-0.78981835 -0.25248754 0.73574
-0.7413253 -0.08266653 0.43457043
0.50275266 1.2385018 0.70323676
0.20653158 1.2704313 -0.35468066
0.09205868 1.4094871 0.25273475
-0.3755716 0.740896 0.69699585
0.58757806 -0.24597336 -0.21663493
-0.21952114 1.2458107 0.82866514
0.78141445 1.2644439 0.43035716
-0.5805352 0.8686556 0.27839524
-0.183402 1.8662257 -0.14350785
-0.6217549 -0.40362018 0.90505886
0.24434677 -0.24604194 -0.39577657
-0.56183493 0.5252021 -0.41335836
-0.43651056 1.8149557 -0.42849866
0.7821389 -0.24970251 0.33970833
0.91653275 -0.24138567 -0.5968837
-0.15080005 -0.080474734 -0.0024223884
0.030343223 1.372145 0.47162312
0.33579057 -0.08317877 -0.36346716
0.60234225 1.0858049 0.6568608
0.5462791 1.5968635 -0.021663282
-0.6985328 1.2338421 -0.0021969178
-0.3859548 1.2192991 -0.84989274
0.8998498 -0.407282 -0.08852576
0.69175863 0.7460011 0.4639799
-0.13738675 0.59847784 -0.53840804
-0.35177985 0.5444622 0.32450166
-0.339339 0.5943326 -0.44201463
0.06776001 -0.2575646 -0.35883307
0.73079485 0.8322356 -0.53677034
-0.48280942 0.998006 -0.5759984
-0.055720385 1.3164598 0.6514929
-0.678213 1.3798182 0.10373393
0.273876 -0.08192471 -0.7041311
-0.8953528 -0.40628088 -0.53831565
0.042512644 0.68386257 -0.64717805
-0.27443695 1.0670571 0.6326124
-0.02884822 0.7825892 -0.4864967
0.8931738 -0.40745205 0.7320653
0.22393724 -0.0802557 0.11579904
-0.20498925 0.7665117 -0.41762674
0.056171022 1.6532195 -0.1737982
-0.4451892 -0.25045973 -0.29266798
0.90056217 -0.08812871 0.5317395
0.8880062 -0.4010191 0.90573287
-0.051223963 1.3216088 -0.10979896
-0.49379504 0.86205757 0.46031612
0.5716531 1.7158772 -0.43629974
0.30808493 -0.40294045 -0.91793144
-0.29968324 1.5913587 -0.21215308
-0.52809227 0.4636683 0.30920726
-0.35298628 0.9207338 -0.42357618
-0.1415121 -0.40840697 -0.9115763
-0.1780512 1.6502116 0.18688571
0.44541022 0.8964001 0.26082548
0.2693693 1.70785 0.6085751
-0.36919796 -0.4151319 0.5515374
0.57060736 0.637574 -0.29963568
0.20849347 -0.41332805 -0.76025707
-0.14785254 1.8207562 0.04963447
-0.5311744 -0.08437368 -0.15203077
0.54063475 -0.10107942 0.9162762
0.7551938 0.60684896 0.12872045
0.5394977 -0.07172239 -0.12577304
-0.21111998 -0.2557209 0.76406294
-0.014422952 1.0780457 -0.9582751
0.118771374 -0.4186194 0.75228876
0.2647833 -0.24196011 0.00751377
-0.34425083 -0.4188449 0.15147579
0.25863653 0.4348188 -0.17288432
0.033590168 0.8745069 -0.9124495
0.25150737 -0.25555384 -0.6080681
-0.12515777 1.60904 0.7095015
-0.07236025 1.8656151 0.46659797
-0.20727101 1.1831679 -0.92448753
-0.45395505 -0.25811452 0.4111194
-0.17070022 2.0117345 -0.027608205
-0.12999813 -0.25978926 0.47389567
-0.32961708 0.87090445 -0.6533966
0.09183018 0.7808438 0.17516428
0.22744718 -0.26031786 0.777344
0.9338561 -0.24590108 -0.78473973
0.44452024 -0.25471115 -0.63138115
-0.29090577 -0.25478774 0.0251781
0.30299038 1.3646876 -0.5014168
0.7241422 -0.3986921 -0.9204912
-0.7180022 1.5728753 -0.33356616
0.07306805 1.8346334 0.053238437
-0.34272763 0.5026461 0.12374758
0.18029246 1.7108403 -0.7071561
-0.9232551 -0.2590085 0.4302908
0.45047772 -0.24730238 0.52708495
0.40218735 -0.25565833 0.35437214
-0.9125633 -0.104870535 0.16975364
-0.47227377 0.7276165 -0.7079684
0.43674815 0.35296708 0.20204979
0.40631354 0.5293503 -0.27305368
-0.3043699 -0.085802704 0.11678214
0.013301564 -0.08276373 -0.4852628
0.7049121 0.92123044 -0.019736562
-0.40795213 -0.2394517 0.75558996
-0.22837561 0.42264137 -0.17131552
-0.065832585 -0.2495687 0.28649473
-0.22851923 1.5972185 0.0012194456
-0.41189015 1.0109494 -0.13883758
0.7889758 0.6960784 -0.27179068
0.9032572 -0.086006805 -0.49142557
-0.31317443 1.3384637 0.419166
0.12343572 0.88275325 0.6677499
-0.3233438 1.5723884 0.67726886
0.5391577 0.60658956 0.48787114
0.26167268 0.6708627 -0.2140106
-0.6239512 0.8835223 -0.6480988
-0.15967506 0.324004 -0.4655556
0.38372397 -0.41977337 0.014209317
0.08972785 -0.40455687 -0.9125514
-0.14169735 1.3714502 -0.2871874
-0.71703094 0.90948915 -0.077634126
0.40466624 0.6373788 0.6200144
0.011479757 -0.41050768 0.9074621
-0.040657062 1.3204794 0.8470838
0.47033918 1.8879029 0.14061555
0.39896604 -0.083945826 0.21425462
-0.42194635 1.3525605 0.24839583
0.08213927 0.49683183 -0.7020967
-0.4524425 0.792127 0.10732631
-0.2139709 1.0212826 0.15290731
-0.05479279 0.357134 -0.07347572
0.26770145 -0.08714923 0.72933054
-0.89689344 1.05908 0.015505895
0.47083187 1.4170775 0.69455445
-0.73331624 1.0697162 0.080305405
-0.023381472 2.0000062 0.15377149
-0.7306839 -0.08503629 -0.9020537
0.4044082 -0.4200452 -0.18294804
-0.07327941 0.50160134 -0.20539868
0.12706701 -0.25217974 0.6095706
0.89531994 -0.08708396 -0.09064326
0.8876454 -0.081452146 -0.7078427
0.56139594 -0.4157644 -0.29273653
-0.15963615 1.4374595 0.57270443
-0.47320008 1.0627587 -0.34912595
0.34059614 1.0694717 0.19650444
-0.29949352 -0.24714893 0.5776259
-0.37353927 0.5253954 -0.2707281
-0.38420418 0.40835434 -0.45851755
0.41243333 0.7378383 -0.76648486
-0.6187761 0.69017065 -0.5492367
0.5823637 0.80578655 0.35800073
-0.6470135 1.7283568 -0.17731042
-0.08349333 1.489637 0.36474243
-0.6051545 -0.09405488 0.14254507
-0.7310275 -0.08261872 0.80031717
0.495463 -0.24953687 0.22619867
0.00037222175 0.20024413 -0.14524038
0.2089746 0.49031258 -0.37737465
0.22615266 0.7996878 -0.8714979
-0.025382277 1.7520005 -0.692966
0.73327994 1.4479353 0.4205482
0.3467925 0.62868565 -0.4171021
-0.35920122 -0.08485877 -0.25578254
-0.8310959 1.4263769 0.15980667
0.17206158 1.0024819 0.49849665
-0.08052912 0.42346328 -0.611717
-0.39284387 0.3114785 -0.13717884
-0.8194512 1.0044248 -0.37233546
-0.5349976 0.7066701 -0.38137984
-0.41885418 1.6888769 0.52042425
-0.165366 0.59644437 -0.047544066
-0.13073625 1.9518112 0.32067743
-0.92321634 -0.25579417 -0.2192372
0.5648811 -0.4077766 -0.07786769
-0.8575878 1.199559 -0.30085373
0.8571542 -0.24931142 -0.93093157
0.48098373 1.2851677 -0.57864285
-0.19910625 0.48473787 -0.37462178
-0.36863637 0.7277094 -0.110953376
-0.317042 0.8682878 0.20684004
-0.10469247 1.1643882 -0.20161116
0.08322328 0.36887527 -0.20838085
0.5790223 1.2914112 0.38358784
0.7546516 -0.2506529 0.54124975
0.89522916 -0.40734404 -0.6894915
-0.03827688 1.1021442 -0.41887933
-0.36132997 0.51278186 -0.07552469
0.3671798 1.6370281 -0.70031464
0.40751743 -0.25566262 -0.10875088
0.4027992 1.8543265 -0.40953952
-0.19634408 0.34998357 0.39987895
-0.23397604 -0.084470645 0.5113548
0.21545488 -0.4104231 -0.09755243
0.13077074 0.21379098 -0.0019318917
0.6652879 0.87448835 0.17751563
0.34473783 1.9492834 -0.20999405
-0.8837444 1.0205109 -0.18559757
-0.027177269 -0.09617755 0.91391885
0.9116662 0.9860619 -0.0130162835
0.0071811536 0.72106075 0.028974213
-0.25683516 -0.08416666 0.7147535
0.39796492 0.5174271 -0.08276658
-0.32598415 1.7622995 -0.061017044
0.3767071 0.71920705 -0.050163765
0.19874647 -0.24615827 -0.92825675
0.10223971 1.1149335 -0.268404
-0.23955016 1.9380503 -0.35550866
0.56239855 -0.08534068 -0.5355209
-0.335707 1.5109848 0.13287307
0.43233868 1.7256219 -0.55545807
0.5990573 1.2256918 -0.42878735
0.90174246 -0.0861294 0.112657815
0.6271715 1.0008744 0.32689327
0.603506 0.68812704 0.19617955
-0.33050656 0.5791192 0.60983574
0.21972442 1.7191584 -0.4203899
-0.42621982 -0.40758997 0.89680004
0.118573576 1.5312994 0.3803528
-0.7328048 -0.24904168 0.9195167
0.3902659 0.9306104 -0.849475
0.5878267 -0.25001532 -0.41270724
0.707805 1.1480359 -0.26987213
0.5619762 1.5858755 -0.5953667
0.3469795 1.5946084 0.10134847
-0.8213185 0.84106594 -0.26352376
-0.78612375 0.6840173 -0.13921714
0.39721876 -0.41172773 -0.7654059
-0.6374659 0.7907752 -0.23729965
0.7037997 1.5912901 0.30172318
0.72834563 -0.41731882 -0.18825701
0.72731197 1.6523713 0.10383248
0.7378799 -0.083212845 0.6463746
-0.6192112 -0.25615644 -0.6190038
0.020228717 1.1122597 -0.056068797
-0.2543798 -0.414073 -0.26582545
-0.3736906 0.3479159 0.265364
0.19769126 -0.08387259 -0.4990502
0.1668426 0.7398094 0.7811086
0.091629535 1.8548987 -0.55433714
0.45536065 1.1056514 -0.3149018
-0.64527035 -0.08133069 -0.7424557
0.15113147 1.802654 0.24579468
-0.5501462 0.41252995 -0.07601613
0.31269613 -0.2507215 0.6216422
-0.0035751741 1.9536008 -0.39780182
-0.31180155 0.8623457 0.40089676
-0.34407336 1.7369442 0.13503894
0.90155435 -0.4074844 0.3259821
0.21881968 1.2576355 0.2072449
0.024947833 -0.24406642 0.7696197
-0.77911484 1.3650709 -0.40221557
-0.5205232 1.1876676 -0.20707223
-0.5140507 1.3366038 0.46107918
0.25550604 0.8840326 0.19899504
0.6536845 0.82772994 -0.36219144
0.5695752 -0.20289119 -0.046339698
-0.68108845 0.56159306 0.19059582
-0.5941729 0.9253514 -0.4163087
-0.30098933 0.8946631 -0.00031043182
-0.2870629 1.8275204 -0.5092821
-0.8368577 1.4087441 -0.22631544
0.18310645 1.0072856 -0.11126761
0.67349577 1.6981912 -0.29000807
-0.93185925 -0.25521562 0.6358521
0.48443407 -0.4138194 0.9054899
0.7189359 1.2932527 -0.104469694
0.1630789 1.6239293 0.18076512
-0.32737398 -0.08429372 -0.075680315
0.021020068 1.4962925 0.78020537
-0.7710216 1.5831747 -0.13035887
0.062984616 1.2211499 0.33920467
-0.19831496 0.9335638 -0.54317826
0.06901935 -0.083943605 0.25049847
0.13208982 0.6607965 0.48001537
-0.12659681 -0.41605127 -0.6164853
0.2575201 1.6611594 0.39472455
0.90169907 -0.40594694 -0.4902268
0.19083065 1.552516 0.5446402
-0.4382189 1.1870708 -0.040951133
0.3837509 1.502958 0.45642036
-0.17705172 0.5823264 0.39988917
0.11782995 0.58789986 0.1567741
0.45086694 1.4508942 -0.23497671
0.73668706 -0.4203285 0.019213589
0.024918225 0.72089946 0.6325826
0.06421235 1.714292 0.4077795
-0.26484898 1.4900708 0.3086304
-0.030987248 1.2709451 -0.93228114
-0.300595 0.8146533 -0.8360484
0.124409765 1.8169792 0.5364739
0.5685097 0.45833164 -0.35937113
0.8982953 -0.4074728 -0.2902229
-0.57702464 -0.41513735 -0.32144552
-0.02009768 0.47613037 0.31382334
0.03533137 -0.09011532 -0.91539776
0.5784527 1.1785232 -0.0009526758
0.08761458 1.9455476 0.3430248
-0.71831596 0.65736616 -0.34630066
-0.18807104 -0.41196382 0.61547977
0.56413305 1.5337281 0.1571714
0.22595471 1.3522496 0.42913815
-0.3895365 0.311778 0.05216708
0.5524146 0.89285934 -0.53413486
0.02091073 1.1233671 0.15389779
0.7625255 -0.24142772 -0.74224544
-0.13824835 1.6932516 -0.1349059
-0.32126594 -0.41516107 0.74053025
-0.08745015 -0.4150058 0.75886405
-0.6184524 -0.2518661 0.7256621
-0.13016045 0.9365376 -0.7349565
-0.25044823 -0.25588727 -0.92523456
0.732329 -0.413427 -0.5846271
-0.60075307 -0.24994075 -0.42700356
0.7896444 0.75010484 0.26772803
-0.13517752 -0.085055634 -0.59483767
0.0009605501 1.4480146 -0.67047274
0.69521046 0.6492257 -0.44106176
-0.35750604 1.3273445 0.03732882
-0.16027492 0.9807402 -0.36748374
-0.5513867 -0.090509854 -0.91655624
0.26330635 1.1615331 0.41060913
-0.8464055 0.9068662 0.15501973
-0.2745965 -0.24544212 -0.3774404
0.5305954 -0.4105795 -0.90044254
0.4101743 -0.24422818 -0.47013822
-0.7014405 -0.41798955 -0.80307996
-0.3204322 -0.25130528 0.9234799
0.37938702 -0.41741407 0.21961197
0.015345129 0.8842882 -0.082266375
0.056048546 0.55636954 -0.5029992
0.811012 1.5602815 -0.03861507
0.7019216 -0.41705835 0.87829316
0.51113117 0.36498946 0.02692189
-0.5611069 -0.08497179 -0.33842495
0.6515962 0.7819433 -0.16968118
0.5290527 1.8322738 -0.2628464
-0.08770358 1.2774626 -0.7430279
0.6612814 0.5902419 0.33368552
0.075412184 1.613491 -0.57725495
0.8962658 -0.40573737 -0.88263905
0.5766734 0.70478827 -0.62281656
-0.76366764 0.7565709 0.26849705
0.4407281 1.1032825 0.36423153
0.54897225 -0.25473744 -0.7793408
-0.35638046 -0.08787404 -0.913538
-0.106493175 0.56620383 -0.75132895
-0.023700574 0.58569574 0.49624717
-0.21389994 -0.2447413 0.18048254
-0.24837175 1.4327593 -0.14188443
-0.022605307 0.7653389 0.80616367
0.15976839 1.0501025 0.2714452
0.31759 0.6002235 0.43909663
-0.9243213 -0.24869138 0.0040430236
-0.009390021 0.43322295 -0.37610757
0.101536766 1.6492286 0.69450253
-0.82720476 1.4168097 -0.035800412
0.38662636 1.1226591 -0.6835208
-0.09349926 0.98122203 0.033493046
-0.6280494 0.9832003 -0.22893138
0.58038056 1.6362917 0.44770598
-0.022466568 0.38393867 0.49880093
-0.5188222 -0.4186709 0.7117767
0.72200185 1.0535378 0.1296176
-0.29332057 1.7666926 -0.28007936
-0.6226628 0.7246239 -0.05026337
-0.17390427 1.3878534 0.024292476
0.5014207 0.9161978 -0.2895683
0.90307105 -0.08709304 0.32368273
0.24900998 -0.25130156 0.44357356
0.26110113 1.0244764 -0.33764583
-0.5284411 0.70092964 0.5622183
0.12018794 1.9976274 -0.2343139
0.02250753 0.54774994 0.684839
0.0727606 0.34885168 -0.52665675
0.51020896 1.3833666 -0.030098975
0.33885646 0.91752434 0.60106367
0.6262377 -0.24970987 -0.609643
