0.6297145 1.3564682 0.46437675
0.5227973 0.44401008 0.038037427
0.4780246 1.4897488 0.21375445
0.74219465 -0.25148612 0.7553691
0.44894427 0.97715354 0.501953
-0.54099476 0.90473676 0.40092558
0.10552038 0.11457074 -0.37308967
0.7026421 1.1762278 0.50225854
0.24953699 1.6615212 -0.64412546
0.76700187 -0.2469294 0.93333316
0.45549327 -0.08543805 -0.72585285
-0.0012316902 -0.40706372 -0.46876565
0.040314473 1.3405733 0.010578378
-0.71814823 0.94407713 -0.14466916
0.32328483 1.3473318 0.21164471
0.08428875 -0.20115796 -0.52010787
0.38277274 0.387494 0.20489576
-0.3333683 -0.07979672 -0.5746546
0.14728115 0.5496445 -0.41218132
-0.9040109 -0.09350866 0.72861505
0.4862646 1.6941128 0.25029367
-0.59967154 1.3760312 -0.08435659
-0.46755058 -0.25197268 -0.9254428
0.42119226 -0.082550764 0.63882923
0.25909138 0.28942066 -0.6411722
0.87440866 1.2784653 -0.2430279
0.89599323 1.108143 -0.32729927
-0.26675367 0.9568741 -0.03535378
-0.23065844 1.4965985 -0.48807204
0.25812316 0.11203408 -0.23139085
-0.423715 1.2158638 -0.23869523
-0.7339482 0.6533388 -0.4544408
0.015328275 -0.08973014 -0.13866556
-0.72955143 1.4235086 0.06588859
-0.7229078 -0.085112825 -0.42562684
0.3297843 1.0118617 -0.5551436
-0.58490723 -0.41422403 -0.10751255
-0.31228963 1.2713039 0.53396463
0.09422602 1.2828162 -0.5313337
-0.24996264 0.7188886 -0.25004774
-0.067702726 1.1373742 -0.58714306
-0.19312711 1.1266077 0.581864
-0.7415655 -0.07906127 0.21524599
0.24197343 0.4477955 -0.80385864
-0.064478226 -0.0914868 -0.7656758
0.7601562 -0.25168836 -0.49049842
-0.5014305 1.176843 0.6319674
0.589905 1.2682486 -0.73991287
-0.09676566 -0.21577951 -0.45765293
-0.1599307 0.9416342 -0.8158902
-0.092333615 -0.047850348 0.17412964
-0.7754123 1.0137043 -0.49914533
0.41117412 0.93802035 -0.1224146
0.14669997 1.3177414 -0.15057173
0.22199216 0.83139277 -0.61222625
0.9205584 -0.24741662 0.014699509
0.057627045 0.50878024 -0.87009364
0.84824365 0.72305375 -0.4248881
0.6870998 1.5881436 -0.21079572
-0.19106002 0.117188126 -0.08210982
-0.40126237 1.3591852 0.37706417
-0.11109605 -0.22104028 -0.26973644
0.89388776 1.1882168 0.15841435
-0.72112143 -0.42024976 0.7755658
0.39170843 1.1901941 0.7251495
-0.49871325 -0.41935453 -0.72982633
-0.72779596 0.8303369 -0.54286253
0.20903513 0.27960992 0.16588753
0.3621207 0.813617 0.75142765
-0.5655612 -0.08787701 0.5209815
0.7384114 -0.08641547 -0.5812229
0.8407887 1.0643198 -0.4927528
-0.14247668 1.4351618 -0.65067685
0.3573837 0.14701661 -0.035487756
-0.022224192 -0.4139676 -0.76150954
0.72544384 -0.4185175 0.64853805
-0.12939204 0.57517385 -0.8851408
-0.45582122 0.62892497 -0.53018415
0.048437446 0.899632 0.35976887
0.5653117 -0.07092183 0.11640767
0.19777499 -0.4116477 0.28304031
-0.3518118 -0.4146649 -0.59069645
-0.3234045 1.2406366 0.7131469
0.09456459 1.2504071 -0.95187956
-0.8908272 -0.09849028 -0.9140618
-0.728443 0.975705 0.40546745
0.07786539 -0.42583057 -0.25216705
0.42503628 1.083094 0.019543283
0.54928374 0.33809796 0.30744386
-0.06848604 -0.07769188 0.5599134
0.09262419 1.6490688 -0.36666152
0.1374598 1.1083162 -0.20532271
-0.76015943 -0.2454966 0.3154307
-0.50501895 1.6842825 0.106827594
0.4319979 1.1171875 -0.19806856
-0.43040437 0.4169136 0.4661575
-0.85564125 -0.07806636 0.02130111
-0.48304117 0.7207335 -0.08190716
0.7493907 1.0111134 -0.6370722
-0.21786049 1.2658601 -0.71325487
-0.18648608 1.5998359 0.53566337
-0.35474986 1.7847703 -0.004318118
0.55742836 0.72564816 -0.794866
0.3474375 1.6052414 0.16278353
0.6850096 0.8587029 -0.71428597
-0.39571333 -0.0840936 0.4057011
-0.6167028 -0.089829445 0.9138217
0.40841794 -0.080246806 0.42979392
0.5885384 -0.26570404 0.90012705
0.91956306 -0.24584568 -0.3862288
-0.8959383 -0.40548962 0.105686426
0.7735758 0.9697497 -0.15903531
0.9167081 -0.24677534 -0.18409388
0.55209893 0.4174338 -0.5711198
-0.537182 -0.4235588 0.48775047
-0.09338567 0.14592673 -0.30023688
-0.71622163 -0.4171001 0.4019928
-0.05902563 0.4693979 0.13584244
-0.32841885 0.94758093 -0.5178678
-0.87315875 1.0712901 -0.10151851
0.002185287 -0.41369683 0.57199895
0.18612035 0.2796586 -0.042268645
-0.68020254 -0.083185464 -0.0371262
-0.7146279 -0.41795474 -0.62418354
0.04200124 0.69244784 -0.76251274
-0.8980849 -0.40525278 0.718613
-0.90302944 -0.09088947 -0.52783084
-0.6000182 -0.24364838 -0.20631017
-0.34826332 0.8461211 -0.90007216
0.42478463 -0.25426257 -0.9242542
-0.5544034 1.4801706 0.38770798
-0.007413634 -0.41076723 0.36692092
-0.16069496 0.70627606 0.7654293
0.33231032 0.9767394 -0.94083035
0.38877586 1.3399436 -0.6478534
-0.51343423 1.3922511 -0.2790118
-0.5219089 -0.24420676 0.91368794
-0.4388947 -0.22570209 0.09170468
0.63743806 0.88631 -0.4817081
0.029627185 1.4758443 0.18424346
0.021113941 0.27832222 0.107036084
0.17705745 0.1787532 0.35231626
-0.25763643 -0.4215714 -0.75193393
0.38619924 -0.25985134 0.9234077
-0.20833158 1.4279112 0.4497205
0.36341697 -0.07401379 -0.54716396
-0.16518742 0.96178484 -0.61562884
0.8827878 0.6637042 -0.01423905
-0.45745105 1.4394372 0.2133384
0.38355455 -0.072463684 0.8658353
-0.003125376 0.8266506 0.8115581
0.27549154 1.3343978 -0.43252897
0.3202203 1.8058307 0.1619753
-0.3570265 -0.26269186 -0.7685156
0.7351567 -0.08421722 0.22126704
0.303459 1.0132949 -0.26631013
0.46275863 0.9875026 0.7141164
-0.45912945 1.6326668 0.30222636
0.5454514 -0.41916686 0.12812737
-0.6617849 1.142508 0.4550926
-0.09596692 1.1747139 0.34773338
-0.041026372 -0.24075209 -0.6304867
-0.53558624 -0.08090939 0.73131716
0.7811487 1.4222202 -0.34722358
0.22384645 0.657701 -0.080303535
0.9392365 1.0659959 -0.1545946
0.58103216 0.48353797 -0.16618842
0.5799278 1.408172 -0.4149053
-0.107288085 1.6365321 -0.36560917
0.41687256 0.2892763 -0.53414226
-0.095520794 -0.4145506 -0.14388967
-0.7411668 -0.4163875 -0.21276468
-0.2668987 -0.41134536 -0.07274152
-0.21541795 0.5430912 0.24105158
0.90206915 -0.08805896 -0.8977093
-0.37135148 -0.41130298 -0.90251803
0.121994674 -0.23925507 0.31421798
-0.8951012 -0.09080674 -0.3307886
0.0027179203 0.83998895 -0.27455884
-0.096507326 0.5212203 0.6942986
-0.61820686 0.7422005 0.09430418
0.017919853 1.8816905 -0.10241867
-0.10418075 1.3161175 -0.50802064
0.9238617 -0.24686635 0.2282581
0.15268126 -0.4100052 0.45372623
-0.033489235 -0.25667083 -0.9162432
-0.9159394 -0.2591303 -0.87149334
-0.1733292 -0.40701723 0.25087234
-0.6245629 0.6589098 0.4575322
0.029640103 0.89780635 -0.83583367
-0.26523954 1.2130024 -0.909007
0.72943074 0.82383174 -0.30050057
-0.29002285 0.14948085 -0.3197577
0.6467835 1.352885 -0.2366957
0.43882567 -0.24051555 0.75512576
0.02975003 1.4229958 0.4980616
-0.43404981 1.5190377 -0.63666624
-0.1078183 -0.24132775 -0.080779
0.80030715 0.97382486 0.41571575
-0.18766646 0.1343748 0.16253483
-0.18708763 -0.4182791 0.4386587
0.2461232 -0.082621716 0.5314509
-0.2635889 1.0873153 -0.19194564
-0.29866752 1.293144 -0.39354473
-0.49975216 1.2989098 -0.44480696
-0.3380614 1.0441334 0.7398018
0.42477137 0.652138 0.669693
-0.54783833 -0.08548111 -0.5478682
0.08018544 -0.07140799 -0.6698889
0.23678605 0.9911525 -0.019085538
-0.77170944 1.1727148 0.30674607
0.38879505 0.78298426 -0.717332
-0.62330014 0.83185315 0.5365635
-0.44783497 1.0136626 -0.6625191
-0.053827427 1.0345125 0.4636284
0.05196604 -0.2664765 -0.18785007
-0.76310724 -0.24816552 -0.10367057
-0.03587766 1.5544467 -0.51516545
-0.28811234 0.9258856 -0.30290473
0.32382697 1.1088803 0.5622091
-0.25459155 -0.23088783 0.36453652
-0.42929393 0.46884686 0.19062078
-0.50322187 1.072681 0.10919739
0.32077998 0.13277325 0.1643183
-0.10071014 1.3370514 0.12903564
-0.89937544 -0.40430176 -0.103805274
-0.58020973 -0.40473604 -0.9166944
0.60439634 0.6584134 0.544574
0.08130991 1.1310173 -0.81535256
0.22563642 1.3767675 -0.8857944
0.4167329 1.310466 -0.837027
0.071101524 1.2875965 -0.32169247
0.37512773 -0.052771315 -0.18273973
-0.52799666 -0.41558123 0.29014212
0.093441956 -0.050314978 0.4327076
0.12549533 0.10847482 0.17180695
0.9131178 0.90682304 -0.31983572
0.72799635 0.40499145 -0.28101608
0.73381734 -0.08524506 -0.9016422
-0.41530648 -0.24396652 -0.47390664
0.19841322 1.8596047 -0.13552445
0.10095887 -0.23165712 -0.034164228
-0.21633455 -0.40468615 -0.45417982
0.45996326 0.6006395 -0.29034746
0.42564243 1.1604748 0.22868407
0.33170632 -0.4169415 -0.5783577
-0.26259518 0.3129648 -0.63114595
-0.5085757 1.7017013 -0.09736035
0.41905567 -0.412839 0.6148051
0.5103357 1.7336669 -0.17375481
-0.08228052 -0.053196643 0.37051857
0.4037381 0.8205646 -0.5206606
-0.3305239 1.8031478 -0.20803642
0.23130587 -0.39565188 0.91491103
-0.19971013 -0.028360208 -0.4153685
-0.018453982 0.13548732 0.28752255
0.16585302 0.65713584 -0.5723809
0.4103871 1.1467776 -0.420255
-0.63298064 1.2681818 -0.24936841
-0.2697719 -0.22352837 -0.17750356
0.82943726 1.2604026 -0.45090103
0.5396676 -0.41159344 -0.49022976
-0.37730682 0.862218 0.28145564
0.1384218 0.9708842 -0.52464414
-0.39407343 -0.2337412 0.25131425
-0.41850874 -0.057746217 0.20652229
-0.18814452 1.0511192 -0.41546786
0.8922174 -0.093919314 0.907884
-0.034653127 0.48134923 -0.3857392
0.92613053 -0.24934578 0.85939366
0.08427408 1.4426615 -0.422871
0.20357928 -0.4091745 0.09562841
-0.048119277 0.9982412 0.6668985
0.3611269 1.8191912 -0.07372481
0.27200794 0.16086169 -0.45354646
0.67781174 1.2268038 -0.39516926
-0.44570416 0.7118286 -0.27420434
0.46724665 1.4675571 0.545542
0.7265676 -0.41716975 0.42897445
-0.56956875 1.1160009 -0.7579788
0.5297322 -0.06788175 -0.3128562
-0.529969 0.9030584 -0.79787517
0.72021526 -0.41754526 -0.38620555
-0.8959691 -0.09189955 -0.14152312
0.82256985 0.52394533 -0.14441016
-0.86773485 -0.092662245 0.91101694
-0.84397525 1.0922412 0.10325675
-0.15304011 0.85965693 -0.1597757
0.33405262 0.5496147 0.074335605
-0.16428642 0.2941916 0.026455566
0.3230347 1.6273589 -0.3378753
0.28288788 -0.2259804 0.21192181
0.15483731 0.8168205 0.035624318
-0.1078383 0.8358793 0.47043505
-0.113552526 -0.2581116 0.9188268
0.52472854 0.91513234 -0.8503855
0.72409594 1.2048016 -0.6170691
-0.096199915 1.5459105 0.3489824
0.23214112 1.3079029 0.03178985
-0.13612637 1.3080316 0.7393383
0.29303318 1.171032 -0.082663655
-0.13904223 0.59632516 -0.6891742
-0.48464635 0.24204592 -0.27768815
-0.7364681 -0.41523147 0.0033442595
0.17555086 1.2646966 0.5820913
0.71249837 -0.0848773 -0.18935056
0.7252297 -0.083949104 0.01309327
0.48758695 1.5142136 -0.2795387
0.69982684 -0.41543192 -0.76174736
0.3581851 0.78744507 -0.023887359
0.25362664 1.4586455 -0.28521004
0.5961995 0.27312467 -0.22246623
-0.457076 -0.083819844 -0.73689985
0.6510136 0.33947337 0.13018659
0.30961907 0.6770166 -0.42678368
0.69454086 1.3960111 -0.5555306
-0.47002113 1.5038503 0.015722547
-0.7570822 -0.2520597 -0.31785274
-0.4196878 -0.4091854 -0.19650762
0.8389125 0.7933367 0.3039661
0.36591554 1.370359 -0.14025581
0.17437221 0.84250426 -0.9795351
-0.77015096 -0.25402677 -0.5237876
-0.34371233 1.3507679 -0.58889866
0.24658102 -0.40018037 -0.28189236
-0.57686746 0.569721 0.15588099
-0.6641754 0.9617393 -0.35230199
0.48061773 1.1761155 0.4326859
0.099077865 -0.23824015 -0.7570332
0.24861601 -0.04339357 0.31739762
-0.09077333 1.0060112 0.23331448
-0.5556167 0.9112996 -0.044962533
-0.8928639 -0.4102196 0.3191955
-0.8596797 -0.40339285 0.9062606
-0.69468504 1.3776107 0.27277514
0.33775514 -0.4165873 0.77546275
0.72763324 0.80531776 0.4833265
-0.57465714 -0.2508883 -0.7884995
0.2348229 -0.22164366 -0.1997172
-0.89458126 -0.40432626 -0.73121166
-0.42992908 1.2317989 -0.80374163
-0.15662926 0.84588957 0.29149333
0.6292809 1.6647666 -0.04800037
0.57063663 1.1286482 -0.29264444
-0.59324443 -0.24774937 -0.0038608147
0.76527774 1.1205287 0.002936562
-0.89629436 -0.407824 -0.32260138
0.82411873 0.872473 -0.5239849
0.36573637 0.23148802 0.33580148
-0.64490414 1.5727007 -0.013918885
-0.7259332 -0.4148601 0.20840207
-0.32765788 0.82422566 0.73687154
-0.74288 -0.084563255 -0.6071125
-0.21399513 -0.41027814 0.9018279
-0.6224736 1.3128325 0.45856696
0.91018295 1.2365756 -0.05216781
-0.74999833 -0.24162686 0.10515261
0.060036667 0.5479797 0.28426754
-0.45963758 1.5306668 -0.1899096
-0.4934569 0.47266188 -0.19033077
0.22967038 0.62859464 -0.7388413
0.20267594 0.81041265 -0.7982829
0.2791196 1.1773775 -0.93774784
-0.5427439 -0.4160037 -0.52623487
-0.37615094 1.0608268 0.5313753
-0.23976049 -0.031179776 0.29016903
-0.9000732 -0.09342094 0.34420326
0.08813861 -0.08631554 0.6581882
-0.43422797 -0.22509186 -0.099157974
-0.68207765 1.3102688 -0.5221822
0.5012803 0.6648937 0.05392839
0.4026689 -0.027656179 0.022349976
0.22526062 0.31518614 0.51079184
0.7781166 -0.24861667 0.1218808
0.5349356 0.73920643 -0.14420874
0.18534626 -0.07953069 -0.88606596
-0.39430964 1.3555143 -0.09046993
0.59470725 -0.24781018 0.42405456
0.36124557 0.815646 0.3325109
0.48594123 1.5857763 0.021916255
0.1112867 -0.23537064 0.14402825
0.7076746 1.3053521 -0.05071929
0.5846708 1.186193 0.08224794
0.017852485 0.977605 -0.6794615
0.016581265 0.7991557 0.19823089
-0.3966639 -0.41390884 -0.39357775
-0.71849453 -0.085055456 0.62301195
0.53906846 -0.4146865 0.32951707
-0.8955139 -0.09074423 0.535771
-0.61687946 1.5384134 0.18804656
0.018630497 -0.4115191 0.18004161
-0.6601758 0.9428139 -0.6722857
0.7525948 -0.25299624 -0.28642765
0.46372527 0.65504074 0.39007026
0.058495957 1.0077558 0.8317151
-0.92002547 -0.26447055 0.21867333
-0.22476666 -0.09026914 0.8989998
0.13302124 1.1272913 -0.62539434
-0.8511724 -0.40529925 -0.91444385
0.3591786 0.7717335 -0.23679377
0.29326046 0.5847733 0.2668677
-0.5623286 -0.4123939 0.105943754
0.5057853 0.60923755 -0.4902013
0.19997562 1.6732764 -0.19591105
-0.38573146 1.1000452 -0.3907401
-0.92524165 -0.24538752 -0.6438261
0.8930303 -0.085518986 -0.28690886
0.66602993 0.6040405 -0.04559771
-0.688558 1.1138352 -0.20566472
-0.24292094 0.99685925 0.37963435
0.29316413 0.6554073 0.49329054
-0.4635392 1.3749807 0.5717062
-0.012007241 -0.061148845 -0.33639908
0.55592823 0.86386406 0.004776898
-0.5122304 1.3194271 0.08603769
0.17460048 0.72620916 0.3144927
-0.72647274 -0.41763496 -0.42566907
0.38369843 -0.41113797 -0.39211547
-0.08697839 -0.08268468 0.74793977
0.21152568 1.2182775 0.7770922
-0.46140486 -0.046210438 0.009538017
0.53809404 -0.420614 -0.67153156
-0.4058417 -0.087550774 0.6021019
-0.00582904 1.5214422 -0.019059569
-0.65935314 0.38845542 -0.0039850376
-0.42710716 -0.4073227 -0.007481369
0.23688002 0.4724151 -0.5970061
-0.6357398 0.3679222 -0.20931053
-0.13518515 1.7035992 -0.58981204
0.49533468 0.5439341 0.22968268
0.57645404 0.9215008 -0.2234212
-0.0609275 -0.23690361 0.08885722
0.5790028 -0.085033245 0.53364867
0.17661895 0.8326016 0.7985261
-0.6955806 -0.4117362 0.60029167
-0.16623707 0.92006826 0.8004253
0.51683164 1.2796638 -0.52287096
-0.8889697 -0.08720505 -0.73618543
0.936973 1.0232795 0.036612935
-0.56481427 1.2459388 0.274842
0.17875174 1.3093584 -0.73457986
-0.08542225 -0.40424538 -0.32668436
-0.2901171 1.0886197 -0.72639585
-0.2550571 1.565564 -0.7098019
0.62626135 1.0201328 0.40375024
-0.3942977 -0.06169013 -0.4175353
0.2499982 -0.14633898 0.9265423
-0.7674442 -0.2411792 -0.7428298
0.7234205 1.2674541 0.15911387
-0.4559071 1.1765181 -0.5838689
-0.31561652 1.0187758 0.16721371
-0.29863626 1.5218352 0.2907551
-0.29448542 0.4655072 -0.7676902
0.09066658 0.7754402 -0.43793976
0.14331517 1.0700297 0.6699886
-0.58786684 1.1416571 -0.39675993
0.0018459739 1.6142464 0.55024767
-0.18807346 1.6642675 0.20788364
0.048213378 0.40811902 -0.051428225
-0.10207236 1.8531286 -0.28150666
-0.058141664 1.3609254 -0.16232929
0.048350446 0.55452126 -0.1933744
0.05730948 -0.062790826 0.046497453
-0.47602254 0.93642616 0.66228366
0.27884364 0.9362452 0.62231946
0.7247171 -0.41890734 0.22771063
0.4236693 -0.23209257 0.076505736
-0.8430689 0.6976799 -0.04243162
-0.4662368 0.4456373 0.01186162
0.23313954 0.46640033 -0.081892736
0.0954705 1.1493444 -0.006435439
-0.41294366 -0.08329077 0.8856303
0.27925175 1.235981 -0.27071178
-0.34484273 1.758966 0.2047674
-0.48228455 0.7312423 -0.79140615
-0.19142795 0.5023177 -0.2489695
-0.9253747 -0.2522679 0.86993754
-0.25288463 0.73628455 0.5734441
0.35721695 -0.417441 0.4272238
-0.20689575 1.1638794 0.17089427
0.03647673 -0.41207594 -0.01766995
0.42127737 0.34992322 0.47873616
-0.42167312 0.85764444 0.08404344
0.18464428 -0.4080512 -0.4493906
-0.41211236 0.5947989 0.31434375
0.18979686 1.5002103 -0.0816762
0.06259878 0.7119668 0.4551025
0.8931371 0.7107195 -0.2199643
0.21675332 -0.053112198 -0.09180736
0.7037999 0.36136377 -0.07065102
0.1974552 0.9909217 -0.768224
0.41239643 0.4237662 -0.6993108
0.14816365 1.063323 0.4782031
-0.15094331 -0.41138 0.06520565
-0.16751243 -0.030937778 -0.21632257
-0.47297424 0.7380527 0.6335331
-0.5488863 1.3312104 -0.6792548
0.8981961 -0.40812778 0.124576375
0.8444031 1.3721159 0.07892574
0.55909204 -0.4128403 0.7421983
0.02733878 1.4361963 -0.8636441
-0.24383841 -0.24343221 -0.5862597
0.5543201 1.3287423 0.25456363
0.89438796 -0.40821254 0.53400946
0.27494866 1.6692679 0.0015052191
0.35437888 -0.08697148 -0.90786314
-0.08977512 1.282455 -0.92214465
0.12329243 -0.07216337 0.86163294
0.002919539 1.6982018 -0.18302415
-0.20232067 1.8293378 0.097946405
0.29946166 1.7287633 0.34813833
0.634882 1.6213682 0.15399504
-0.5570402 0.9932908 -0.5107547
-0.2616555 -0.09113631 -0.7488941
0.71790993 -0.081903696 0.87499875
-0.721043 -0.083539605 -0.22565582
-0.4463215 -0.24304245 -0.6329201
-0.47139794 1.7037122 -0.28867316
0.6288569 1.069833 -0.76301783
-0.58223623 0.89952374 0.21419522
-0.32241064 0.8806797 -0.71794295
0.37781233 0.6192632 -0.61900055
-0.046241112 0.7648027 0.63523626
-0.29347992 0.5412909 -0.5933546
0.44920027 0.15932995 -0.19077224
0.90859234 0.8169187 0.106054865
-0.35191756 -0.41479933 0.3520568
-0.35733262 1.3997371 -0.7858468
0.27487475 1.0204911 0.7989882
0.7359525 -0.08352924 0.4297166
0.3768775 1.5927597 -0.14601229
-0.9238869 -0.25215346 -0.4256631
0.4532424 1.6041064 0.40976936
-0.09793766 0.35507554 0.5697548
-0.88369286 -0.4102466 0.52300566
0.5214716 0.94615364 -0.6292795
0.5564434 0.8286799 0.4174403
-0.28053576 0.30340713 0.45233792
0.5561451 0.8209392 0.6456299
-0.15456396 -0.25997153 -0.76477313
-0.71154356 -0.2611431 -0.92860013
0.42343968 1.281105 0.060693614
-0.0922479 -0.23873897 0.6274342
-0.16597633 -0.09029165 -0.9179788
-0.81962866 0.94791013 0.23458916
0.13484234 0.4141037 -0.26877844
0.5737641 -0.08712392 0.7451561
0.004497616 0.8048192 -0.6177007
0.17477697 1.8597078 0.061302178
0.23191962 -0.4191499 0.60540324
-0.45079455 0.39944577 -0.60434794
-0.25799814 0.5338131 0.052879065
-0.59216905 1.5607562 -0.3709734
0.040812157 -0.22022253 0.463234
-0.59269416 1.023345 0.55659354
-0.7342405 0.79254425 0.34560972
0.7428976 -0.25388482 -0.084218085
-0.2606545 1.1638521 -0.54523355
-0.017696727 1.1684511 0.14836994
0.71608436 -0.084396094 -0.3878888
-0.6769221 1.1491258 -0.6081674
-0.7598181 0.5601969 0.07642725
0.56836426 -0.08257067 0.3247724
0.23868789 1.4394004 -0.60223114
-0.11031531 1.4236877 -0.34581918
-0.26025313 1.6972537 0.38412678
0.4012665 1.473681 -0.46413383
-0.45969495 1.0492938 0.32356822
0.3537196 0.3336791 0.03402835
-0.14723492 0.31742868 0.23136291
-0.36551964 0.88159037 0.49375653
-0.05170619 0.6651087 -0.3111186
0.30853793 -0.23842688 -0.77949774
-0.078577965 0.6624627 0.3240686
0.61428714 -0.26493764 0.068998896
0.6412575 -0.25303948 0.24759266
-0.4071269 1.4694445 -0.4218112
-0.17394811 1.4278209 -0.8450098
0.099367425 -0.4064284 -0.6141015
-0.17358825 0.77686274 -0.95270604
0.6424814 -0.24331282 -0.9195404
-0.5832273 0.49449813 0.37031537
-0.587237 -0.25629216 0.22638223
0.56692433 -0.4155665 0.5231508
-0.11866598 1.0478425 0.00016573808
0.29878956 1.1562572 -0.7546586
0.07599644 0.8991064 0.5849607
-0.6522535 1.0678647 0.23118886
-0.106583156 0.602207 0.5203804
0.8955109 -0.089226395 0.73346555
-0.5832914 1.4686651 -0.5286296
-0.56886613 -0.09186272 0.3239913
0.43201864 0.19888833 -0.36286512
0.36055744 1.2867885 0.5375091
0.30713695 1.3953233 0.68280834
0.7310403 1.0627444 0.19548285
-0.12902075 0.64854836 -0.10485977
-0.10311284 0.6658993 0.11414277
-0.6163963 -0.25833285 0.42809147
0.17031051 0.7009586 -0.27740252
0.9160346 -0.24933247 0.64663124
0.13724157 1.0388712 -0.9848506
0.4092142 -0.23391123 -0.28908986
-0.50572234 0.26951626 0.11951302
-0.5154322 -0.2623099 0.59262395
-0.28294286 0.5606811 0.45482695
0.92290914 -0.24763507 0.44141555
0.58950317 -0.25265634 0.6451937
-0.53938264 1.1930957 -0.078018434
0.5680185 1.000885 0.13277046
0.8916072 0.97734654 0.22801137
0.21757826 0.3875307 0.32467377
-0.35082567 0.5689357 -0.3305636
-0.7516445 -0.24860063 0.5405443
0.20053717 1.7826359 -0.46603385
-0.008889293 1.665559 0.17149112
0.54090047 -0.08621648 -0.91005516
0.2934318 0.46920127 0.6204282
0.0945946 -0.25014526 0.92612255
0.6467705 -0.08145997 -0.7333001
0.01545372 1.1268195 -0.40743327
-0.037106268 0.10202412 0.045353852
0.47078216 1.1189017 -0.8694494
0.16735652 -0.063178405 -0.28867716
-0.7903795 -0.2509331 0.73345804
-0.73316264 -0.08232205 0.4236984
0.5594845 1.1221036 0.62912965
0.20866144 1.1235954 -0.4150346
0.121986225 1.2714877 0.19632658
-0.3080202 0.6066086 0.67969537
0.57737815 -0.23587711 -0.2068659
-0.1560339 1.1149879 0.79288745
0.8222319 1.1477067 0.3413905
-0.5370202 0.7265973 0.27150124
-0.18685466 1.7108212 -0.19474638
-0.6221374 -0.40276873 0.9066114
0.25293916 -0.21825933 -0.4026299
-0.54966027 0.36335024 -0.41667044
-0.45078507 1.6459458 -0.46673638
0.777151 -0.25126842 0.34173775
0.91445786 -0.24161252 -0.59411657
-0.1383888 -0.06451769 -0.015268411
0.073087744 1.2359622 0.41837472
0.35024548 -0.02958607 -0.36635095
0.65990114 0.97095335 0.58084965
0.5583159 1.4647565 -0.1083102
-0.67693985 1.0794449 -0.013816388
-0.40628326 1.044127 -0.8778075
0.89531004 -0.4078948 -0.0815064
0.7445085 0.6253898 0.39232
-0.123082 0.43448305 -0.56196874
-0.3055629 0.407628 0.31681502
-0.3418448 0.4399774 -0.45703828
0.07650007 -0.24761268 -0.3536358
0.7323556 0.69530714 -0.61212367
-0.48443684 0.82506573 -0.5916257
-0.0013544417 1.1920652 0.6072588
-0.6545971 1.2249013 0.093242824
0.25894812 -0.08121875 -0.70319164
-0.89483094 -0.4062056 -0.53164065
0.046458334 0.51964784 -0.67742956
-0.2149503 0.9325787 0.60332817
-0.025365299 0.63120914 -0.52186596
0.8898278 -0.40790713 0.7336476
0.2370314 -0.05381737 0.11115408
-0.1979947 0.6006737 -0.4391864
0.059201743 1.5046988 -0.23268268
-0.43362457 -0.23671675 -0.2901252
0.8987911 -0.08739173 0.53440833
0.8841857 -0.40079314 0.90681064
-0.03782588 1.1697745 -0.15905851
-0.4415821 0.7235372 0.44699758
0.55958736 1.5779426 -0.52580076
0.30105436 -0.40364325 -0.9161584
-0.2941534 1.4317777 -0.25085667
-0.4811861 0.32540345 0.3061326
-0.34195054 0.75506973 -0.44557157
-0.14470512 -0.40927577 -0.91024214
-0.153243 1.5046735 0.14108433
0.5021752 0.7849623 0.19929507
0.30816612 1.5876682 0.5342386
-0.37129468 -0.4150419 0.5528985
0.59078586 0.50010145 -0.36496377
0.20167787 -0.41283208 -0.75262606
-0.13679513 1.6724467 -0.0023631356
-0.51908267 -0.067198664 -0.15871918
0.54068124 -0.10116085 0.9173118
0.7947292 0.48171657 0.058107384
0.5320213 -0.027373176 -0.10917187
-0.21231964 -0.2555048 0.75991464
-0.03574319 0.9102164 -0.9956304
0.11567909 -0.41886145 0.7496493
0.26478815 -0.22699091 0.010960194
-0.3460753 -0.41009536 0.15373358
0.2932483 0.3018002 -0.21529184
0.018704262 0.7081463 -0.953585
0.23892814 -0.24675274 -0.5971401
-0.07641864 1.4745336 0.6591495
-0.043475106 1.7289971 0.4086473
-0.23048055 1.0090103 -0.9600049
-0.44202268 -0.2577984 0.42128658
-0.16939989 1.8601644 -0.08388372
-0.123416826 -0.25417662 0.4612921
-0.33098182 0.70227796 -0.67228734
0.1364373 0.65040904 0.13408169
0.22113279 -0.2572235 0.77775955
0.9301114 -0.24555132 -0.7831314
0.42712164 -0.25335062 -0.6331898
-0.27309525 -0.238891 0.01648696
0.2930993 1.2132506 -0.5691707
0.7202649 -0.39867508 -0.9190841
-0.7191529 1.4032378 -0.35238594
0.083249524 1.6914874 -0.00898644
-0.30764204 0.3506382 0.12353784
0.15059873 1.5554484 -0.77234185
-0.91898143 -0.2565153 0.42799523
0.4447255 -0.24806459 0.5229889
0.39829275 -0.24829763 0.34985724
-0.910969 -0.10149009 0.16558227
-0.47554302 0.5570705 -0.71902883
0.48907775 0.21596768 0.15352054
0.43418896 0.3851816 -0.3192857
-0.28559905 -0.039361175 0.10155215
-0.01212634 0.013191601 -0.49521047
0.7338895 0.7885549 -0.09738825
-0.4092444 -0.24040323 0.74802935
-0.20548739 0.28345108 -0.18947291
-0.061760362 -0.2299828 0.27972323
-0.20922413 1.4442289 -0.040737268
-0.38938773 0.8643147 -0.15989158
0.8079936 0.56263125 -0.34397322
0.90068936 -0.08515629 -0.4898727
-0.27913973 1.1780384 0.3762099
0.19015336 0.75763416 0.62179875
-0.27462047 1.4349878 0.639014
0.5992522 0.48521915 0.42696542
0.2888354 0.5300273 -0.26175982
-0.62680984 0.7091427 -0.654139
-0.168411 0.17595932 -0.49243006
0.37910503 -0.4135869 0.015676625
0.08408843 -0.40551597 -0.91013706
-0.1369805 1.2161415 -0.33120796
-0.6936518 0.7544404 -0.07884945
0.47146136 0.5168418 0.5648291
0.009960106 -0.40858775 0.9073424
0.02085372 1.1906149 0.7992622
0.4834473 1.757138 0.055500187
0.40489006 -0.049387507 0.21932416
-0.3914233 1.214148 0.212813
0.086831614 0.33704048 -0.73441684
-0.4244507 0.646203 0.087252334
-0.19339623 0.87671566 0.12017881
-0.023275137 0.23661318 -0.09445965
0.26115778 -0.08525887 0.7262416
-0.8696961 0.9004534 0.018921662
0.52488464 1.2993565 0.6146625
-0.7013191 0.9193462 0.07730724
-0.012845999 1.8602436 0.09057103
-0.73225653 -0.08479832 -0.900976
0.39535278 -0.4144081 -0.18123646
-0.046612676 0.36418664 -0.2365715
0.12363382 -0.25811076 0.60606825
0.89380866 -0.08625278 -0.086979866
0.88358057 -0.08038014 -0.7056924
0.55260146 -0.41278407 -0.2857167
-0.11691727 1.2969576 0.52279305
-0.46494606 0.8990924 -0.36912495
0.37181824 0.93585724 0.13005245
-0.29852283 -0.24853423 0.5694494
-0.36052525 0.36921513 -0.27832264
-0.3745995 0.2513032 -0.46781677
0.40577763 0.5880009 -0.8236598
-0.6129315 0.52198803 -0.55055976
0.63516533 0.68640614 0.2895583
-0.6446601 1.5675284 -0.20409626
-0.043442186 1.3556331 0.31843433
-0.5935496 -0.092339456 0.12686598
-0.72922814 -0.08070348 0.79790914
0.4874736 -0.23221496 0.222006
0.034199238 0.07390006 -0.1678986
0.22974512 0.3332123 -0.41342062
0.21324503 0.6392844 -0.919656
-0.054210775 1.5910214 -0.7487587
0.7699811 1.3297163 0.32734215
0.3659327 0.47939253 -0.46318763
-0.35568017 -0.04208243 -0.2553168
-0.8057662 1.2729797 0.14984736
0.22639367 0.87351346 0.44679406
-0.065788984 0.25506473 -0.6304231
-0.37410915 0.15313879 -0.14340347
-0.8109276 0.8341089 -0.3708659
-0.5228779 0.54512334 -0.38032565
-0.38062793 1.5459409 0.48366046
-0.13429189 0.45932162 -0.069436066
-0.109381735 1.8104012 0.26364195
-0.9222079 -0.2547421 -0.2167151
0.55557954 -0.40209138 -0.07500765
-0.85003877 1.0289567 -0.30129725
0.8533925 -0.24877638 -0.92972064
0.4683917 1.1382608 -0.6529653
-0.1901564 0.34147376 -0.39358526
-0.343179 0.5738205 -0.121113986
-0.28804827 0.7152386 0.18689954
-0.08641298 1.0144506 -0.25461042
0.11122401 0.23950762 -0.23481707
0.61876285 1.1702931 0.3028683
0.75039965 -0.2515077 0.54313123
0.8916501 -0.4077236 -0.68712866
-0.035256363 0.94440603 -0.4685313
-0.33313555 0.35863584 -0.08029819
0.33975154 1.4858106 -0.7725016
0.40014547 -0.23934002 -0.10477262
0.388262 1.7111773 -0.48924536
-0.13889651 0.21463624 0.39585623
-0.23495314 -0.08310178 0.5035572
0.21265125 -0.40657598 -0.09755216
0.16181204 0.109697595 -0.01972963
0.7033509 0.7515404 0.10209109
0.33819646 1.8085482 -0.2928136
-0.8659642 0.8549926 -0.18017524
-0.03617973 -0.09462689 0.9120963
0.9369247 0.8618759 -0.09900366
0.039739475 0.5944897 0.00034838263
-0.2709462 -0.08302076 0.7098572
0.43378508 0.37481716 -0.12642719
-0.31906545 1.605403 -0.10085386
0.41324002 0.58184505 -0.10295691
0.19079652 -0.24782965 -0.92698395
0.11309011 0.9652523 -0.32376903
-0.2536065 1.7785908 -0.40492803
0.54965556 -0.08242133 -0.52399194
-0.30948946 1.3645587 0.09778486
0.4102792 1.579963 -0.63355815
0.5967938 1.0837839 -0.5085114
0.89983946 -0.085882954 0.11798004
0.68101937 0.884151 0.2540188
0.6474613 0.56441164 0.13174339
-0.26565892 0.444071 0.5941226
0.2093015 1.5706224 -0.48641765
-0.42536962 -0.4071343 0.89702237
0.15707363 1.395334 0.3195703
-0.7344166 -0.24697979 0.92106295
0.37231952 0.77887225 -0.90971047
0.5897207 -0.24463478 -0.39730772
0.71712804 1.0133538 -0.35385513
0.53905714 1.4421047 -0.6774756
0.36696887 1.4583294 0.027627792
-0.8033202 0.673927 -0.25803405
-0.7579333 0.522648 -0.13304713
0.39031115 -0.41228947 -0.76223373
-0.6169556 0.63122416 -0.23661523
0.7327111 1.4714502 0.2062982
0.72094846 -0.41764444 -0.18192169
0.74489176 1.5303249 0.0052499343
0.7351505 -0.08258413 0.6477149
-0.6178438 -0.25676435 -0.6144925
0.039065145 0.9648951 -0.10250074
-0.252273 -0.40480983 -0.265931
-0.33002964 0.20551884 0.2661693
0.18256772 -0.038676355 -0.49377695
0.24014989 0.61929834 0.73549753
0.06851122 1.6982725 -0.61593616
0.4641778 0.9644414 -0.38309985
-0.64530444 -0.08070885 -0.7401668
0.17211181 1.6644869 0.18232557
-0.52304673 0.25916684 -0.0766483
0.30611998 -0.2492298 0.6176912
-0.021812018 1.7980424 -0.45835364
-0.25804943 0.7273586 0.38102242
-0.32595938 1.5879003 0.095031716
0.8980088 -0.40821066 0.3296032
0.25007197 1.1218717 0.14580418
0.0180524 -0.245421 0.7665206
-0.77979773 1.1903465 -0.4122038
-0.5074121 1.0277137 -0.22767514
-0.47503293 1.1914884 0.43944675
0.31598443 0.7363608 0.15108518
0.6638932 0.68997484 -0.4325436
0.55522346 -0.17230964 -0.051169984
-0.63863367 0.4133023 0.19131678
-0.584914 0.7547572 -0.42606005
-0.27418885 0.74601996 -0.022955226
-0.30507627 1.6642088 -0.553458
-0.8285505 1.2414594 -0.23524947
0.2046985 0.86784923 -0.16792211
0.66937315 1.5612415 -0.3886244
-0.9287113 -0.25244915 0.6295614
0.47435945 -0.41178638 0.90664214
0.7333001 1.1625221 -0.19404711
0.18751548 1.4862112 0.11534068
-0.3169406 -0.04608199 -0.08077599
0.07718806 1.3695389 0.72582525
-0.76089096 1.4196789 -0.14725643
0.10342896 1.0831566 0.2880546
-0.18856955 0.7668711 -0.57208025
0.07734454 -0.060338575 0.24845788
0.1930885 0.5286031 0.44248742
-0.12832126 -0.41409558 -0.60989463
0.2903983 1.5306823 0.32244724
0.8977745 -0.40683642 -0.48610604
0.23469464 1.4247324 0.4796766
-0.42303592 1.0393165 -0.063295975
0.42314577 1.3776772 0.38106954
-0.121544585 0.44478473 0.38457412
0.1624627 0.4552064 0.122657195
0.45517647 1.3123915 -0.31066027
0.7273209 -0.42023376 0.02436987
0.09110576 0.59479225 0.5964927
0.095759094 1.5758901 0.35089797
-0.22934812 1.3410622 0.2763163
-0.057636715 1.1027493 -0.978052
-0.31208327 0.6446843 -0.85813093
0.1570039 1.6905253 0.46719044
0.59539336 0.32336664 -0.4161144
0.8950231 -0.40822142 -0.2837841
-0.57202613 -0.41359288 -0.31488547
0.037834026 0.33968988 0.29368627
0.02818786 -0.08984743 -0.9148228
0.60032946 1.0498905 -0.078893065
0.11021906 1.8103709 0.2746389
-0.7022158 0.49486804 -0.34294602
-0.1881629 -0.4114483 0.61022246
0.5872928 1.4067543 0.07016363
0.26821446 1.2213798 0.3657289
-0.35640076 0.16364765 0.050077192
0.5536923 0.7510652 -0.60245156
0.05918719 0.9842387 0.10612005
0.7559812 -0.24138679 -0.73582196
-0.13364613 1.5406264 -0.18473315
-0.32015625 -0.41564083 0.739874
-0.08887382 -0.41533515 0.75489753
-0.6189687 -0.24982414 0.73636174
-0.14248464 0.76892084 -0.76824796
-0.25505143 -0.25699937 -0.9247904
0.7249373 -0.41339022 -0.58050823
-0.5949336 -0.25145483 -0.42121774
0.8349689 0.6307918 0.19086747
-0.1390121 -0.06819457 -0.597973
-0.016396388 1.2882977 -0.7225647
0.7113032 0.5131707 -0.50951755
-0.33395177 1.1787343 0.0038953833
-0.14874595 0.8209295 -0.4011173
-0.5548272 -0.09065828 -0.91547227
0.30743176 1.0311317 0.34817597
-0.810339 0.75398356 0.15756132
-0.2649292 -0.21505663 -0.37467796
0.52496004 -0.41073346 -0.8989118
0.42184424 -0.23089615 -0.46670723
-0.7025578 -0.41791594 -0.79958487
-0.3214128 -0.25051153 0.9221889
0.3726884 -0.4108712 0.21597624
0.043761343 0.74712026 -0.1228407
0.07641787 0.3997845 -0.53474873
0.81820434 1.4350774 -0.13993213
0.69581115 -0.4166959 0.87950873
0.55308235 0.22888216 -0.024386179
-0.55605745 -0.08534911 -0.3394457
0.6738641 0.6466998 -0.23922086
0.525218 1.695649 -0.35213697
-0.106427744 1.1140964 -0.7878732
0.7128103 0.4686357 0.26654688
0.056664404 1.4579407 -0.63744086
0.89412034 -0.40551376 -0.88196826
0.579535 0.56489134 -0.6862947
-0.72084355 0.6083548 0.27267042
0.48290992 0.97965866 0.29628342
0.5441066 -0.25562644 -0.7756516
-0.36208898 -0.08781421 -0.91263306
-0.10579835 0.398314 -0.77343404
0.038681373 0.45597392 0.46785456
-0.22287878 -0.21917708 0.1812355
-0.23781726 1.2731023 -0.17823645
0.051144563 0.63955945 0.77020895
0.20313457 0.9101757 0.2184979
0.3812427 0.4779405 0.39089358
-0.9250507 -0.2430363 0.003202159
0.0018752898 0.2771284 -0.41820478
0.14865915 1.5233148 0.630705
-0.8095795 1.2559581 -0.04486775
0.3726851 0.96778435 -0.7451401
-0.05766485 0.82932657 0.011490966
-0.61333394 0.8223172 -0.23906708
0.6152531 1.5173035 0.35705996
0.040994324 0.25570458 0.47983932
-0.51982343 -0.418602 0.71421564
0.75355846 0.9299678 0.045257784
-0.30118078 1.6068096 -0.32291248
-0.5922948 0.5751178 -0.045433886
-0.1488485 1.2378641 -0.016292099
0.51291054 0.7773177 -0.35551137
0.9011789 -0.086317115 0.32753915
0.24601199 -0.23833281 0.43564737
0.27032828 0.8734504 -0.39386505
-0.46811473 0.56389993 0.55484116
0.10842091 1.8483031 -0.3021267
0.09492558 0.4233374 0.6541643
0.10388531 0.1964715 -0.5612825
0.5275731 1.2510726 -0.108154565
0.3993197 0.7955103 0.5405556
0.61128247 -0.24729261 -0.5995915
