0.5860019 1.439626 0.5638689
0.48471788 0.55400646 0.08135556
0.44345576 1.5902171 0.3129798
0.74463725 -0.25150228 0.75486505
0.39883253 1.0650963 0.5733959
-0.5876925 0.9961183 0.42387214
0.04760853 0.23880374 -0.36405414
0.6560902 1.2581935 0.59270465
0.2575475 1.8068938 -0.5474341
0.7704711 -0.24806929 0.93164384
0.46356016 -0.085283086 -0.7254756
0.002550973 -0.41666538 -0.46856764
0.017544223 1.4559047 0.08206792
-0.7391167 1.0749893 -0.12368533
0.2873478 1.4536439 0.296695
0.09690435 -0.24292427 -0.5303277
0.33153054 0.49644324 0.23604034
-0.33550084 -0.08407901 -0.57841253
0.12821025 0.686151 -0.37200686
-0.9042167 -0.09419966 0.7325766
0.45205986 1.7957733 0.3567986
-0.6191721 1.5043755 -0.035864376
-0.46506953 -0.25147527 -0.92467666
0.42579746 -0.082381696 0.6436908
0.23916802 0.42859757 -0.6077424
0.8609265 1.397156 -0.13807648
0.8808348 1.2338622 -0.23131868
-0.2819318 1.0757985 -0.0060479953
-0.229819 1.6436241 -0.4181387
0.22726238 0.2231901 -0.20922858
-0.44163585 1.3539375 -0.19261785
-0.74255884 0.8019664 -0.44777608
0.0009068286 -0.06668861 -0.1235358
-0.75548667 1.5474045 0.11119047
-0.7250435 -0.08440771 -0.42344326
0.3225954 1.1530254 -0.48966113
-0.5912795 -0.41559374 -0.109169155
-0.36283377 1.3717437 0.5931903
0.0926241 1.4234799 -0.45720768
-0.27422684 0.8472256 -0.2287469
-0.06136895 1.2818906 -0.5273411
-0.2455363 1.2210796 0.6320512
-0.7493464 -0.0779148 0.22152403
0.23886073 0.6040096 -0.76609206
-0.057704493 -0.0888263 -0.7604618
0.76028 -0.25055668 -0.48726588
-0.5560374 1.2699306 0.6703124
0.59575164 1.4128468 -0.6490406
-0.100988224 -0.24553451 -0.45646936
-0.15371819 1.1035297 -0.76884246
-0.1059715 -0.06676665 0.17995293
-0.7813233 1.1694896 -0.4766087
0.38696694 1.0553241 -0.045260083
0.12989584 1.4431026 -0.074527465
0.21131048 0.979988 -0.5576377
0.92218196 -0.2484701 0.011406109
0.059863403 0.67485094 -0.8380555
0.8359147 0.8532175 -0.35193056
0.6772251 1.70518 -0.09214182
-0.21669862 0.21278477 -0.08545859
-0.4436799 1.4677467 0.42884472
-0.120982245 -0.2369853 -0.26238418
0.8613343 1.2832875 0.2579816
-0.7197115 -0.42058334 0.7730024
0.33539587 1.2676301 0.80275786
-0.4980948 -0.41890207 -0.73230886
-0.7335869 0.98672557 -0.52681315
0.16343325 0.3875537 0.18767107
0.2998164 0.8898784 0.81017864
-0.56211233 -0.08604437 0.5369934
0.7449955 -0.08703507 -0.5823503
0.8324903 1.1987528 -0.40068436
-0.1358863 1.5880833 -0.5785316
0.32469273 0.24887869 -0.002744454
-0.022017986 -0.4147097 -0.7654558
0.7281177 -0.4184643 0.6478746
-0.12497929 0.74356973 -0.8549707
-0.472156 0.78712034 -0.5157885
0.0012152062 1.0010867 0.40953353
0.56241894 -0.08563116 0.11324021
0.20031542 -0.41660193 0.28732345
-0.35369697 -0.41694558 -0.5932212
-0.37921906 1.3290639 0.7637126
0.10937756 1.4145346 -0.87916005
-0.8907783 -0.0983364 -0.9131211
-0.7709096 1.0820217 0.42616296
0.08241668 -0.4221473 -0.24721494
0.39549896 1.1980991 0.09733859
0.5009411 0.4344986 0.3482533
-0.06481061 -0.082224965 0.5682981
0.09005988 1.78674 -0.27690238
0.11840268 1.2390872 -0.1384157
-0.7633046 -0.24320489 0.3254279
-0.5273781 1.8013418 0.17016971
0.41622746 1.234904 -0.12021972
-0.47723582 0.513733 0.46708953
-0.8677877 -0.08193492 0.023520958
-0.50892526 0.8388275 -0.0564643
0.7451391 1.1556175 -0.55109143
-0.21164197 1.4238956 -0.65329194
-0.22860968 1.6956544 0.60871017
-0.3716638 1.9080762 0.072809815
0.55945086 0.87312996 -0.7281762
0.31729233 1.7105557 0.2598391
0.6844222 1.0034573 -0.63680947
-0.40092084 -0.0877064 0.4279307
-0.6170492 -0.09027515 0.91515994
0.4125009 -0.083532766 0.42813703
0.59325266 -0.26437026 0.8989507
0.9208486 -0.24585825 -0.38805073
-0.89769965 -0.4065048 0.10797635
0.7526994 1.087697 -0.07302143
0.91788554 -0.2465769 -0.18792684
0.53298235 0.5544114 -0.52085257
-0.53470516 -0.421987 0.48076865
-0.12766185 0.24985409 -0.2798081
-0.7088665 -0.41521955 0.39999983
-0.09610176 0.5786034 0.15296891
-0.3365333 1.1028666 -0.47848582
-0.8943769 1.2016965 -0.08149615
0.004141369 -0.41626117 0.5782592
0.15184642 0.37295973 -0.01728322
-0.6916584 -0.0786182 -0.021927357
-0.7159666 -0.41780543 -0.62590086
0.045734514 0.8645641 -0.7123903
-0.8971236 -0.40650064 0.7191887
-0.90303165 -0.09115048 -0.5278332
-0.60861886 -0.25153458 -0.21243161
-0.34199348 1.0154763 -0.8663649
0.42916816 -0.25389683 -0.9245881
-0.59411645 1.5896828 0.44091016
-0.0059691155 -0.41753554 0.369842
-0.22521009 0.790833 0.79583013
0.34359288 1.1342633 -0.87451243
0.39622015 1.4862107 -0.5586145
-0.52685964 1.5321534 -0.22985658
-0.5237399 -0.24448057 0.91053665
-0.47178906 -0.2541239 0.10687516
0.6271235 1.0211835 -0.40584686
-0.0050423136 1.5832441 0.26211628
-0.018103512 0.37894583 0.11580099
0.12786701 0.28147757 0.35930443
-0.25741774 -0.42065775 -0.75350606
0.39543813 -0.2662437 0.92191947
-0.25192797 1.5270945 0.51162
0.38076282 -0.081427515 -0.5398878
-0.1655646 1.1175158 -0.5665027
0.8526548 0.7729502 0.055445462
-0.4910469 1.5523787 0.26789817
0.3746666 -0.07463492 0.87222373
-0.06903127 0.9091928 0.85137165
0.26687512 1.4706886 -0.34654516
0.29353008 1.9129795 0.26636142
-0.35427955 -0.2594766 -0.7696446
0.7361846 -0.08169748 0.21888241
0.28442082 1.1389915 -0.19008896
0.40418273 1.0625938 0.7854871
-0.4925043 1.7413187 0.36682656
0.55008364 -0.42459935 0.12926495
-0.70642436 1.2489533 0.48922658
-0.13442758 1.2769468 0.41254553
-0.03589066 -0.25039178 -0.6341028
-0.5426786 -0.083730936 0.73862773
0.7757772 1.5515838 -0.23448107
0.19257638 0.77520835 -0.03423141
0.91800624 1.1818472 -0.060642026
0.5543634 0.607833 -0.110386536
0.5765018 1.5378256 -0.31265318
-0.109929666 1.7760705 -0.2847078
0.39256588 0.42243147 -0.49718705
-0.09286857 -0.4157809 -0.13937977
-0.7453481 -0.41596666 -0.21601176
-0.2695679 -0.4160416 -0.06675109
-0.25815374 0.6537016 0.25211042
0.9029215 -0.08829707 -0.8964561
-0.36990178 -0.41084272 -0.9031707
0.11790112 -0.2520079 0.317101
-0.8953314 -0.090896875 -0.33043152
-0.013029283 0.97349596 -0.2251449
-0.15725784 0.60749626 0.7159021
-0.6478 0.85742486 0.107108355
0.003883986 2.004058 -0.009452235
-0.10434683 1.4609791 -0.44041014
0.92459345 -0.24724327 0.22555849
0.15519829 -0.4149507 0.45920128
-0.031037048 -0.25579208 -0.91558886
-0.9156786 -0.25901115 -0.8724153
-0.17179395 -0.41357753 0.25381106
-0.6726332 0.75902045 0.46648723
0.036428414 1.0670474 -0.79339254
-0.25245988 1.3841679 -0.8527465
0.71242857 0.9497142 -0.22481355
-0.3056804 0.2903961 -0.3191647
0.6328379 1.473649 -0.1352014
0.4422748 -0.240621 0.7559402
-0.01525143 1.5223417 0.5692613
-0.4290324 1.6752267 -0.5734538
-0.115526244 -0.24259223 -0.069048785
0.7547947 1.0597887 0.49759632
-0.21763687 0.23380697 0.1521997
-0.18312716 -0.42193985 0.44164115
0.25925922 -0.08345451 0.5352388
-0.2843807 1.228535 -0.14256011
-0.3070885 1.4389178 -0.33685035
-0.5051198 1.4472187 -0.3987291
-0.3980714 1.130985 0.77878666
0.36448145 0.7320821 0.7232516
-0.54964876 -0.08453007 -0.5493859
0.09287974 -0.08173115 -0.67170334
0.20853487 1.0992882 0.05404771
-0.81084293 1.2809131 0.33670706
0.38707197 0.9357285 -0.6547103
-0.6750269 0.9293997 0.5553604
-0.45080155 1.1737955 -0.626956
-0.109722115 1.1253179 0.51501155
0.044130117 -0.25233883 -0.18357678
-0.76784873 -0.24433348 -0.10380882
-0.033668324 1.7015307 -0.43493032
-0.30976623 1.0690582 -0.25721508
0.26974207 1.1963495 0.63427097
-0.2612254 -0.2487319 0.37582934
-0.47090477 0.5720761 0.20051104
-0.5321349 1.1864381 0.14599572
0.27722853 0.24858706 0.18132228
-0.13235924 1.455796 0.18614267
-0.90185547 -0.4044922 -0.10681991
-0.57946765 -0.40472072 -0.9172919
0.55020857 0.7420963 0.6049851
0.08888206 1.2904441 -0.7475
0.24332096 1.5331702 -0.8024255
0.430808 1.4643865 -0.7496853
0.059225556 1.4232357 -0.24867955
0.35747793 -0.08160966 -0.18274975
-0.52353585 -0.41990107 0.2772075
0.09885092 -0.08308492 0.45524746
0.09287161 0.20993687 0.16708794
0.8968742 1.0315139 -0.23570168
0.7031649 0.52880466 -0.23106614
0.7365763 -0.08556265 -0.90334964
-0.42291215 -0.25904793 -0.47862422
0.18663952 1.982873 -0.032318886
0.09519583 -0.22900027 -0.030838301
-0.2168485 -0.41419464 -0.45453775
0.43716666 0.7283516 -0.23602489
0.38868737 1.264884 0.3107829
0.33719775 -0.42038053 -0.58339596
-0.27043462 0.4593243 -0.6168375
-0.52311945 1.831161 -0.029924486
0.42177358 -0.41347778 0.61617255
0.5039124 1.8504882 -0.061008878
-0.08011678 -0.083780125 0.3782189
0.39322746 0.95919424 -0.4565972
-0.33866805 1.9381793 -0.12830177
0.23458418 -0.39967996 0.9130722
-0.20257263 -0.07958487 -0.40712926
-0.058059465 0.24337077 0.27715063
0.16099283 0.8015969 -0.52517104
0.39870495 1.2775406 -0.34122092
-0.6485395 1.4075603 -0.20571703
-0.27719212 -0.24271178 -0.17035937
0.8245232 1.3944373 -0.34972683
0.5450318 -0.41343886 -0.4961071
-0.42332488 0.97095907 0.30802596
0.12701452 1.1160495 -0.46121603
-0.37943423 -0.25487804 0.24361674
-0.44256145 -0.085974805 0.23532319
-0.19749844 1.1918156 -0.3604228
0.8926612 -0.093951285 0.90738237
-0.05704727 0.6172478 -0.3573732
0.92737716 -0.24909233 0.8581715
0.07831216 1.5818963 -0.3422345
0.20523444 -0.4132583 0.09751958
-0.105485216 1.0834237 0.71851194
0.34834635 1.938808 0.03234246
0.23039973 0.3011706 -0.41238308
0.6745981 1.3563076 -0.29865813
-0.46751234 0.8427851 -0.25324136
0.42543536 1.5538822 0.63994354
0.7301854 -0.41682154 0.42956358
-0.56425774 1.2835426 -0.72059447
0.5230206 -0.083594725 -0.32795024
-0.52587163 1.0690341 -0.76859725
0.7233788 -0.41750282 -0.38953656
-0.89670813 -0.09266743 -0.14255589
0.7954348 0.6392672 -0.08537303
-0.8672597 -0.09343543 0.91197
-0.8746791 1.2121878 0.12530875
-0.1788536 0.97297215 -0.13470985
0.29940194 0.6701976 0.12112141
-0.1944363 0.3964612 0.027021013
0.31521758 1.7562401 -0.24218096
0.28299463 -0.24543452 0.21128723
0.104509085 0.9265751 0.08359698
-0.16107312 0.9296328 0.5093734
-0.111465275 -0.25949928 0.9173504
0.53177273 1.0659528 -0.7773065
0.7233156 1.3492234 -0.5229082
-0.13160801 1.6482836 0.4242663
0.20730975 1.4219924 0.10948105
-0.19049254 1.3939731 0.7977077
0.26949948 1.2851621 -0.0073893024
-0.14697486 0.7562875 -0.65667254
-0.5034348 0.3809777 -0.27747846
-0.74679303 -0.4145139 -0.0012321163
0.122734934 1.3543688 0.65479255
0.71375716 -0.0845311 -0.19495156
0.7209699 -0.0822487 0.008736046
0.4761824 1.6372008 -0.17688036
0.7038684 -0.41550422 -0.76293707
0.327329 0.89800704 0.037654378
0.24222916 1.5881997 -0.19617735
0.5660279 0.39842427 -0.18348789
-0.45547572 -0.08319946 -0.73865753
0.6134683 0.4459069 0.17386404
0.29511118 0.81575674 -0.37255573
0.69637156 1.5357516 -0.4484203
-0.49344558 1.6249187 0.07412588
-0.76159966 -0.24900505 -0.3187126
-0.42330915 -0.41579658 -0.19422658
0.79364145 0.888159 0.37748522
0.34740847 1.4905214 -0.05142074
0.18464653 1.0063683 -0.925637
-0.77162075 -0.25380552 -0.5255395
-0.34033513 1.5050342 -0.530709
0.25296474 -0.40947965 -0.27914542
-0.6104126 0.6811576 0.15225352
-0.67725897 1.1061645 -0.32605582
0.4356178 1.2665489 0.51675904
0.10402839 -0.24260035 -0.7616904
0.2442821 -0.08459127 0.32270765
-0.1283752 1.1196918 0.28757966
-0.5804639 1.0350485 -0.017841943
-0.8919922 -0.4109276 0.32393104
-0.8592915 -0.4045698 0.904914
-0.72807115 1.4912175 0.3142135
0.3427341 -0.4176513 0.7764143
0.67591095 0.89161944 0.5549469
-0.5743761 -0.2506101 -0.7897655
0.22947259 -0.23422879 -0.19581386
-0.89485574 -0.40415516 -0.73251665
-0.41999528 1.3986895 -0.75376296
-0.21372408 0.9694447 0.34325612
0.613258 1.7771473 0.07184987
0.556054 1.258269 -0.2101771
-0.60772514 -0.24592182 -0.011301544
0.7358077 1.2268786 0.098529935
-0.8977293 -0.40705803 -0.3252921
0.8146266 1.0076627 -0.44413662
0.31440443 0.33720493 0.36268336
-0.66659606 1.7009622 0.041345935
-0.7322266 -0.41524014 0.21171689
-0.38941315 0.9114612 0.7654072
-0.7425169 -0.08498542 -0.60639703
-0.21595597 -0.41086388 0.901133
-0.6646331 1.4183509 0.49833912
0.8846661 1.3451581 0.052825987
-0.74816287 -0.24360034 0.11287161
0.009972661 0.6566696 0.3152098
-0.47345352 1.6630217 -0.12742428
-0.51094335 0.60365105 -0.192627
0.22843847 0.78554296 -0.69280505
0.20937215 0.972668 -0.74741006
0.29312378 1.3351384 -0.8611532
-0.5459881 -0.4175289 -0.52921605
-0.42657238 1.1594455 0.5726242
-0.2533414 -0.08013941 0.30253112
-0.9020302 -0.09426485 0.35001898
0.09428134 -0.08280377 0.6680585
-0.44274658 -0.24688074 -0.09417164
-0.6845306 1.4661403 -0.47918326
0.47248858 0.7690337 0.10408073
0.38697374 -0.07701467 0.0121441465
0.1707028 0.4065242 0.5321797
0.78015745 -0.24341118 0.118256815
0.50919676 0.85861 -0.07955581
0.19077295 -0.078872666 -0.8832575
-0.4163344 1.4798236 -0.036683522
0.5968595 -0.24776405 0.4251464
0.31574124 0.91658974 0.3927669
0.46429017 1.6954212 0.1257118
0.11376333 -0.24088657 0.14539894
0.68405044 1.4165258 0.0507758
0.5537914 1.2949585 0.17054045
0.023031462 1.1118006 -0.6273118
-0.024763126 0.90833664 0.24554655
-0.3987949 -0.41939682 -0.3930732
-0.72114766 -0.088173755 0.6254506
0.545774 -0.41650504 0.33190572
-0.8987145 -0.0918221 0.5422118
-0.64761037 1.6570666 0.24184924
0.021347828 -0.41475707 0.1815547
-0.66079664 1.107106 -0.6467458
0.7523645 -0.25210246 -0.29094434
0.41149798 0.74557567 0.44708514
-0.005581178 1.089366 0.88709867
-0.9199374 -0.26736665 0.2218397
-0.22058758 -0.09103596 0.9001607
0.135943 1.2719269 -0.55970764
-0.85090816 -0.40562376 -0.9145316
0.33984095 0.9020357 -0.1787078
0.25546122 0.694973 0.30799448
-0.58424175 -0.41280243 0.101631075
0.49183124 0.744118 -0.43205142
0.18882616 1.7981579 -0.10063869
-0.3956684 1.2467906 -0.3461018
-0.9255276 -0.24496922 -0.6451274
0.8933867 -0.08571833 -0.28745443
0.643291 0.71893317 0.015424477
-0.70676804 1.2507212 -0.17323479
-0.3012529 1.1214783 0.41507152
0.23928271 0.7451974 0.54371214
-0.5129459 1.4726324 0.6222832
-0.03183791 -0.0781022 -0.31203353
0.52382946 0.9725912 0.08363319
-0.5383594 1.435252 0.1360869
0.13197164 0.82764447 0.3636027
-0.729071 -0.41704783 -0.42733344
0.39095548 -0.41761285 -0.39436626
-0.07744843 -0.08327092 0.75462246
0.15375657 1.3008666 0.84693223
-0.47832245 -0.08303697 0.02632549
0.54387486 -0.42148206 -0.6759405
-0.40057132 -0.08303051 0.62670636
-0.02891346 1.6413549 0.06040416
-0.68620336 0.50989985 -0.0043700375
-0.43763775 -0.4161306 0.000598689
0.2211327 0.6158693 -0.5641032
-0.65921587 0.5026817 -0.2074936
-0.13011116 1.8539363 -0.50596786
0.45548993 0.63457674 0.2804371
0.5546137 1.0446417 -0.14822324
-0.054557383 -0.23965958 0.09437874
0.57956934 -0.08409117 0.5327172
0.11232758 0.9134201 0.849036
-0.6923015 -0.4127094 0.5980407
-0.23187524 1.0042558 0.8435873
0.5155833 1.4164915 -0.42968118
-0.8884034 -0.08719729 -0.73566914
0.9067497 1.1260985 0.12675828
-0.60345304 1.3541658 0.31414667
0.18378729 1.4625704 -0.65451825
-0.08243565 -0.41113967 -0.32227567
-0.2857914 1.2486267 -0.67625296
-0.24457961 1.7234554 -0.63681895
0.5809586 1.1071215 0.48513973
-0.40119803 -0.08650584 -0.42125416
0.25377184 -0.17334992 0.92797196
-0.7675755 -0.24120954 -0.74356717
0.69201404 1.3646007 0.25839978
-0.45214579 1.3304033 -0.538155
-0.34566775 1.1262958 0.19933313
-0.33349752 1.6337095 0.35727447
-0.2962996 0.62318325 -0.74651325
0.08233398 0.91493464 -0.38614652
0.08665761 1.1539636 0.73359954
-0.5983329 1.2893369 -0.3581741
-0.04082755 1.7080586 0.6320866
-0.21374029 1.7746971 0.28651226
0.019089736 0.5113528 -0.030737212
-0.10695268 1.9873416 -0.19260094
-0.07549373 1.4914598 -0.08963321
0.022844937 0.67717475 -0.16424613
0.04361163 -0.05692988 0.056297164
-0.53337973 1.0279677 0.6912354
0.22165626 1.020942 0.6831177
0.72895694 -0.41796058 0.22652358
0.42697597 -0.2532199 0.07892301
-0.8703439 0.82794577 -0.038352735
-0.4901449 0.5714568 0.013114789
0.20094404 0.57946324 -0.045559194
0.07158217 1.2650326 0.0622775
-0.41029984 -0.08265942 0.8844756
0.26741177 1.3623459 -0.19075392
-0.3689859 1.8680032 0.2837674
-0.48016566 0.8958192 -0.76973176
-0.2132661 0.63162315 -0.233348
-0.92493045 -0.2536946 0.87135625
-0.308389 0.8289635 0.5997026
0.3617093 -0.42009047 0.43072987
-0.24094427 1.2796674 0.2297684
0.039795443 -0.41233647 -0.016972262
0.37000352 0.44172412 0.51660645
-0.44970578 0.9729265 0.10977348
0.19039494 -0.41553313 -0.45018616
-0.45106104 0.69965583 0.325696
0.16910869 1.6216321 0.0058563403
0.008499493 0.80739254 0.4918369
0.86955154 0.8297894 -0.14680344
0.19525746 -0.06373753 -0.089239515
0.67266 0.47646052 -0.023310602
0.20488232 1.1504521 -0.7080863
0.40064317 0.56719136 -0.6559104
0.09529583 1.1578124 0.5396538
-0.14534393 -0.41352838 0.065825805
-0.17667136 -0.06536787 -0.1979515
-0.52913713 0.8297031 0.65144217
-0.54352283 1.4927595 -0.62972397
0.89966893 -0.40741557 0.12107523
0.8180901 1.4737232 0.19108981
0.5630654 -0.4125939 0.7410572
0.04352469 1.594106 -0.7846939
-0.24737486 -0.251377 -0.58621037
0.5196315 1.4272391 0.3500923
0.895794 -0.40787137 0.53398895
0.25558227 1.786473 0.09818642
0.35947794 -0.08654931 -0.9073218
-0.075956166 1.4486928 -0.8568883
0.13850474 -0.07494375 0.8716471
-0.0070959814 1.8258429 -0.09630875
-0.22460157 1.9474517 0.18506953
0.2633453 1.8267202 0.4471072
0.60050255 1.720123 0.27000803
-0.56298506 1.1473846 -0.47736683
-0.2560439 -0.08799139 -0.747445
0.71761084 -0.08278019 0.8766202
-0.72086275 -0.08237934 -0.21883328
-0.44794428 -0.24359357 -0.6371763
-0.4765018 1.8415933 -0.21868771
0.6325171 1.2164348 -0.6806333
-0.62241423 1.009407 0.23526093
-0.3213067 1.0424361 -0.68296236
0.37095654 0.76423866 -0.56827617
-0.10544628 0.85169756 0.6715741
-0.31131202 0.6977637 -0.5674282
0.41343844 0.29189098 -0.15039748
0.8752186 0.9176541 0.18433711
-0.3526163 -0.41987085 0.35410997
-0.34870508 1.5646005 -0.7254678
0.21449038 1.0982543 0.8633089
0.7359295 -0.083702415 0.4288305
0.36146998 1.7150499 -0.047287755
-0.9245337 -0.25154054 -0.4266953
0.4151485 1.6981636 0.5099392
-0.15246567 0.44264638 0.58124435
-0.88256216 -0.41275382 0.5242468
0.51800597 1.0891953 -0.55357933
0.5053201 0.91640186 0.48468286
-0.3263461 0.3998574 0.45989504
0.50057673 0.89916605 0.7122201
-0.1528447 -0.25737494 -0.7641456
-0.71048856 -0.2608741 -0.9278878
0.39474103 1.3933717 0.14788309
-0.08893748 -0.24281913 0.63508546
-0.1607814 -0.08996386 -0.9164983
-0.85718906 1.0599215 0.25039637
0.11143352 0.5369506 -0.23423082
0.5759151 -0.0873682 0.7463062
-0.013651414 0.94818276 -0.55155945
0.15515082 1.974036 0.16207656
0.2338391 -0.4187644 0.60960865
-0.45747125 0.5529077 -0.59179777
-0.28353775 0.656794 0.0638686
-0.59805346 1.7063777 -0.31166017
0.032556087 -0.2466085 0.46726805
-0.64296436 1.118284 0.58161163
-0.7775873 0.89839923 0.35771143
0.7480824 -0.25337875 -0.086971566
-0.25604224 1.3156834 -0.48944816
-0.052304707 1.2856392 0.21091826
0.7133149 -0.08400099 -0.38948804
-0.6759981 1.3098612 -0.5731867
-0.79198813 0.68013275 0.07496397
0.56788015 -0.08298064 0.32062465
0.24360976 1.5823746 -0.5156113
-0.1197887 1.5617282 -0.2738353
-0.29429924 1.8012834 0.4617843
0.3980331 1.6075675 -0.3686716
-0.5124426 1.1531078 0.36273402
0.31399205 0.44620943 0.05851226
-0.18754178 0.4237122 0.22956403
-0.41234654 0.98235905 0.5193642
-0.06865266 0.8016917 -0.28016907
0.3178516 -0.23858532 -0.7789809
-0.13120344 0.7740992 0.34829605
0.6218258 -0.27864897 0.07569067
0.6475735 -0.24980468 0.24918866
-0.4111312 1.6183307 -0.3610217
-0.16063997 1.5925875 -0.77448475
0.103284806 -0.41467738 -0.62094617
-0.16752931 0.94839656 -0.9150807
0.645834 -0.24355562 -0.91899645
-0.6248922 0.5986885 0.3719339
-0.59460443 -0.26000178 0.25695783
0.569965 -0.41540974 0.52432823
-0.14686294 1.1750548 0.055209577
0.30701065 1.3145089 -0.6767317
0.019308668 0.9888664 0.63264513
-0.69197094 1.1805518 0.2531175
-0.1598387 0.69574237 0.5430033
0.895499 -0.089364305 0.7332071
-0.5824194 1.6227791 -0.47256777
-0.5849262 -0.08881526 0.34463316
0.4005894 0.32846284 -0.32726234
0.31144595 1.3750403 0.6189962
0.25640357 1.4777801 0.7665789
0.69372743 1.1559963 0.2884426
-0.15571868 0.76753914 -0.081165865
-0.12770462 0.7836664 0.13469696
-0.6243557 -0.25123298 0.46821028
0.15283784 0.83124095 -0.2280742
0.91710985 -0.24861605 0.6457435
0.1499492 1.2044735 -0.9220623
0.41150248 -0.2524975 -0.28673097
-0.5368655 0.38610286 0.11438968
-0.49143606 -0.26228476 0.5933316
-0.33169487 0.6551107 0.47163975
0.9239217 -0.24758548 0.44045922
0.5930924 -0.25173363 0.6453419
-0.5593101 1.316918 -0.036711022
0.5335704 1.1105245 0.20996785
0.85385954 1.070811 0.31468087
0.16149078 0.49580747 0.34817976
-0.36833578 0.7075492 -0.32709765
-0.771824 -0.25469744 0.5428881
0.20257996 1.9200914 -0.36698407
-0.03603691 1.7749493 0.25437894
0.5450238 -0.08613748 -0.90961254
0.2323381 0.5532221 0.6559861
0.09432606 -0.2573246 0.9240246
0.65456533 -0.08164215 -0.73605675
0.0034232475 1.2655246 -0.33842367
-0.062367164 0.186607 0.044694956
0.47963363 1.2725644 -0.79070026
0.14838922 -0.075794056 -0.28651607
-0.7896538 -0.2521425 0.73476446
-0.7402195 -0.08258109 0.43528888
0.50619984 1.2027533 0.7110373
0.19888929 1.2589333 -0.34370303
0.08932963 1.3808339 0.2678576
-0.3675123 0.695361 0.6983216
0.5835986 -0.24552383 -0.21383184
-0.21590099 1.1992116 0.84173536
0.7819376 1.2381728 0.43562979
-0.5768296 0.83026475 0.28513736
-0.19446458 1.844937 -0.11347484
-0.6225286 -0.40369886 0.9042045
0.2393112 -0.24428445 -0.39007682
-0.56159234 0.50594 -0.41411602
-0.45107308 1.7972094 -0.3972345
0.78002703 -0.25080138 0.34124798
0.9137672 -0.2414574 -0.59372044
-0.15334553 -0.07033588 -0.00078153133
0.029322527 1.3372521 0.4865495
0.33197016 -0.08237586 -0.35782743
0.60693204 1.0518845 0.6598499
0.5391444 1.5807492 -0.0055015003
-0.70162517 1.201935 0.015939258
-0.39772362 1.2144825 -0.8346126
0.89767396 -0.40761256 -0.08613004
0.6980965 0.718887 0.45608175
-0.13912666 0.5865027 -0.54244196
-0.3439234 0.508412 0.32272008
-0.33854717 0.5766164 -0.44355553
0.06431441 -0.25421572 -0.35467052
0.72619605 0.83183414 -0.5430281
-0.4892146 0.9843246 -0.5658913
-0.05447016 1.2757857 0.66548175
-0.682091 1.3455 0.12550102
0.2728201 -0.08215032 -0.7004267
-0.8956144 -0.40587023 -0.53335226
0.038365435 0.67826897 -0.65136075
-0.27025318 1.0247211 0.6415325
-0.03155928 0.77087134 -0.48725307
0.89108014 -0.40771934 0.7330477
0.22314835 -0.07038002 0.11424731
-0.20695344 0.75211006 -0.4176135
0.046107583 1.6354275 -0.15166853
-0.44311422 -0.25005746 -0.28912026
0.89911366 -0.0875079 0.5334352
0.88599515 -0.40119618 0.9058411
-0.056398474 1.3008505 -0.094703004
-0.48842132 0.82083035 0.46685037
0.5589524 1.7103575 -0.4177388
0.30572572 -0.4032901 -0.91738164
-0.30953652 1.5702341 -0.18802217
-0.5193374 0.42530286 0.3052685
-0.3577736 0.90436673 -0.4166582
-0.14357162 -0.40881795 -0.91097736
-0.18462686 1.6204264 0.21056329
0.44592142 0.86895704 0.25843716
0.26714867 1.6716139 0.62951607
-0.36804324 -0.41589323 0.5498435
0.57170546 0.62884533 -0.307938
0.20601267 -0.4135565 -0.75851786
-0.15748246 1.7948067 0.0777999
-0.52977777 -0.08508295 -0.1512652
0.53704834 -0.099976614 0.91553897
0.76058483 0.58938706 0.11619797
0.53686726 -0.07131705 -0.122549176
-0.2112982 -0.25603905 0.76248217
-0.025774103 1.0791117 -0.95008063
0.11652589 -0.41901207 0.7510009
0.26312166 -0.23645532 0.009559644
-0.34112322 -0.41861457 0.15151605
0.26235503 0.42028558 -0.18487844
0.024828315 0.8756844 -0.9097747
0.24872684 -0.25613233 -0.60496294
-0.12603733 1.5662904 0.73125476
-0.07785586 1.8291945 0.49489242
-0.21904701 1.1821256 -0.9110632
-0.45209235 -0.2581901 0.4098583
-0.18343073 1.9874166 0.005937887
-0.1301893 -0.25935426 0.47208768
-0.3353123 0.86075604 -0.64735514
0.09564365 0.7544705 0.17490336
0.22556317 -0.26073915 0.77605253
0.9317209 -0.24605094 -0.7820663
0.44286564 -0.25515056 -0.6265926
-0.29110917 -0.25098467 0.02658568
0.2929483 1.3586751 -0.48878992
0.72292745 -0.39907724 -0.9193778
-0.72870815 1.5492115 -0.30599123
0.06332638 1.8111897 0.07944264
-0.33684796 0.47347242 0.12097731
0.1647243 1.7080674 -0.6843673
-0.92379045 -0.25828242 0.4304722
0.4482146 -0.24810296 0.5269588
0.40010384 -0.25563112 0.35476485
-0.9117037 -0.104358226 0.17165971
-0.47630733 0.71740675 -0.7041562
0.44689628 0.33172 0.18560413
0.40879464 0.51817834 -0.28504348
-0.30458748 -0.08074268 0.1166685
0.010870028 -0.08138794 -0.4831556
0.7048634 0.90716225 -0.022502143
-0.4074422 -0.23955409 0.754308
-0.22421788 0.4025991 -0.17866781
-0.065451 -0.24496143 0.28569865
-0.23667453 1.5716264 0.02432067
-0.41418412 0.9846331 -0.12898895
0.7888938 0.68976724 -0.2822855
0.901502 -0.08535211 -0.48812035
-0.31319594 1.3024665 0.43706167
0.12964815 0.84408367 0.66862035
-0.32437187 1.5286522 0.69976866
0.54671013 0.5775419 0.47776538
0.26320738 0.65666974 -0.2199271
-0.62981683 0.8700875 -0.6395663
-0.15735126 0.31221187 -0.4759009
0.38100165 -0.41944754 0.015713839
0.08681433 -0.4049561 -0.91195846
-0.14956686 1.3537037 -0.26966655
-0.71708345 0.8792064 -0.067675486
0.41329995 0.60320973 0.6122723
0.009231674 -0.41095063 0.90670395
-0.037586562 1.2756823 0.8608968
0.4607845 1.8663363 0.16367146
0.39757204 -0.083112866 0.21588683
-0.42402977 1.3165547 0.26746416
0.07945451 0.4929611 -0.7110906
-0.44842207 0.75882983 0.11314608
-0.21050479 0.9913777 0.16111648
-0.04910211 0.33511353 -0.084790744
0.2649414 -0.08750853 0.72718394
-0.89892983 1.025131 0.03050093
0.47163895 1.3814445 0.70667964
-0.7344474 1.0350022 0.093747914
-0.033455238 1.9722846 0.1850332
-0.7310723 -0.08478053 -0.90078944
0.4015963 -0.41998464 -0.17992944
-0.06957291 0.48420724 -0.21279873
0.12574425 -0.25172997 0.6081675
0.89342105 -0.086741686 -0.08804853
0.8864676 -0.08095471 -0.7051203
0.55889827 -0.4161155 -0.28939953
-0.16029882 1.3980412 0.59141684
-0.4780987 1.0427403 -0.33701137
0.34173214 1.0455134 0.20181435
-0.29872864 -0.24763758 0.5754483
-0.3728852 0.5039867 -0.27447438
-0.38351667 0.3922066 -0.46421814
0.4065559 0.74002683 -0.77144295
-0.62127167 0.6737565 -0.5453459
0.58618164 0.77977777 0.35266256
-0.6574713 1.7017252 -0.14636868
-0.08664811 1.4553728 0.38315523
-0.6040108 -0.09632851 0.14388385
-0.73045903 -0.082071915 0.7995312
0.49277467 -0.24933825 0.22721572
0.007994613 0.17660613 -0.16175956
0.20904776 0.47911137 -0.38676977
0.21848151 0.80201393 -0.8724742
-0.041787684 1.7463126 -0.6669841
0.7319026 1.4216107 0.43141586
0.34426105 0.6209557 -0.4245264
-0.35754365 -0.08325993 -0.25286216
-0.8351254 1.3895168 0.18436998
0.17594562 0.9687388 0.5027282
-0.08094505 0.41497576 -0.6209086
-0.38721922 0.28852582 -0.14716908
-0.82407284 0.9811019 -0.35931292
-0.5361436 0.6864222 -0.37840968
-0.4224796 1.6474311 0.5474378
-0.16053957 0.5736525 -0.052313607
-0.13839355 1.9187784 0.35172206
-0.92351764 -0.25523454 -0.2165865
0.5618061 -0.4077444 -0.07579756
-0.86331546 1.1739099 -0.28209594
0.85672784 -0.2492351 -0.9292117
0.47079498 1.2826214 -0.5694028
-0.1974184 0.46899533 -0.3795868
-0.3667221 0.703034 -0.108927816
-0.31401724 0.8376659 0.21141967
-0.109468944 1.1447008 -0.18908085
0.08816244 0.3516727 -0.21915185
0.5786017 1.2643178 0.39181852
0.75239575 -0.25115046 0.542657
0.8933692 -0.40756655 -0.6871618
-0.04440151 1.0893753 -0.40925062
-0.35596508 0.4880117 -0.07923548
0.3524552 1.6360164 -0.6813289
0.40442634 -0.2530084 -0.10611711
0.38831732 1.846106 -0.38614827
-0.18477942 0.3160693 0.39132962
-0.23370191 -0.08524887 0.50923455
0.21351808 -0.40924814 -0.0952273
0.13633275 0.19073886 -0.017676387
0.66760194 0.85425556 0.17378737
0.33100897 1.9358712 -0.18328872
-0.886629 0.99169016 -0.17163575
-0.028485447 -0.09574456 0.91325074
0.9107342 0.97393125 -0.017140165
0.009707281 0.6990541 0.027305398
-0.25606212 -0.084290996 0.7128711
0.40194455 0.5006443 -0.094426826
-0.33587563 1.7370403 -0.032320697
0.37851697 0.701182 -0.055187017
0.19641072 -0.2462389 -0.92680883
0.09747842 1.0996258 -0.2601
-0.25495553 1.9210876 -0.32320052
0.5599216 -0.08559802 -0.53201526
-0.34107867 1.4800205 0.1545983
0.41781378 1.7206755 -0.5346527
0.59168726 1.2209306 -0.42291176
0.90012884 -0.085944906 0.11399663
0.62771773 0.97545147 0.32638004
0.6084112 0.66642404 0.18827172
-0.320143 0.53625435 0.6073855
0.20659682 1.7092006 -0.39804143
-0.42703533 -0.40772897 0.89559895
0.11495195 1.4997693 0.39845514
-0.7326989 -0.24860522 0.918293
0.38141602 0.9341807 -0.84899235
0.58228016 -0.2501826 -0.41050297
0.7026684 1.1403437 -0.26716223
0.5493134 1.5837524 -0.57988846
0.3406052 1.5727932 0.11900161
-0.8221637 0.8154981 -0.25445664
-0.78455186 0.65574986 -0.13461277
0.3951926 -0.41176915 -0.7637323
-0.63768876 0.7657409 -0.23114243
0.6995028 1.5674902 0.31625193
0.72591406 -0.41762608 -0.18511334
0.7203777 1.6341741 0.12021245
0.7358031 -0.08301637 0.6475619
-0.61829793 -0.25675267 -0.61608803
0.019383347 1.0917983 -0.047746792
-0.25262177 -0.41299456 -0.2612539
-0.36379966 0.314126 0.25785714
0.19556312 -0.0836834 -0.49525943
0.17501846 0.6985524 0.7776659
0.07546993 1.846913 -0.5271466
0.45017552 1.0959923 -0.31070536
-0.6448314 -0.08113144 -0.74078786
0.14402756 1.7744079 0.27027518
-0.5444997 0.3849808 -0.08046144
0.31021222 -0.25093687 0.6198828
-0.01898611 1.9403167 -0.36770236
-0.30761677 0.8245686 0.40486476
-0.3521278 1.7064255 0.16301626
0.8998229 -0.4081195 0.3277579
0.21731928 1.2316747 0.217799
0.023835592 -0.24423867 0.7680989
-0.7877447 1.3424999 -0.3795902
-0.52540386 1.1632323 -0.19160165
-0.5140817 1.2954775 0.47953835
0.25516117 0.86126995 0.19906613
0.651151 0.8219362 -0.36765838
0.56613505 -0.20096493 -0.044105746
-0.6752846 0.525682 0.19126523
-0.59798354 0.9061803 -0.4064073
-0.3004226 0.8675443 0.0055208444
-0.30269212 1.8135264 -0.47894576
-0.8446864 1.3812735 -0.20195034
0.1818873 0.9889467 -0.10664795
0.6621419 1.6913369 -0.27195114
-0.93210137 -0.25446504 0.63576126
0.48152548 -0.41377926 0.9052403
0.71358454 1.2806828 -0.0977319
0.15677512 1.597611 0.2008611
-0.32717204 -0.07832748 -0.073639765
0.021640733 1.4534261 0.79802144
-0.77926075 1.5540061 -0.101929426
0.062748484 1.1902978 0.3501565
-0.20467514 0.923513 -0.53727245
0.06920914 -0.07675888 0.25102186
0.13952565 0.62611353 0.47542816
-0.12799293 -0.4164381 -0.61255765
0.25335932 1.6306155 0.41505706
0.8995609 -0.40622956 -0.48818338
0.18876487 1.5176874 0.56235325
-0.44116446 1.1588291 -0.026917748
0.3817825 1.4720955 0.47119984
-0.16940713 0.5480822 0.3966354
0.12367304 0.5634042 0.14960971
0.4426241 1.4392554 -0.22203213
0.73393965 -0.42081994 0.02124409
0.032621402 0.6815964 0.63005096
0.059503566 1.6815836 0.4304735
-0.26837376 1.4561685 0.3283664
-0.044019155 1.2718308 -0.91884136
-0.30742866 0.809673 -0.83186
0.12012945 1.7805331 0.56189674
0.57091695 0.4515146 -0.37383002
0.8962923 -0.40784878 -0.28794014
-0.575392 -0.41590685 -0.31814674
-0.011451455 0.44600183 0.30575597
0.032836035 -0.08967885 -0.91396475
0.57563215 1.1615671 0.004048613
0.08000405 1.9138432 0.37204796
-0.7186288 0.63425624 -0.34215802
-0.18801859 -0.41257766 0.613606
0.5592897 1.5123756 0.17118558
0.22495203 1.3209417 0.44177288
-0.38212836 0.2851312 0.043140866
0.5471891 0.8903711 -0.5365008
0.02011411 1.0964051 0.16269502
0.76091427 -0.24137355 -0.74017555
-0.14833468 1.672035 -0.1096904
-0.32138216 -0.4154492 0.73919344
-0.08887913 -0.4152241 0.7576151
-0.61777157 -0.25243908 0.7243072
-0.13720769 0.9312035 -0.7291113
-0.25176466 -0.25626433 -0.9240196
0.7304186 -0.41341156 -0.5822125
-0.6000868 -0.25088054 -0.42375138
0.7943976 0.72903967 0.2590558
-0.13615036 -0.08572828 -0.5925708
-0.011633495 1.4424636 -0.65312266
0.69355583 0.64612114 -0.4515776
-0.36167663 1.2981744 0.055077106
-0.16550279 0.96587753 -0.36090857
-0.5514858 -0.09022542 -0.91521156
0.26477456 1.131243 0.41843188
-0.84427404 0.86944187 0.16527101
-0.27350074 -0.24314779 -0.3728726
0.5288398 -0.41070893 -0.899832
0.40264112 -0.24415249 -0.46617532
-0.70204425 -0.41804582 -0.8004049
-0.32115287 -0.25118625 0.92217565
0.37664735 -0.41741204 0.2195397
0.015437959 0.8641143 -0.08108665
0.054755285 0.5468061 -0.5104089
0.80367774 1.5472399 -0.025668375
0.69926536 -0.41701555 0.8783393
0.5171649 0.34691516 0.01014905
-0.55975544 -0.08545688 -0.33725038
0.6516255 0.7714984 -0.17564392
0.515777 1.8218048 -0.24157983
-0.09883537 1.2729112 -0.7286071
0.6684247 0.5660038 0.32203028
0.06195136 1.6059697 -0.55583966
0.89527476 -0.40612334 -0.8810534
0.57236713 0.7048029 -0.6304637
-0.7586882 0.71659774 0.2742226
0.4428066 1.0758069 0.3686869
0.5467007 -0.25522923 -0.77719355
-0.3568312 -0.087658554 -0.912084
-0.11024581 0.561527 -0.75549006
-0.015856702 0.5489725 0.49088684
-0.21204516 -0.23850122 0.17933461
-0.25540113 1.4105444 -0.12253797
-0.014252738 0.72275907 0.80555093
0.16064951 1.0225921 0.27768114
0.32499015 0.56804323 0.43115366
-0.92416453 -0.24838114 0.0060396427
-0.0074014445 0.41988587 -0.38521487
0.100059405 1.6093211 0.7157265
-0.8331001 1.3846861 -0.011328137
0.37761125 1.1224816 -0.678389
-0.09402292 0.9580487 0.036381327
-0.6304666 0.9580112 -0.21736665
0.57730746 1.6076385 0.4645756
-0.009642392 0.34793293 0.48838943
-0.5185376 -0.41899163 0.7101595
0.7218353 1.035039 0.13041064
-0.30515724 1.7474518 -0.25148878
-0.6205334 0.69389296 -0.046907093
-0.17936414 1.3621304 0.041503377
0.49911156 0.90626043 -0.29063168
0.9018389 -0.08663868 0.32510513
0.24720535 -0.25031883 0.4423378
0.25645864 1.0138543 -0.3336566
-0.52068126 0.65626 0.5640509
0.106082276 1.9820523 -0.20437886
0.033191003 0.5077468 0.6778037
0.07370319 0.34128982 -0.53881407
0.5044687 1.3667235 -0.019273082
0.34412083 0.88266766 0.60112417
0.62467027 -0.24985558 -0.6074717
