0.58377075 2.5873966 0.62567043
0.44962078 1.7555411 0.07455063
0.4488498 2.772193 0.3863305
0.748584 -0.25126126 0.7552122
0.3745391 2.228879 0.6072924
-0.6121456 2.2110386 0.4393158
0.008370848 1.4838432 -0.38293305
0.6448745 2.4024057 0.64199996
0.28508288 3.0499487 -0.47125697
0.7784497 -0.248995 0.93262327
0.4608007 -0.08507371 -0.72849786
0.005473598 -0.4165007 -0.4687624
0.021745566 2.669353 0.13647157
-0.74999803 2.33536 -0.09604228
0.28550526 2.6479707 0.35613382
0.099126115 -0.24604037 -0.5298583
0.2940225 1.6913397 0.221721
-0.33811224 -0.08511931 -0.58324325
0.106865525 1.932167 -0.36803338
-0.90553176 -0.09621589 0.73204374
0.45568556 2.9851542 0.43344742
-0.6113205 2.7559586 0.0267866
-0.47573644 -0.25282827 -0.92599547
0.4270743 -0.081887335 0.6436393
0.21296236 1.6882356 -0.6181328
0.85912126 2.5995789 -0.074356645
0.87440145 2.4465208 -0.18590617
-0.28964132 2.304514 0.022746455
-0.21407866 2.906241 -0.34812248
0.1870578 1.456528 -0.23136204
-0.4420614 2.607952 -0.14462641
-0.75849617 2.0911508 -0.44836056
0.002109232 -0.08550672 -0.1282829
-0.7501538 2.7945323 0.16906665
-0.7239301 -0.084317 -0.42102563
0.31913775 2.3969684 -0.45380193
-0.58985186 -0.41558337 -0.10504622
-0.38921326 2.573779 0.6700858
0.09636008 2.6719308 -0.40456203
-0.2979368 2.088151 -0.22942461
-0.05501046 2.5420804 -0.4855857
-0.26053035 2.40901 0.6703921
-0.75678456 -0.07730198 0.21753088
0.2148354 1.873596 -0.7671166
-0.058806017 -0.088052675 -0.763501
0.75472784 -0.25029325 -0.49767882
-0.56439984 2.4701614 0.71253514
0.5952494 2.6523852 -0.6027237
-0.10614392 -0.2470837 -0.46220267
-0.16203794 2.3885539 -0.74083704
-0.113906115 -0.0810637 0.1878031
-0.78532386 2.4635863 -0.4411845
0.37564468 2.2596042 -0.0017143694
0.13404581 2.6673515 -0.019103844
0.19901508 2.2332146 -0.528882
0.92215776 -0.24876107 0.0030017635
0.037450537 1.957016 -0.8340007
0.820892 2.0798588 -0.33254734
0.6870653 2.9092653 -0.0057522403
-0.25313324 1.4490423 -0.10948229
-0.44509605 2.6813493 0.48192307
-0.13024604 -0.24515092 -0.26297557
0.85189974 2.4564357 0.3084744
-0.72022283 -0.42022532 0.77530056
0.3265204 2.4096208 0.84672284
-0.50009865 -0.41918582 -0.72880924
-0.74459374 2.2837305 -0.50846237
0.123353526 1.5932391 0.17135882
0.2647947 2.0431385 0.8275059
-0.562534 -0.084923804 0.55390286
0.7506792 -0.08764209 -0.5927393
0.82449746 2.428672 -0.35898995
-0.1263519 2.8551018 -0.5135487
0.2923324 1.4631546 -0.021660961
-0.03170339 -0.41417724 -0.76762784
0.7325815 -0.4176364 0.6447686
-0.14506936 2.0339177 -0.8472783
-0.49700904 2.0786486 -0.51711965
-0.02325857 2.1993442 0.42697406
0.5637951 -0.084201775 0.10439491
0.20987102 -0.41620278 0.29219192
-0.35506585 -0.41729677 -0.5843957
-0.37805343 2.5010602 0.81653666
0.11714009 2.6926064 -0.8224629
-0.89241624 -0.09881509 -0.9118029
-0.7874704 2.309462 0.44894433
0.09171727 -0.420344 -0.25403672
0.3855258 2.4004393 0.14087357
0.46047142 1.616843 0.3362909
-0.06313006 -0.08194022 0.5714297
0.11445621 3.0204425 -0.20033342
0.11158067 2.4768648 -0.09716631
-0.7619723 -0.23990396 0.32358864
-0.5069536 3.0340214 0.25041506
0.41517082 2.437839 -0.074998565
-0.52353084 1.7288051 0.4441688
-0.8721212 -0.08352405 0.022609482
-0.53266394 2.0833333 -0.039721206
0.7386184 2.401228 -0.5123799
-0.20964757 2.6986265 -0.5958649
-0.21854496 2.8816848 0.6808795
-0.34785748 3.1422608 0.15891445
0.54398507 2.127461 -0.70751315
0.32294387 2.8979478 0.33971152
0.67570674 2.2487268 -0.605978
-0.40200847 -0.08828333 0.45096922
-0.62317634 -0.09169078 0.9174762
0.4118966 -0.08301733 0.43199486
0.6004373 -0.26307768 0.89988256
0.9194523 -0.24689555 -0.39669168
-0.89679277 -0.40783578 0.10759538
0.7446354 2.2924378 -0.03548961
0.91704214 -0.2478644 -0.19795468
0.507629 1.7976425 -0.5249016
-0.5335973 -0.41995 0.4739253
-0.17306028 1.4920478 -0.30062133
-0.70480525 -0.41481978 0.39965776
-0.13691458 1.7940962 0.14102645
-0.3443087 2.378261 -0.44570863
-0.89908546 2.4691195 -0.047023006
0.007317353 -0.41624725 0.5795405
0.11265509 1.589786 -0.032840833
-0.692943 -0.07827887 -0.012575326
-0.7148318 -0.4167062 -0.6219692
0.031431943 2.1376526 -0.6909456
-0.8969033 -0.40696815 0.72088194
-0.9031575 -0.092309594 -0.5290154
-0.61227995 -0.25105423 -0.21114656
-0.34653068 2.3239918 -0.8432008
0.42695683 -0.25421545 -0.9248615
-0.5884557 2.8095121 0.4978155
0.002089743 -0.41696188 0.3747192
-0.26198226 1.9639971 0.7984634
0.34098214 2.3996305 -0.83728254
0.40846086 2.7322388 -0.50376695
-0.51802754 2.7928276 -0.16625494
-0.5240953 -0.24506766 0.91247773
-0.49553764 -0.2526781 0.11855958
0.6172593 2.2531352 -0.37623662
-0.0018334968 2.7859693 0.325769
-0.061861016 1.597801 0.09619623
0.08189767 1.478975 0.33650795
-0.26681787 -0.41809618 -0.7483777
0.40366033 -0.26954 0.9225739
-0.25524196 2.7210023 0.57192814
0.39523286 -0.084423006 -0.53566825
-0.17045969 2.3957007 -0.5357564
0.83097374 1.9688699 0.064904325
-0.47708905 2.782968 0.32758874
0.37494504 -0.076411285 0.87600267
-0.098118216 2.0666547 0.86123663
0.26353619 2.7064452 -0.28405854
0.30708635 3.106235 0.35446155
-0.36254558 -0.25310653 -0.77386737
0.7364343 -0.081352785 0.21147865
0.26960832 2.363366 -0.13930134
0.38178366 2.2033086 0.8131558
-0.47607964 2.9604023 0.4421229
0.5567734 -0.422944 0.12508866
-0.7137371 2.467648 0.5302584
-0.15250368 2.4805489 0.45797217
-0.036051564 -0.24904084 -0.63660574
-0.54899716 -0.08486085 0.74754727
0.78375304 2.7630656 -0.15473725
0.16615927 1.9908717 -0.0329839
0.90947515 2.3825889 -0.019161552
0.52578694 1.8318158 -0.106615245
0.58406067 2.756601 -0.24145988
-0.085880145 3.021119 -0.20738532
0.36480647 1.6658361 -0.5063535
-0.08920938 -0.4168095 -0.1388486
-0.7433198 -0.41546345 -0.2153731
-0.26935446 -0.41648942 -0.05794347
-0.2881552 1.8853388 0.24477515
0.9035404 -0.089337945 -0.89801794
-0.37794405 -0.41058856 -0.90176964
0.118672356 -0.25434437 0.3165242
-0.895553 -0.09122554 -0.3326416
-0.026591755 2.2141092 -0.19518664
-0.20654476 1.7863109 0.69910395
-0.67245686 2.10548 0.11968712
0.030499041 3.225773 0.08353087
-0.09751485 2.7182357 -0.38401926
0.92400014 -0.24726444 0.21874848
0.16248736 -0.4140613 0.4652661
-0.040843226 -0.25628942 -0.9157239
-0.9157941 -0.26037133 -0.8718469
-0.16052413 -0.41460496 0.26033187
-0.70487154 1.97877 0.4619329
0.031234907 2.348021 -0.76339775
-0.25405324 2.682935 -0.7960011
0.7013321 2.1698413 -0.19934016
-0.34216183 1.5554216 -0.36011302
0.63479555 2.682787 -0.06939846
0.44712645 -0.23910215 0.756459
-0.02002392 2.702273 0.6300427
-0.41243085 2.958627 -0.49823648
-0.118375234 -0.2515357 -0.060926825
0.7354326 2.2189407 0.531205
-0.2629118 1.4567729 0.121935755
-0.17822975 -0.42095363 0.4483959
0.2540914 -0.08356927 0.5390898
-0.28929102 2.4757504 -0.09754672
-0.30391634 2.7014687 -0.282605
-0.50149405 2.7217908 -0.34256256
-0.41376734 2.3083522 0.8080914
0.3137123 1.8867764 0.73515785
-0.55008173 -0.08436523 -0.5459894
0.090229645 -0.08254118 -0.667537
0.19854234 2.3022265 0.093796104
-0.81440616 2.5165994 0.37624305
0.3717313 2.204123 -0.6290138
-0.7019502 2.1422508 0.56510437
-0.45148003 2.4632182 -0.5915166
-0.12933075 2.3183742 0.54396516
0.041026074 -0.26027507 -0.18746966
-0.77137303 -0.24189611 -0.10468202
-0.016659822 2.9565766 -0.36566058
-0.3255838 2.3256717 -0.22276199
0.2519812 2.3617706 0.67660856
-0.25923365 -0.25321174 0.3787668
-0.51103795 1.8118064 0.1816678
-0.53564966 2.4171417 0.18503097
0.23067936 1.4521269 0.15955864
-0.13272923 2.674578 0.23186657
-0.9025251 -0.40429053 -0.1090776
-0.5865004 -0.40623927 -0.9156476
0.53022623 1.9021554 0.60115826
0.089822456 2.5543447 -0.69562113
0.25474292 2.801506 -0.73657084
0.4376369 2.723578 -0.69238764
0.059568103 2.662258 -0.19413903
0.35401458 -0.08431323 -0.18874167
-0.5146897 -0.42210808 0.2621318
0.096604906 -0.08285083 0.4512933
0.046533547 1.4230356 0.14065835
0.8852961 2.2475212 -0.2054418
0.67452085 1.7500336 -0.23325327
0.7364316 -0.08620499 -0.90490127
-0.43194464 -0.25567925 -0.47467232
0.21037644 3.2000458 0.053642336
0.09391639 -0.24194506 -0.03296866
-0.21535228 -0.41438216 -0.45159802
0.40410173 1.960208 -0.22865078
0.3793371 2.4571111 0.3578045
0.3346336 -0.4214102 -0.5927973
-0.29360956 1.7399327 -0.6368184
-0.5024464 3.0781968 0.05254717
0.43150046 -0.41243425 0.61950755
0.52450836 3.058836 0.028181072
-0.083130375 -0.08575408 0.38095027
0.38449323 2.201052 -0.4263584
-0.3087427 3.1855235 -0.041053705
0.23928195 -0.4021141 0.91226673
-0.20425239 -0.08212924 -0.40958372
-0.103717625 1.452786 0.24871731
0.14776301 2.0579495 -0.51098555
0.39122468 2.5033503 -0.2918132
-0.64622056 2.6726222 -0.14816594
-0.28478009 -0.25117612 -0.164543
0.8268753 2.6168013 -0.2888863
0.5450569 -0.41311944 -0.50697064
-0.44896412 2.199523 0.32473448
0.11838654 2.3648486 -0.4240417
-0.37790248 -0.25989127 0.23628329
-0.44226316 -0.08753288 0.25150484
-0.20175415 2.4439135 -0.31950355
0.8945453 -0.09472126 0.9071192
-0.092101306 1.868869 -0.36368755
0.9284805 -0.24938853 0.8524027
0.08522974 2.825718 -0.27901924
0.21741575 -0.41559428 0.09851062
-0.12824789 2.2577486 0.7415407
0.367182 3.1455593 0.11834669
0.19603616 1.5441128 -0.42677718
0.6790065 2.5754511 -0.24203813
-0.48751926 2.0997872 -0.24370936
0.42863017 2.7112436 0.70441276
0.7342471 -0.41633445 0.42438498
-0.5650724 2.5833178 -0.6726836
0.52292895 -0.08204751 -0.33795887
-0.5332687 2.3719454 -0.74001825
0.7220125 -0.41604057 -0.3984823
-0.8967769 -0.09238931 -0.14392132
0.77096593 1.8453629 -0.083236836
-0.8679483 -0.09458647 0.91247797
-0.8810843 2.4645605 0.16063297
-0.20595476 2.1999378 -0.12735431
0.27198648 1.8756683 0.11785649
-0.23946229 1.623877 0.0020468645
0.33347213 2.978548 -0.16929722
0.29040366 -0.24914204 0.21461475
0.06968498 2.1373072 0.09281811
-0.18574305 2.1229005 0.52415943
-0.10945579 -0.2608745 0.91659933
0.52458614 2.3210776 -0.74563575
0.7188077 2.5968852 -0.4696972
-0.121089935 2.8418558 0.49520457
0.20883131 2.6299005 0.16442603
-0.19138628 2.5654964 0.85012496
0.26526874 2.4962378 0.040546454
-0.16303754 2.0392103 -0.6478323
-0.53282905 1.6462193 -0.30577445
-0.7522758 -0.4133001 -0.005193677
0.11139631 2.5248828 0.7011695
0.71506774 -0.084349796 -0.20679998
0.72272325 -0.082691886 -0.0017014091
0.48625374 2.852819 -0.106736004
0.7036253 -0.41482893 -0.7656437
0.30178678 2.0963726 0.060248595
0.2518409 2.8150508 -0.12922934
0.53375685 1.6196525 -0.19806221
-0.46800196 -0.083885774 -0.73333335
0.5761267 1.6384027 0.1633007
0.2785198 2.0600095 -0.35866883
0.7095232 2.7702618 -0.3651273
-0.47548354 2.8647213 0.13740878
-0.7648547 -0.24809961 -0.318102
-0.4232204 -0.41654935 -0.18226963
0.76954055 2.0698884 0.38985384
0.35163778 2.7060406 0.010666423
0.17547753 2.2843854 -0.8988958
-0.7719294 -0.2535245 -0.52431
-0.33202383 2.7815068 -0.46826395
0.26570356 -0.41143674 -0.28397983
-0.64059633 1.9292874 0.12444772
-0.6850767 2.3834877 -0.29497403
0.42339107 2.4350128 0.56597024
0.09719032 -0.24148291 -0.767673
0.2465322 -0.08621904 0.3260372
-0.14065592 2.335835 0.32027256
-0.59471095 2.2834992 0.0070693586
-0.8898283 -0.41211182 0.32475775
-0.85876095 -0.40536493 0.906319
-0.72262347 2.7256224 0.3637431
0.35231084 -0.41784814 0.77877045
0.6550031 2.050359 0.56652856
-0.57756186 -0.25185537 -0.7866249
0.23047474 -0.24159361 -0.19064806
-0.89460295 -0.40520775 -0.7330785
-0.41961023 2.6946702 -0.6973938
-0.2421915 2.1934772 0.37050837
0.62368995 2.971149 0.16376904
0.549747 2.482986 -0.16572368
-0.6140219 -0.24292424 -0.015638914
0.72581786 2.4119148 0.14986396
-0.89731 -0.40729302 -0.32272655
0.80336064 2.2413282 -0.41524974
0.27233332 1.5289587 0.34613904
-0.64995104 2.9484553 0.1154817
-0.73335683 -0.4150185 0.21466398
-0.4176461 2.0937498 0.77415836
-0.7398989 -0.08542007 -0.6023035
-0.21283555 -0.41369587 0.89753854
-0.67018205 2.6364665 0.5401305
0.8791651 2.533011 0.11135657
-0.7447121 -0.24321601 0.11505839
-0.027012028 1.8672535 0.30609316
-0.45622015 2.915104 -0.05661408
-0.53197396 1.8617926 -0.22188532
0.21307366 2.051912 -0.6813073
0.19644645 2.240077 -0.7234713
0.29628968 2.604576 -0.81055015
-0.5473286 -0.41660422 -0.5252894
-0.4408849 2.36194 0.60818267
-0.26186758 -0.08561899 0.31127006
-0.9021995 -0.095209904 0.35155025
0.09578961 -0.083637536 0.66888833
-0.4507274 -0.25107858 -0.085610166
-0.67809427 2.756878 -0.41804823
0.45456892 1.9622993 0.107832395
0.38887307 -0.08219004 0.0064947046
0.12605478 1.5887411 0.51449156
0.78295213 -0.24302588 0.11007966
0.4881588 2.0689108 -0.058143824
0.1843004 -0.07811681 -0.8781214
-0.4127683 2.717481 0.019266885
0.6036879 -0.24693923 0.42069817
0.30341524 2.1156902 0.4154744
0.47634977 2.8877413 0.21173316
0.12524065 -0.25206178 0.14306358
0.68220854 2.6094556 0.11094476
0.5467007 2.4887018 0.21675959
0.015600138 2.3635042 -0.59209234
-0.02156967 2.1028376 0.26776338
-0.39930117 -0.41820836 -0.38716462
-0.72715795 -0.08968586 0.6214396
0.5519955 -0.41561204 0.32910866
-0.8999628 -0.09310812 0.5406914
-0.63446987 2.890719 0.30695826
0.032489166 -0.4165584 0.18513048
-0.66664624 2.4104333 -0.61438835
0.7496613 -0.25159645 -0.3060034
0.3682741 1.9263192 0.4528669
-0.028696071 2.241461 0.9117408
-0.9186853 -0.27034932 0.22037035
-0.21998079 -0.09256162 0.9013512
0.14124016 2.522687 -0.51130176
-0.84957665 -0.40632388 -0.9152231
0.3276747 2.1368637 -0.15817368
0.22145395 1.8822706 0.29907638
-0.6031673 -0.41027296 0.09827252
0.47435036 1.981936 -0.4233819
0.21133459 3.0178585 -0.021128345
-0.3961233 2.512904 -0.30263248
-0.92578185 -0.24753302 -0.6444024
0.89517176 -0.08682869 -0.29607385
0.62796485 1.9236405 0.024956144
-0.7097343 2.5150137 -0.13189098
-0.3230692 2.3456364 0.4420362
0.20213912 1.9166458 0.55764127
-0.52053773 2.6812317 0.66790116
-0.04041382 -0.085503854 -0.31061405
0.50358295 2.1634302 0.12332247
-0.53703415 2.6743567 0.19475743
0.13067393 2.0156808 0.3830211
-0.7288954 -0.41712698 -0.42446572
0.39842534 -0.41822422 -0.40275133
-0.07231899 -0.08430861 0.75990117
0.1496607 2.4560628 0.88810956
-0.4868227 -0.083735116 0.040156327
0.54080164 -0.42144048 -0.6851013
-0.3980077 -0.082330085 0.6491946
-0.018363956 2.8586845 0.12852582
-0.72031426 1.7633107 -0.028634645
-0.4421326 -0.4158075 0.025772177
0.19542296 1.8746719 -0.56600904
-0.68704414 1.7677994 -0.23007697
-0.103775874 3.1165466 -0.42502928
0.42372876 1.8167286 0.27939844
0.5434017 2.2569795 -0.113954306
-0.04392279 -0.24943301 0.105020985
0.5833384 -0.0843842 0.5319689
0.08071816 2.066146 0.8649742
-0.6954875 -0.4127188 0.5977257
-0.2558766 2.1706824 0.8611033
0.51860034 2.6482396 -0.36904705
-0.88946915 -0.08888392 -0.73434985
0.8954985 2.3106651 0.16124357
-0.6032281 2.5797439 0.35988456
0.18397892 2.718215 -0.59832203
-0.08162299 -0.41327283 -0.32120365
-0.2863106 2.531859 -0.63539344
-0.22480348 3.000066 -0.56255406
0.56117046 2.267117 0.5274652
-0.39773238 -0.08499294 -0.4240582
0.25840652 -0.18499152 0.92727315
-0.76941067 -0.24299824 -0.74026024
0.684751 2.5345693 0.31390402
-0.44632965 2.6125813 -0.4887069
-0.3449703 2.3403847 0.22258696
-0.32099655 2.8472462 0.42704642
-0.3171122 1.9160141 -0.750736
0.07351502 2.1648054 -0.35890853
0.06502959 2.321524 0.7644887
-0.5986471 2.5655637 -0.31121495
-0.030348634 2.885716 0.705786
-0.19351491 2.98387 0.3671736
-0.01663078 1.7336223 -0.04493616
-0.0748642 3.2283378 -0.101359904
-0.07217194 2.722865 -0.028501147
-0.0043820413 1.9075334 -0.16947004
0.03924595 -0.081560105 0.05662514
-0.5555171 2.224699 0.7099438
0.19258538 2.1846738 0.71003246
0.7327069 -0.41694188 0.22080085
0.43171236 -0.25435793 0.0770604
-0.89268583 2.0970697 -0.03952542
-0.5221616 1.8207257 -0.007903069
0.16740698 1.7949047 -0.052588686
0.06907665 2.479228 0.1081469
-0.41060948 -0.084273055 0.88773906
0.27289444 2.5850039 -0.13480915
-0.34626016 3.086419 0.36807775
-0.4886727 2.1978805 -0.755123
-0.24344009 1.8832879 -0.2438156
-0.9228028 -0.25475037 0.86928976
-0.33871853 2.017696 0.6014291
0.36975253 -0.41844034 0.43457872
-0.24771634 2.500067 0.2740627
0.05025027 -0.41575652 -0.019469302
0.33123142 1.6250226 0.509667
-0.46702558 2.2079177 0.12620485
0.19568259 -0.413778 -0.4561484
-0.48281294 1.9196296 0.32439673
0.18143082 2.8371143 0.074371606
-0.017801289 2.0007613 0.49048215
0.8503952 2.038909 -0.13032293
0.19457565 -0.080952175 -0.08200256
0.64058137 1.6854355 -0.031104608
0.20605035 2.4100652 -0.6654858
0.3754387 1.823326 -0.6570235
0.07717426 2.3383248 0.5717854
-0.13250986 -0.41444182 0.066924445
-0.1841238 -0.08301841 -0.1913626
-0.5604347 2.0311294 0.65361667
-0.5357171 2.7861185 -0.5669364
0.9008887 -0.40806335 0.1137066
0.81507725 2.6526031 0.25874615
0.5722422 -0.41233337 0.7415587
0.053756393 2.864965 -0.72205514
-0.25101757 -0.2511649 -0.5869458
0.51682794 2.6030343 0.40919808
0.8976234 -0.40884134 0.5284902
0.2746091 2.9892545 0.1786947
0.35330287 -0.08691797 -0.907994
-0.07331545 2.7233393 -0.8070166
0.14511067 -0.076813206 0.87681556
0.016658569 3.0543885 -0.017716013
-0.19912772 3.1639273 0.2734682
0.27540934 3.0056846 0.5317983
0.6049546 2.899239 0.36400574
-0.56741166 2.4345603 -0.44306624
-0.26123378 -0.08634834 -0.7491399
0.71958864 -0.08413406 0.87801564
-0.7208314 -0.081999004 -0.21685892
-0.4446299 -0.25059482 -0.63595414
-0.45083743 3.1010485 -0.1327059
0.6277573 2.4610274 -0.63941395
-0.64115536 2.2429636 0.25432438
-0.33073783 2.3277075 -0.6573399
0.35555106 2.0209982 -0.5604675
-0.14001155 2.0266378 0.67662644
-0.34009057 1.9762332 -0.56572807
0.3749522 1.5130829 -0.16808036
0.8585193 2.1012282 0.20301984
-0.34881806 -0.41989875 0.35331607
-0.33761433 2.8545876 -0.65786374
0.18915956 2.2495008 0.8935853
0.73810846 -0.082861856 0.4249937
0.3819713 2.9286118 0.029797595
-0.92520386 -0.25282198 -0.4271235
0.43269944 2.8702693 0.57800746
-0.2057928 1.6343634 0.5549259
-0.88299936 -0.4137693 0.5243918
0.51152194 2.3330884 -0.51722795
0.4773806 2.0826824 0.5122398
-0.37778732 1.6087713 0.42529976
0.46579325 2.031608 0.7284992
-0.1599886 -0.25500286 -0.7631737
-0.7141472 -0.26033795 -0.92596054
0.39277405 2.592671 0.20258063
-0.08042273 -0.24402812 0.64361596
-0.16724685 -0.08985257 -0.91626716
-0.87191916 2.302772 0.2719531
0.07907366 1.7716142 -0.2522321
0.5775324 -0.08692168 0.74700505
-0.033865146 2.1966949 -0.51432973
0.17918615 3.1789505 0.24746071
0.24395068 -0.41881242 0.61390376
-0.47809842 1.8399792 -0.60036016
-0.31468773 1.8924325 0.05763466
-0.5784515 2.97973 -0.23309699
0.038730375 -0.24585006 0.4738251
-0.6576507 2.3267226 0.60762787
-0.8017942 2.128883 0.36265373
0.7502865 -0.25308245 -0.098996796
-0.25014168 2.582688 -0.43971848
-0.058409184 2.500091 0.25367534
0.7139101 -0.08481163 -0.4005478
-0.6740706 2.6083121 -0.5236405
-0.8211622 1.9350643 0.059341677
0.5684371 -0.08294585 0.3174615
0.25575477 2.8246298 -0.4564047
-0.111313164 2.807317 -0.20990509
-0.27523094 3.0041022 0.54220307
0.408108 2.8322072 -0.3046074
-0.5308199 2.3730907 0.40070045
0.2784152 1.6530609 0.038475253
-0.23373714 1.6392219 0.20556414
-0.43400854 2.1906838 0.5340862
-0.08545546 2.0511782 -0.27657014
0.31603342 -0.23693533 -0.78233695
-0.16409737 1.9968066 0.3470669
0.6262046 -0.27500972 0.06953081
0.65187573 -0.2482009 0.2417905
-0.39802396 2.88606 -0.2914317
-0.14796661 2.8710399 -0.71009934
0.098085165 -0.41483766 -0.6255555
-0.17843425 2.2447639 -0.89307934
0.64517593 -0.24452308 -0.9181156
-0.66460717 1.8260772 0.35243195
-0.5955479 -0.26575702 0.28024235
0.5763589 -0.41465774 0.5220563
-0.1517939 2.400517 0.09443315
0.3085052 2.5776126 -0.6261848
-0.008395648 2.165027 0.65071344
-0.70122325 2.4149709 0.2859311
-0.18947105 1.8878335 0.52674145
0.8974701 -0.08975337 0.7292719
-0.56867206 2.9072518 -0.40042067
-0.5807966 -0.08938913 0.36180544
0.37095183 1.5641662 -0.3414348
0.30062044 2.5392375 0.673608
0.25553605 2.6338902 0.82440543
0.6777868 2.3149538 0.34045768
-0.18139765 1.9974365 -0.081532225
-0.14164683 2.0069869 0.13264106
-0.6236242 -0.24822173 0.4918741
0.14105259 2.0615983 -0.21450958
0.91749895 -0.25032988 0.6403276
0.15602106 2.481619 -0.879148
0.41050893 -0.25082916 -0.29529
-0.57954323 1.6293788 0.082420185
-0.4779836 -0.26140353 0.59510624
-0.36280745 1.8583777 0.46172094
0.92356974 -0.24846844 0.4339819
0.59868896 -0.25083533 0.6487494
-0.55888987 2.5632052 0.011376368
0.52339995 2.310501 0.2466625
0.84316087 2.248364 0.34577018
0.122783005 1.689961 0.3371
-0.40131804 1.9624555 -0.35282874
-0.7813642 -0.25442743 0.52620184
0.2299999 3.1564016 -0.28477877
-0.020185936 2.9790096 0.32973725
0.5417607 -0.086652234 -0.910355
0.19087528 1.7218888 0.6465826
0.09713334 -0.2599271 0.9245251
0.6539501 -0.083101526 -0.7425592
-0.0032073352 2.5112538 -0.29396093
-0.100350544 1.415761 0.018016376
0.4780039 2.5322356 -0.7470932
0.14767802 -0.082868665 -0.28668368
-0.78605855 -0.25433868 0.7221755
-0.7379893 -0.08148504 0.42963946
0.491665 2.347286 0.7504498
0.1943322 2.498759 -0.2971933
0.088257246 2.5845358 0.31853175
-0.4074615 1.8845086 0.69185114
0.58531487 -0.2444838 -0.22714405
-0.22387555 2.3642645 0.8788811
0.77013814 2.4010854 0.48272353
-0.6001619 2.054737 0.2882707
-0.16788927 3.0844636 -0.034051612
-0.619872 -0.4052618 0.90353644
0.21798462 -0.24569227 -0.37337297
-0.5828572 1.7872908 -0.43362004
-0.42729357 3.0697145 -0.31462556
0.7812884 -0.2480028 0.33640045
0.9138235 -0.24288964 -0.5980018
-0.156311 -0.087596424 0.0042352024
0.015611226 2.5254846 0.53383505
0.32986388 -0.0844683 -0.3622834
0.5795889 2.187724 0.6938982
0.5444466 2.7818303 0.06674371
-0.70577896 2.4517267 0.05302868
-0.39825898 2.5162306 -0.7943995
0.8979033 -0.4087612 -0.09431955
0.679139 1.8917527 0.4504866
-0.15893325 1.8641739 -0.55895865
-0.3840242 1.7339534 0.2941816
-0.32930034 1.8425941 -0.45457834
0.04740692 -0.25442946 -0.3592776
0.71083444 2.0696242 -0.5249078
-0.5004469 2.2750835 -0.54478776
-0.068766415 2.4548116 0.7071265
-0.6810233 2.5862114 0.17136188
0.27440864 -0.081655286 -0.6974132
-0.89501476 -0.40735728 -0.5319493
0.021859642 1.9447844 -0.649242
-0.29351968 2.211677 0.65888333
-0.038685836 2.0176234 -0.4791795
0.8915892 -0.408956 0.73107374
0.22615281 -0.08323394 0.120293975
-0.2216415 2.032035 -0.42295605
0.05842612 2.8649364 -0.08208901
-0.44664714 -0.25074136 -0.28332338
0.90025914 -0.08872542 0.5276818
0.8893118 -0.40115422 0.90611315
-0.05998704 2.5330372 -0.048892666
-0.5174371 2.0354023 0.47086066
0.57505274 2.9401126 -0.33331272
0.29935455 -0.40265033 -0.9182542
-0.30020273 2.8212633 -0.123642705
-0.56394374 1.6545829 0.27562243
-0.3768531 2.1752546 -0.40122965
-0.15493484 -0.40923715 -0.9093573
-0.17802519 2.8347545 0.27756527
0.39898384 2.0382621 0.26834875
0.28015327 2.8370032 0.69963133
-0.3656819 -0.41564858 0.5468137
0.54862607 1.8678473 -0.29920506
0.19955623 -0.41349497 -0.76371425
-0.13514332 3.0182486 0.15539882
-0.53190196 -0.084240556 -0.14478645
0.5382621 -0.10057111 0.9156915
0.73297733 1.7810379 0.11571844
0.5375298 -0.0721394 -0.13209859
-0.21114536 -0.2580399 0.7649909
-0.031726845 2.367342 -0.9189578
0.12289549 -0.41858968 0.7513275
0.26800227 -0.24492697 0.008591592
-0.3205825 -0.4188012 0.15497422
0.23069699 1.6489314 -0.20097488
0.010025734 2.1618114 -0.8900023
0.24032131 -0.25684476 -0.61955595
-0.12254094 2.740684 0.7959098
-0.06060858 3.0183866 0.5767141
-0.21406215 2.4918242 -0.8734313
-0.44780013 -0.25770444 0.4085589
-0.15599309 3.2161865 0.09738877
-0.12645698 -0.25821024 0.48115766
-0.34593007 2.144198 -0.6308787
0.08192004 1.9565978 0.16848165
0.23575997 -0.26305455 0.77330434
0.9319159 -0.24901131 -0.7843373
0.44105107 -0.25449222 -0.62410676
-0.30436176 -0.25296777 0.03212719
0.30011362 2.6070614 -0.4325748
0.72179306 -0.39967746 -0.91969705
-0.7174318 2.8270588 -0.24068531
0.084334776 3.023328 0.15663785
-0.37798 1.70824 0.094358295
0.18123253 2.9672232 -0.6129674
-0.92742944 -0.26079094 0.4256361
0.46128914 -0.24725753 0.5272764
0.4088428 -0.25378346 0.3564619
-0.91468585 -0.10754484 0.17276245
-0.49439824 2.0133219 -0.7056428
0.4054491 1.527789 0.16545479
0.3858143 1.7557701 -0.2950675
-0.3104548 -0.08538051 0.12264095
0.01530023 -0.082497254 -0.4788293
0.6832019 2.1154747 0.0037353951
-0.40787148 -0.24033919 0.7603966
-0.25688535 1.6459581 -0.20392859
-0.06461561 -0.25009984 0.29480425
-0.23368564 2.8059516 0.08592413
-0.43038478 2.226136 -0.107858084
0.7680616 1.9115326 -0.27648315
0.9026629 -0.086664155 -0.49502778
-0.32575625 2.521902 0.5024545
0.0919801 2.014361 0.68088835
-0.32409298 2.7137508 0.76184344
0.5130987 1.7496417 0.47332793
0.23478955 1.8785822 -0.22256052
-0.6434872 2.1710467 -0.6306336
-0.18247694 1.5686729 -0.49855432
0.39185894 -0.41919386 0.012988899
0.07800983 -0.40415603 -0.9122658
-0.15262248 2.5995998 -0.22099312
-0.73396575 2.1300225 -0.056293994
0.383614 1.783808 0.6153593
0.013195703 -0.4119501 0.90747833
-0.04121258 2.4341094 0.90339553
0.47257543 3.0610905 0.2481761
0.4008308 -0.08317459 0.21442501
-0.42578763 2.5315218 0.31678247
0.053330347 1.7620118 -0.7181467
-0.46729043 1.9983274 0.12382144
-0.18896785 2.2027926 0.18848535
-0.09114687 1.570734 -0.10541034
0.2674237 -0.0885625 0.7301289
-0.912511 2.2872505 0.04931043
0.46174136 2.53006 0.7620019
-0.75109625 2.2828739 0.115044445
-0.0073735397 3.1818404 0.27627152
-0.73430693 -0.0856087 -0.9047973
0.41269118 -0.4189657 -0.18544853
-0.105596766 1.7279965 -0.2270234
0.13361198 -0.2552246 0.61134017
0.89503634 -0.08759284 -0.096974164
0.8894762 -0.08249265 -0.7105403
0.562781 -0.4143187 -0.29988855
-0.17424117 2.5862503 0.6471163
-0.48852837 2.312459 -0.31062388
0.33502063 2.2404628 0.23751685
-0.29228085 -0.24632941 0.5811001
-0.39019012 1.7601051 -0.2999912
-0.41111755 1.6709507 -0.49268305
0.3877366 2.0027318 -0.76131225
-0.64054704 1.9614561 -0.55513155
0.54889417 1.952845 0.36447766
-0.6408591 2.9618502 -0.070522904
-0.09144997 2.6526456 0.4329278
-0.60663986 -0.094751015 0.16826594
-0.7340336 -0.084956065 0.79607236
0.49821973 -0.24894054 0.22415915
-0.030389313 1.4203347 -0.18433538
0.18948564 1.725774 -0.40031946
0.20042145 2.0771859 -0.8594234
-0.022926662 3.013263 -0.5927683
0.728342 2.5836072 0.48933053
0.32181317 1.8687139 -0.43003246
-0.3589216 -0.08501996 -0.25434798
-0.83413506 2.6356635 0.23132297
0.15194154 2.1501982 0.5252894
-0.1088053 1.6848221 -0.63278234
-0.41453648 1.5340538 -0.18425322
-0.8346541 2.2667315 -0.3428087
-0.5697442 1.9769473 -0.38870353
-0.41316122 2.8508992 0.6145841
-0.19808751 1.8050609 -0.06296249
-0.115203515 3.122239 0.4389574
-0.9242879 -0.25356796 -0.21706423
0.56913084 -0.40701973 -0.08250634
-0.86796427 2.4551544 -0.24903053
0.8570885 -0.25055847 -0.92964596
0.47289968 2.5290616 -0.51853883
-0.21144494 1.7163018 -0.4072901
-0.39532086 1.9526062 -0.114426404
-0.3311586 2.0801568 0.2180125
-0.12192157 2.3794255 -0.14557001
0.05195367 1.5924926 -0.23073179
0.56994456 2.4353685 0.4424104
0.75351036 -0.24962692 0.5401461
0.8934525 -0.4089065 -0.6885104
-0.0544473 2.34108 -0.37728494
-0.3929523 1.7335858 -0.10590853
0.3712514 2.890396 -0.6101612
0.4093805 -0.25472683 -0.11188643
0.41205877 3.0750928 -0.30552506
-0.23601028 1.5212512 0.35854697
-0.23297726 -0.08398081 0.5134235
0.22388199 -0.41229996 -0.09829953
0.1047627 1.4139475 -0.042074807
0.6459829 2.0386627 0.19650236
0.3550367 3.1551025 -0.09780209
-0.8986271 2.2677054 -0.15618385
-0.02519245 -0.097039424 0.9152868
0.89558667 2.17116 0.0067764483
-0.018909495 1.9093943 0.024610758
-0.245897 -0.08538753 0.7144114
0.3741563 1.7224492 -0.10699256
-0.31574005 2.9833996 0.041075952
0.34641027 1.9186801 -0.055408753
0.19214576 -0.2447309 -0.927227
0.0851742 2.341425 -0.22328764
-0.22383791 3.1767468 -0.23678541
0.5699254 -0.084572606 -0.54558647
-0.33860743 2.7035987 0.20875826
0.44515184 2.9553418 -0.46021134
0.58808637 2.4538023 -0.3771472
0.90149814 -0.086753845 0.10536088
0.57828295 2.144034 0.34908944
0.5812529 1.8524091 0.1894375
-0.37044764 1.7304299 0.5867187
0.22461861 2.945422 -0.33008763
-0.42612547 -0.4090492 0.8957521
0.109048374 2.6924877 0.46045238
-0.73336643 -0.2517291 0.9160389
0.36866486 2.1988826 -0.82466865
0.56472594 -0.2458969 -0.42778882
0.69234765 2.3599124 -0.22577971
0.5751684 2.8140593 -0.50543845
0.3469128 2.7746773 0.18676695
-0.8418044 2.0942097 -0.25364053
-0.8121884 1.9237304 -0.14760765
0.3907919 -0.4109118 -0.76870334
-0.6637914 2.0399008 -0.23610443
0.7009002 2.7395713 0.38769275
0.7277794 -0.41702121 -0.19475213
0.72419757 2.8234897 0.20161262
0.7381885 -0.08360999 0.64772075
-0.61650574 -0.25133348 -0.61386085
0.021764316 2.3247194 -0.014304028
-0.25395924 -0.41464087 -0.2567173
-0.41428083 1.5390162 0.22035344
0.2031954 -0.085911706 -0.4996332
0.12536764 1.8571737 0.7795613
0.10204637 3.0990648 -0.44826865
0.44399887 2.3234887 -0.2717585
-0.65828717 -0.081901304 -0.74479526
0.15720779 2.9752903 0.34575886
-0.5775177 1.6356441 -0.11163045
0.31991836 -0.24937779 0.61259305
0.010621438 3.1858764 -0.28156787
-0.3401944 2.0375314 0.40686613
-0.33351767 2.9361846 0.23521687
0.9007826 -0.40853673 0.3206407
0.21028891 2.4320526 0.26154226
0.034315772 -0.24146652 0.7724431
-0.7852908 2.62892 -0.33056486
-0.5325126 2.4216394 -0.15559961
-0.5218341 2.5101647 0.52589047
0.21175465 2.0837202 0.21711925
0.6386532 2.0532134 -0.35341173
0.5704483 -0.2046253 -0.053383756
-0.71430933 1.7693396 0.167406
-0.61471057 2.194232 -0.39168358
-0.316131 2.1020057 0.018439118
-0.27831197 3.0828505 -0.39832255
-0.84216 2.6550884 -0.15282264
0.16483271 2.2054365 -0.08165654
0.67480034 2.908555 -0.18592334
-0.93210495 -0.2565465 0.6341407
0.49028468 -0.41490147 0.9055621
0.70418954 2.4833624 -0.044954076
0.16088513 2.8009744 0.2682606
-0.33774042 -0.084194005 -0.07032172
0.021368865 2.616473 0.8534659
-0.7697314 2.816771 -0.0392218
0.047373377 2.3950047 0.38826638
-0.22058827 2.2118092 -0.5186949
0.0676926 -0.08595779 0.24905944
0.101768665 1.8151612 0.4652007
-0.12957731 -0.4156887 -0.61139286
0.25944853 2.8107777 0.48903933
0.8981889 -0.4072781 -0.4928977
0.18501014 2.6934226 0.625334
-0.446218 2.3973267 0.0056362003
0.37965354 2.6437523 0.5339236
-0.2074889 1.7531608 0.3745969
0.08658238 1.7673657 0.14153558
0.4416931 2.6610017 -0.16418214
0.73659 -0.41944125 0.015104318
-0.007612575 1.8601441 0.6218116
0.07041143 2.874527 0.50007915
-0.27164686 2.667244 0.38081223
-0.028595377 2.554243 -0.87543714
-0.3224326 2.1112816 -0.82091147
0.13318467 2.95544 0.6438918
0.5454436 1.6892546 -0.3823691
0.8961301 -0.4088563 -0.29627466
-0.57326555 -0.41545433 -0.31443605
-0.053167287 1.6515365 0.28703701
0.028659776 -0.09120951 -0.9165417
0.5671858 2.3552942 0.046941143
0.09984463 3.1061828 0.45963895
-0.7416446 1.9111979 -0.35376316
-0.18706062 -0.4129838 0.6232134
0.562353 2.6999574 0.23894393
0.21373406 2.508777 0.49102712
-0.42643967 1.5215905 0.008568466
0.53318745 2.1336775 -0.5171418
0.011304834 2.3026237 0.197373
0.76210797 -0.24136513 -0.7439661
-0.13321634 2.9084523 -0.038844988
-0.32670042 -0.41498178 0.7378613
-0.078956604 -0.41383243 0.7585064
-0.6153034 -0.25317937 0.72468376
-0.14531615 2.215909 -0.707706
-0.26060563 -0.2555272 -0.92358196
0.7286557 -0.41434133 -0.5879238
-0.60516125 -0.25036493 -0.4189412
0.7715285 1.9115025 0.26361504
-0.13565911 -0.08448534 -0.5938797
-0.010099843 2.710139 -0.6005682
0.6705009 1.8788767 -0.44619018
-0.36851847 2.5291905 0.10244806
-0.18409869 2.2260225 -0.33376327
-0.55697536 -0.09026153 -0.9129492
0.25089413 2.3232903 0.4606521
-0.8688798 2.1178718 0.1674327
-0.27986488 -0.24758607 -0.37376547
0.5261851 -0.4104113 -0.9009639
0.36343008 -0.2540248 -0.4725976
-0.703722 -0.41784966 -0.79439485
-0.31903416 -0.25428283 0.9236064
0.38537544 -0.4170381 0.22143754
-0.008910166 2.0810199 -0.0725714
0.027034603 1.7982891 -0.5104197
0.80696523 2.7435265 0.051125832
0.7051507 -0.41711646 0.87926996
0.48496997 1.557823 -0.008814655
-0.5564253 -0.08530225 -0.33352512
0.6343937 1.9927042 -0.16057292
0.5328461 3.0415623 -0.15275401
-0.09878293 2.5496917 -0.68652093
0.63614094 1.7449204 0.31860185
0.07350883 2.8612766 -0.49121425
0.8950145 -0.4073124 -0.8814683
0.5534965 1.9530846 -0.6225167
-0.78933764 1.9540731 0.26259595
0.42773235 2.2681775 0.40565437
0.54170513 -0.25333428 -0.7796688
-0.3665563 -0.087680236 -0.9109657
-0.13186601 1.8441523 -0.76317257
-0.05383657 1.7371372 0.47517103
-0.20684162 -0.24639729 0.17617303
-0.25375208 2.6562061 -0.07293099
-0.06044481 1.8812311 0.80113184
0.14739193 2.2323246 0.3185138
0.28824753 1.7536469 0.4262854
-0.92328143 -0.25030702 0.006003484
-0.028905842 1.6627659 -0.39319777
0.10567284 2.7759895 0.7826122
-0.83081806 2.6421204 0.03687948
0.38077676 2.3917456 -0.6436401
-0.11246133 2.196055 0.031386223
-0.64256424 2.2245305 -0.19612297
0.58344287 2.7623677 0.54196763
-0.06069895 1.539959 0.46382135
-0.5216292 -0.41913143 0.7054449
0.706045 2.2202349 0.16962862
-0.28335238 3.0018191 -0.17580554
-0.64235294 1.9417002 -0.07560611
-0.18576664 2.5868163 0.08699765
0.49060252 2.128952 -0.2672695
0.90313065 -0.08721833 0.3175363
0.25154805 -0.24964094 0.43992746
0.2472908 2.260641 -0.30213493
-0.55851275 1.8649808 0.55269694
0.13443759 3.2108328 -0.11707555
-0.015932487 1.6819767 0.6610035
0.046849623 1.598347 -0.55579436
0.49903232 2.5691924 0.031815544
0.31149977 2.0459952 0.61936295
0.6237086 -0.2518149 -0.618595
