0.6202188 1.3000802 0.48783433
0.51844686 0.3942278 0.053513892
0.48064727 1.4357316 0.23157962
0.7417054 -0.25382558 0.756979
0.43328434 0.92407787 0.51821554
-0.5544696 0.8764669 0.3800761
0.116394974 0.09828425 -0.37736818
0.689409 1.1193018 0.52965736
0.29001057 1.6139216 -0.6319804
0.76294625 -0.24917018 0.9328821
0.4567896 -0.085490935 -0.7251277
0.00011997962 -0.4054868 -0.46958604
0.048309952 1.2956866 0.011708684
-0.7096726 0.9177679 -0.17204529
0.32453918 1.295462 0.2226322
0.08121065 -0.1833581 -0.51460516
0.3703975 0.34345284 0.21495384
-0.328142 -0.073573135 -0.5808463
0.15954188 0.5123534 -0.41376075
-0.90482223 -0.09534511 0.7234093
0.49037957 1.6396046 0.26810265
-0.5841973 1.3459344 -0.10699342
-0.46439663 -0.25287062 -0.9236458
0.4198544 -0.083956 0.64070606
0.2860767 0.25341904 -0.6490053
0.8917996 1.221173 -0.2074078
0.9145783 1.0511982 -0.2919327
-0.2694322 0.9235816 -0.03963855
-0.19760206 1.4568412 -0.49460205
0.25414777 0.08994725 -0.23177588
-0.40576953 1.1805512 -0.2543025
-0.7230966 0.63143486 -0.48476386
0.02486501 -0.115954794 -0.16050944
-0.71831477 1.3948388 0.038078595
-0.7250838 -0.08604352 -0.4299873
0.356579 0.96697253 -0.542264
-0.5842247 -0.4137579 -0.109386444
-0.32277286 1.2314336 0.5171834
0.12368455 1.2397301 -0.5272949
-0.24165651 0.68551207 -0.2601447
-0.041259177 1.0991569 -0.5900541
-0.20919614 1.0855285 0.57302594
-0.74467623 -0.08027519 0.20723106
0.26968437 0.4099939 -0.8061854
-0.060368005 -0.08857007 -0.7652258
0.7611922 -0.2517973 -0.49218845
-0.51876926 1.1438297 0.6134074
0.62651825 1.2187679 -0.71402943
-0.09687944 -0.21435739 -0.45987397
-0.12508868 0.90737903 -0.824276
-0.09759472 -0.055619698 0.17237313
-0.7511396 0.98975223 -0.52730626
0.41922703 0.8882786 -0.11132867
0.16100846 1.270926 -0.14514045
0.250932 0.7880972 -0.60445356
0.92067826 -0.24947502 0.015283512
0.085796356 0.47151628 -0.8776847
0.86561483 0.66951424 -0.39452904
0.71104145 1.5358101 -0.18277806
-0.20623574 0.101286076 -0.09411814
-0.4052018 1.3206666 0.36035877
-0.1080915 -0.22051418 -0.27381608
0.8917606 1.1287417 0.19312325
-0.7261381 -0.42119205 0.77573884
0.37011 1.1381906 0.7384398
-0.4968869 -0.41895354 -0.7308182
-0.7072926 0.80686045 -0.5719118
0.19881245 0.23774296 0.16522497
0.33468503 0.76355475 0.7653426
-0.5711075 -0.08819553 0.51309454
0.73895866 -0.087986454 -0.58161205
0.86589617 1.0112841 -0.4602895
-0.104104824 1.3954331 -0.653762
0.3378594 0.124200344 -0.033998765
-0.019655481 -0.41431648 -0.76118827
0.7238707 -0.41937298 0.6495348
-0.101929836 0.5442147 -0.89762807
-0.4404626 0.5986371 -0.55181706
0.037071325 0.85511905 0.36001405
0.57225645 -0.061287634 0.121498406
0.19548604 -0.41073626 0.2853103
-0.35080057 -0.41475314 -0.59261143
-0.3429193 1.2039568 0.6993803
0.14087845 1.2095644 -0.9487483
-0.8905083 -0.099204354 -0.9132352
-0.74080765 0.94701743 0.37792265
0.07822053 -0.43250442 -0.2570215
0.42942578 1.030884 0.034093503
0.5331155 0.28313586 0.32484597
-0.075427875 -0.07491589 0.56442535
0.12299998 1.6023927 -0.36084133
0.15036367 1.0626616 -0.20213297
-0.7629843 -0.24566093 0.30819106
-0.48987764 1.6495795 0.08672598
0.44447368 1.0683112 -0.18180282
-0.45832288 0.3808949 0.4491033
-0.8587813 -0.080158815 0.013286784
-0.48246065 0.6905863 -0.103736624
0.7799723 0.95986253 -0.6080925
-0.18137214 1.2297006 -0.71998394
-0.19061348 1.556953 0.5242784
-0.3339373 1.7458426 -0.018490896
0.5880957 0.68279946 -0.77650964
0.3547641 1.5532879 0.17490524
0.7159331 0.81133306 -0.69001174
-0.400851 -0.08127242 0.40093493
-0.6238519 -0.09188618 0.9129102
0.4076491 -0.07513553 0.43424827
0.5830284 -0.26973683 0.8995787
0.9199436 -0.24835458 -0.38805902
-0.8951322 -0.40672207 0.09998251
0.7837552 0.9140292 -0.12986475
0.9174311 -0.2491166 -0.18523929
0.57565534 0.3736263 -0.5598352
-0.54400885 -0.42240578 0.48935723
-0.09671886 0.1296194 -0.31450635
-0.72025967 -0.4167898 0.40027174
-0.070948765 0.4320023 0.12856247
-0.30541378 0.91159546 -0.53227043
-0.8634901 1.0478303 -0.13276112
-0.001702837 -0.41361606 0.5722759
0.17768273 0.253703 -0.049431913
-0.6832614 -0.08207922 -0.041055158
-0.7135441 -0.41818607 -0.6256249
0.06728975 0.650481 -0.7683245
-0.90002805 -0.40491414 0.7151108
-0.90401375 -0.09376131 -0.5315758
-0.6002927 -0.24383529 -0.21040735
-0.31373417 0.8200655 -0.9176486
0.42603326 -0.2551877 -0.9220327
-0.5544265 1.4459832 0.36542115
-0.012520269 -0.41005695 0.3690232
-0.19015001 0.6669427 0.7576201
0.3712694 0.93532157 -0.9273892
0.42311394 1.292109 -0.63235843
-0.48901904 1.3584726 -0.29626918
-0.5267762 -0.24716496 0.9140618
-0.43542928 -0.22563288 0.09080389
0.65861344 0.83716846 -0.45858574
0.035896704 1.42999 0.18384412
0.009443544 0.24565269 0.10301519
0.15495494 0.13847649 0.35875997
-0.25527284 -0.420403 -0.7519198
0.37314034 -0.25645995 0.92397434
-0.21297619 1.3891845 0.44138086
0.36137384 -0.06923273 -0.551214
-0.13958189 0.9251199 -0.62503666
0.88312197 0.6049383 0.018526845
-0.4536978 1.4042869 0.19531754
0.39542797 -0.077629 0.86212295
-0.03302654 0.78336716 0.81197476
0.30222017 1.2872763 -0.42185265
0.33040902 1.7528988 0.17330492
-0.35340583 -0.25986534 -0.7679837
0.7399142 -0.083576456 0.22498141
0.31702748 0.967211 -0.2572769
0.43954033 0.93386877 0.73237205
-0.45347345 1.5973475 0.28150606
0.5442431 -0.41840565 0.13027522
-0.67392635 1.1129174 0.43104696
-0.10212983 1.1313318 0.3384869
-0.033148676 -0.24688308 -0.63003886
-0.5366743 -0.08282457 0.7289425
0.80818 1.3689265 -0.31553432
0.22506534 0.6149237 -0.07674803
0.94971746 1.008242 -0.11705218
0.5849396 0.43329325 -0.1496334
0.6080535 1.3576525 -0.39075336
-0.076666296 1.5935459 -0.36771786
0.4392804 0.24732968 -0.53137755
-0.09904711 -0.41961235 -0.14499569
-0.73952174 -0.4163243 -0.2159543
-0.26989436 -0.40906912 -0.07469796
-0.22963545 0.50678265 0.23198792
0.9031824 -0.08969735 -0.8963455
-0.36858818 -0.41163838 -0.9013078
0.116925105 -0.23897499 0.31875953
-0.89666605 -0.093790814 -0.33736455
0.010022186 0.7984761 -0.275168
-0.126553 0.47986698 0.6890144
-0.62461007 0.71340704 0.0705791
0.043714162 1.8349009 -0.10168044
-0.07511276 1.2758083 -0.51104355
0.9238719 -0.24910226 0.23028412
0.14917439 -0.40845013 0.4547727
-0.030967366 -0.25729448 -0.9151018
-0.91546357 -0.26047155 -0.87216556
-0.17875421 -0.40442222 0.2537522
-0.6443873 0.62772024 0.4331885
0.06305066 0.85859513 -0.8359473
-0.22246462 1.1810431 -0.91640437
0.74365425 0.7711741 -0.2742012
-0.3067296 0.12863763 -0.34514844
0.66642475 1.3004552 -0.21114792
0.43756878 -0.24351428 0.75540406
0.022078026 1.3746947 0.49860102
-0.39398816 1.4844673 -0.6498009
-0.107504174 -0.25271142 -0.083666176
0.7871567 0.9143747 0.4467565
-0.20451573 0.11676814 0.15899283
-0.19434632 -0.41768938 0.4417349
0.24118584 -0.07862346 0.53600067
-0.2503827 1.046697 -0.20224363
-0.27396673 1.2555068 -0.40433687
-0.47250432 1.2669349 -0.46203437
-0.36092675 1.0077739 0.72430086
0.39650476 0.6003727 0.6841029
-0.5475725 -0.08444433 -0.55220646
0.081710674 -0.06253914 -0.6685219
0.24169543 0.9449773 -0.01354
-0.7771298 1.148721 0.27899823
0.4175725 0.7387649 -0.7058222
-0.64231706 0.79961777 0.51180124
-0.4167269 0.9837872 -0.67956215
-0.06528592 0.99366486 0.46061277
0.052733522 -0.2909209 -0.18500446
-0.7629292 -0.24799287 -0.10841863
-0.0010123765 1.5115519 -0.5145618
-0.27368104 0.88873994 -0.31743255
0.3089212 1.0576487 0.573624
-0.25969306 -0.2273288 0.36518937
-0.44338086 0.43789333 0.17239204
-0.502234 1.0399162 0.0897218
0.30491325 0.09663917 0.16977835
-0.09538256 1.2913451 0.12825847
-0.8976815 -0.40592676 -0.107597515
-0.5778947 -0.4053855 -0.915929
0.580142 0.60283554 0.5653106
0.119732164 1.090479 -0.81271315
0.27072632 1.3350182 -0.8779643
0.45805204 1.2626002 -0.8192387
0.092125155 1.2425835 -0.31939647
0.37814975 -0.0607457 -0.180911
-0.5340343 -0.41529304 0.29136974
0.08482604 -0.03511466 0.43874928
0.10536386 0.080256 0.17137149
0.9285956 0.849995 -0.28414455
0.73711294 0.3526109 -0.25842083
0.7349522 -0.08660115 -0.90017366
-0.41323584 -0.24586746 -0.47719714
0.22423014 1.8093821 -0.1276668
0.09970618 -0.23913735 -0.032784335
-0.21587566 -0.40345025 -0.45561337
0.47072613 0.5560105 -0.2793622
0.4227913 1.1077485 0.24344394
0.33222792 -0.41587317 -0.57882077
-0.25492606 0.28559372 -0.6571875
-0.48642796 1.6671633 -0.11696634
0.41675186 -0.41307226 0.6147541
0.5330124 1.6826563 -0.15263236
-0.09355804 -0.046902046 0.3843784
0.4279007 0.7756927 -0.50728035
-0.30171895 1.7626423 -0.21854389
0.22810155 -0.39827806 0.9131961
-0.20140782 -0.018998608 -0.42570356
-0.037652716 0.10260927 0.28627664
0.18434274 0.6169913 -0.57301396
0.43351656 1.0995907 -0.4040358
-0.61292875 1.2385684 -0.2735623
-0.2677768 -0.21852843 -0.18468261
0.8552718 1.2054694 -0.41472262
0.5393317 -0.41137785 -0.49056077
-0.38604185 0.82644176 0.2677656
0.16269566 0.92741966 -0.52301604
-0.41105908 -0.24317122 0.26021057
-0.41469222 -0.051648676 0.20104262
-0.16779836 1.0132031 -0.424941
0.89268684 -0.09659839 0.9089757
-0.027225379 0.44785297 -0.39398
0.92538476 -0.25240862 0.8620354
0.11321389 1.3977665 -0.4184672
0.20361659 -0.40912807 0.098096214
-0.06911838 0.9569901 0.66397536
0.38279098 1.7677252 -0.05953695
0.2934714 0.12717798 -0.46672934
0.6999782 1.1747915 -0.36825484
-0.43783098 0.6830367 -0.29374948
0.45646375 1.4141963 0.5617666
0.7254708 -0.417118 0.4296663
-0.53438544 1.0887251 -0.7788038
0.53904116 -0.06009449 -0.31095707
-0.49840805 0.8782439 -0.8215227
0.72004855 -0.41718882 -0.3878482
-0.89861333 -0.09483343 -0.14976919
0.8264055 0.4682634 -0.11583656
-0.86974096 -0.09367894 0.90891826
-0.8408617 1.0676289 0.07212946
-0.14856145 0.82696116 -0.16174026
0.327736 0.50381577 0.08110151
-0.17843896 0.26428387 0.016322695
0.35163397 1.5790191 -0.3240226
0.28114954 -0.22109517 0.2189138
0.15806454 0.7725769 0.040107362
-0.12333907 0.7948844 0.46466994
-0.11626205 -0.26185536 0.91837806
0.56008726 0.870654 -0.83185256
0.7547043 1.1529374 -0.58624715
-0.095505714 1.5022347 0.34280843
0.23887601 1.2591792 0.040280126
-0.15555897 1.2664123 0.7324736
0.3023706 1.1232685 -0.07223705
-0.117130116 0.5613909 -0.70170903
-0.49723628 0.21789661 -0.30407986
-0.7342327 -0.41496858 0.0001065274
0.16244541 1.2161252 0.58610415
0.7189172 -0.0835612 -0.19094136
0.7306005 -0.08177012 0.01429628
0.51200986 1.464607 -0.26032108
0.6992992 -0.41572732 -0.7610378
0.36001393 0.73957074 -0.012737278
0.27708584 1.4106236 -0.27500045
0.602125 0.22405188 -0.20808873
-0.45421246 -0.08430357 -0.73913825
0.64290583 0.28253862 0.15043285
0.32522315 0.63306457 -0.42117745
0.72740746 1.3438109 -0.5257207
-0.45639163 1.4692639 -0.0023797867
-0.75654995 -0.251206 -0.32174852
-0.42125124 -0.4093669 -0.19937
0.82783747 0.73424196 0.3358366
0.38135025 1.3205316 -0.12629417
0.2130818 0.80433017 -0.9740913
-0.77016497 -0.25476372 -0.52640665
-0.30976152 1.3151022 -0.6001828
0.24783354 -0.39925116 -0.28186822
-0.5892543 0.5404805 0.1352428
-0.6473242 0.93427175 -0.37814468
0.47077078 1.122522 0.4500074
0.10046837 -0.23598671 -0.7584561
0.24981734 -0.033114113 0.33071816
-0.09673886 0.9616555 0.22792467
-0.55204195 0.88025355 -0.067059316
-0.8933759 -0.4110182 0.31350487
-0.86462986 -0.40309715 0.90442383
-0.69522536 1.3488244 0.24649534
0.3335033 -0.41678217 0.773724
0.70911205 0.74753654 0.5108155
-0.5728635 -0.2510573 -0.7891741
0.23430687 -0.22479203 -0.19705614
-0.8937514 -0.4054649 -0.7332326
-0.39094457 1.2019819 -0.81887233
-0.16266726 0.79880244 0.27984935
0.64515126 1.6100378 -0.022298785
0.5882894 1.0769267 -0.26972622
-0.59243155 -0.24621075 -0.0071582077
0.77011174 1.0635767 0.031281844
-0.89511734 -0.4091184 -0.32508808
0.84790033 0.820763 -0.49220133
0.3464631 0.1834133 0.34568036
-0.6277358 1.5424008 -0.038922828
-0.7268971 -0.41489828 0.2041835
-0.35327208 0.7878541 0.72163785
-0.74334574 -0.08661144 -0.61034757
-0.21676432 -0.41211006 0.90099174
-0.6330639 1.2810426 0.4362231
0.91859055 1.1771832 -0.015758064
-0.7536371 -0.24118768 0.097894356
0.04529865 0.50512165 0.28078252
-0.43665314 1.496046 -0.20714183
-0.49891227 0.44488728 -0.21203458
0.25586802 0.5874058 -0.7359268
0.23173766 0.76783204 -0.79146457
0.32228062 1.135225 -0.9271227
-0.5419619 -0.41566205 -0.52883047
-0.39136457 1.0238763 0.5158427
-0.24828652 -0.023054045 0.2969646
-0.901855 -0.095789865 0.33758193
0.08196147 -0.08634833 0.6563865
-0.43155554 -0.22766447 -0.10335049
-0.6495571 1.2818177 -0.5478083
0.49902287 0.6150982 0.06970203
0.4150875 -0.021099212 0.026672028
0.19850989 0.26725453 0.5185609
0.7776801 -0.24761522 0.12364483
0.5416573 0.68843 -0.12701608
0.18628749 -0.0803356 -0.88716793
-0.37881884 1.3204147 -0.10449866
0.5956018 -0.24765411 0.4274691
0.35046327 0.76541877 0.3453021
0.4986419 1.5320494 0.040989313
0.10900408 -0.23831354 0.14502306
0.71784794 1.2498176 -0.023294434
0.5874611 1.1313794 0.10396819
0.044724423 0.9434614 -0.6808846
0.012782153 0.7534416 0.19734645
-0.3961273 -0.41382682 -0.39579317
-0.7186007 -0.088184744 0.619269
0.53747356 -0.4141273 0.3313989
-0.89567006 -0.09261587 0.5299926
-0.6072752 1.5065308 0.16383281
0.014867928 -0.41179246 0.18301027
-0.63162875 0.9167185 -0.69882494
0.754417 -0.25200343 -0.28752628
0.44660664 0.603824 0.4043665
0.031008586 0.96469444 0.8332814
-0.9210293 -0.26690936 0.21281253
-0.23314273 -0.093567744 0.9003893
0.16276082 1.0854002 -0.62024915
-0.85008824 -0.40622637 -0.9142311
0.3679514 0.7240674 -0.22620429
0.27732098 0.5346911 0.27591914
-0.5608796 -0.41243082 0.10504876
0.5250746 0.5643102 -0.47680247
0.22423781 1.624706 -0.18760103
-0.3648653 1.0651122 -0.40568447
-0.9250963 -0.24793738 -0.6466016
0.8960101 -0.088334605 -0.2889163
0.6668241 0.54976887 -0.023189303
-0.6737363 1.0859842 -0.23124218
-0.25009853 0.95055 0.37199652
0.27281523 0.60604227 0.50308484
-0.4743871 1.3389099 0.55338967
-0.007781457 -0.06283521 -0.357019
0.5581154 0.8124094 0.022014583
-0.50608945 1.287102 0.06639785
0.16293375 0.6791022 0.31972647
-0.72541726 -0.41762823 -0.42798412
0.38348612 -0.41037685 -0.39229473
-0.098389745 -0.0840576 0.7482438
0.18901442 1.1696224 0.78161323
-0.4652516 -0.0424767 0.005200235
0.5381814 -0.42008352 -0.67072034
-0.41367698 -0.091243535 0.59409046
0.009342953 1.4766463 -0.0195297
-0.67369926 0.3616463 -0.032282114
-0.42690742 -0.40735793 -0.008042779
0.25744092 0.4327346 -0.59771574
-0.6434989 0.34350538 -0.23788574
-0.094485484 1.660975 -0.591606
0.4830438 0.49492997 0.24534859
0.589901 0.8701956 -0.20244797
-0.06713815 -0.23911045 0.09049556
0.57976425 -0.08600499 0.5378396
0.14705624 0.7863704 0.80503833
-0.7017411 -0.412655 0.60051596
-0.19274163 0.88229454 0.7920168
0.54539883 1.2305651 -0.5021872
-0.8896798 -0.08949308 -0.73721457
0.9382099 0.963843 0.07264778
-0.56721044 1.2137519 0.25415915
0.2168146 1.2656901 -0.7275366
-0.087369725 -0.4039799 -0.32808185
-0.25615594 1.0547266 -0.73905206
-0.21157259 1.5279994 -0.71423984
0.6146214 0.96499646 0.42655963
-0.39622086 -0.0543438 -0.42613742
0.24565992 -0.11909478 0.9218433
-0.76681507 -0.24226281 -0.7441944
0.72340775 1.2105439 0.18588287
-0.42737013 1.1454251 -0.6003785
-0.31844044 0.98207504 0.1585013
-0.29568142 1.4805341 0.27706772
-0.2757039 0.4399131 -0.790309
0.105687544 0.7354557 -0.43893805
0.12297 1.0234776 0.67362237
-0.5653765 1.1116066 -0.41914108
-0.00386326 1.5666878 0.54681456
-0.18048635 1.6214734 0.19854987
0.03941646 0.37413847 -0.055170372
-0.07023424 1.8069315 -0.28352046
-0.04170811 1.3168219 -0.16567251
0.050514206 0.51671386 -0.19590573
0.05548282 -0.07174925 0.038150482
-0.4979521 0.9019476 0.6430643
0.25784522 0.8867253 0.6325016
0.7238883 -0.41867614 0.22819382
0.42296034 -0.22381344 0.07961051
-0.84493065 0.6739139 -0.075374775
-0.47861254 0.41722432 -0.008736092
0.230034 0.4280423 -0.08079549
0.10162767 1.1038148 -0.0049123866
-0.4214989 -0.0873104 0.8889987
0.29690623 1.1890459 -0.26053262
-0.3352856 1.7221861 0.18820986
-0.45412612 0.70701456 -0.81373477
-0.18957892 0.47083604 -0.25971872
-0.9265661 -0.2515465 0.8648826
-0.27518293 0.69788766 0.561743
0.35478318 -0.41636544 0.42832237
-0.2067844 1.1226258 0.15872921
0.033981964 -0.4160716 -0.014216205
0.397187 0.29717577 0.49323922
-0.4264027 0.8244221 0.06858299
0.18692382 -0.4060433 -0.45026612
-0.43060803 0.5591332 0.3001917
0.20621848 1.4517043 -0.07450399
0.04488066 0.66761076 0.45654523
0.9035561 0.6545489 -0.18710402
0.2189758 -0.05891659 -0.08773158
0.7039685 0.30581176 -0.048799697
0.22948632 0.9470688 -0.7597716
0.43894187 0.38348538 -0.6939837
0.13608569 1.0156776 0.48257458
-0.15669884 -0.41164422 0.06740153
-0.16730785 -0.0338207 -0.22851443
-0.49820602 0.7039443 0.61580026
-0.5112987 1.3024588 -0.6999122
0.8973165 -0.40881872 0.12558961
0.8472003 1.3126051 0.11317718
0.556217 -0.41455546 0.74224716
0.073691875 1.3951945 -0.8608092
-0.2405015 -0.24448502 -0.5902117
0.5524943 1.2736032 0.27519447
0.89365804 -0.4094772 0.5361631
0.29027107 1.6188537 0.011700437
0.35561886 -0.08861981 -0.9070487
-0.043876253 1.2446 -0.92261475
0.103353664 -0.07653989 0.8549211
0.02757167 1.6523705 -0.18138781
-0.1857664 1.7887769 0.089054674
0.30113363 1.6766067 0.35705984
0.64118385 1.5647026 0.17902955
-0.5335458 0.9636046 -0.53308964
-0.25501662 -0.0883386 -0.74983865
0.719858 -0.08414608 0.87527406
-0.7243308 -0.083479375 -0.2292962
-0.44633222 -0.24241973 -0.6344724
-0.4418648 1.6677895 -0.3045312
0.6634718 1.0210848 -0.73708725
-0.58858424 0.86863506 0.19255178
-0.2939821 0.84848166 -0.7340454
0.40103316 0.576243 -0.6103249
-0.07034989 0.72233737 0.63249844
-0.27667794 0.5087373 -0.61306584
0.45226794 0.116378315 -0.18471414
0.9053819 0.7574367 0.14109993
-0.35793278 -0.4153846 0.3563988
-0.31505394 1.3667527 -0.79621947
0.24930307 0.9715836 0.80955315
0.7391968 -0.0847239 0.43503433
0.39733922 1.5426859 -0.13080424
-0.92388624 -0.25528824 -0.42920232
0.44961676 1.5492363 0.42534095
-0.12881474 0.3130585 0.5652404
-0.88543165 -0.41050476 0.51856995
0.54965055 0.8992318 -0.6110755
0.54226995 0.77505046 0.43740088
-0.30968237 0.26579446 0.44409257
0.53303826 0.7661945 0.66548073
-0.14941916 -0.25774318 -0.76418316
-0.7097583 -0.26201844 -0.92720294
0.42885444 1.2284367 0.075803414
-0.09662645 -0.24004629 0.6295711
-0.16215709 -0.091571555 -0.9175103
-0.82395184 0.9227946 0.20308468
0.1376773 0.37781876 -0.27462548
0.5755935 -0.090405755 0.7465967
0.033288084 0.7679441 -0.6270305
0.19123387 1.8097811 0.06667586
0.22959486 -0.41883528 0.6043459
-0.4423651 0.3745752 -0.63280773
-0.26729363 0.49884155 0.041334186
-0.56167775 1.5281796 -0.39201006
0.038947664 -0.21666908 0.4699999
-0.609509 0.9914923 0.5345504
-0.74713695 0.7647595 0.31824514
0.7453922 -0.25344068 -0.08393314
-0.2351036 1.1268302 -0.55590904
-0.015756868 1.1213472 0.14483011
0.720089 -0.08451118 -0.39033216
-0.6457304 1.1215438 -0.6326651
-0.77059174 0.5344999 0.047118068
0.57268703 -0.0802132 0.3310662
0.27426744 1.3932515 -0.59226096
-0.08415093 1.3821487 -0.34957862
-0.25709987 1.6550541 0.37020218
0.43158886 1.4244276 -0.4474355
-0.46533284 1.0149139 0.30453706
0.34514743 0.29412538 0.042011958
-0.16463543 0.28686976 0.21985453
-0.38451123 0.84479207 0.48089853
-0.04313288 0.6269795 -0.31649777
0.309323 -0.23956178 -0.77776897
-0.091929376 0.6187482 0.3227705
0.61422086 -0.26661882 0.06997795
0.6413042 -0.25238037 0.2485753
-0.37689883 1.4337271 -0.43501264
-0.12762469 1.3895411 -0.8471236
0.10173655 -0.40598524 -0.61244905
-0.13735276 0.7474305 -0.96266305
0.6431439 -0.24406406 -0.9173603
-0.6057756 0.4618646 0.34745625
-0.59443796 -0.25345477 0.21376947
0.56543696 -0.41567832 0.5241526
-0.11373797 1.004452 -0.0065167714
0.33375347 1.1105487 -0.74329937
0.0558614 0.8539165 0.5872786
-0.65511763 1.0384731 0.20931071
-0.13043489 0.56077266 0.51652426
0.8966702 -0.09234378 0.7360668
-0.54740983 1.4375751 -0.5492496
-0.5716219 -0.089432105 0.31577134
0.44783932 0.16069803 -0.35726136
0.34874597 1.2344815 0.5490283
0.29099554 1.3446375 0.6911005
0.72763515 1.0065095 0.22203466
-0.12892614 0.61302865 -0.11099921
-0.111524746 0.6265248 0.11064778
-0.6135779 -0.2573451 0.41100568
0.17814904 0.659906 -0.27579173
0.9163164 -0.2519908 0.64948714
0.17973925 1.0001341 -0.9792247
0.40961123 -0.23093063 -0.2891401
-0.5267179 0.24063271 0.09784034
-0.53323317 -0.2599215 0.59377956
-0.30466777 0.5223905 0.4425432
0.92267954 -0.25018588 0.4444604
0.5895146 -0.25387722 0.64729995
-0.5300427 1.1636145 -0.09853621
0.56697774 0.94648206 0.15313779
0.8847848 0.91726494 0.26242286
0.19721647 0.342619 0.32893443
-0.34592986 0.538365 -0.34534764
-0.7482332 -0.24943554 0.53336
0.23753864 1.7345781 -0.4552956
-6.709488E-05 1.6201001 0.17016765
0.5416784 -0.087422565 -0.90872264
0.2640396 0.41998082 0.6308243
0.099861264 -0.24830064 0.9273679
0.6474463 -0.08327298 -0.73276067
0.03731826 1.0836352 -0.40970945
-0.05747143 0.08402285 0.041037682
0.50985885 1.0728955 -0.8491144
0.17738394 -0.07043919 -0.2956723
-0.7918898 -0.2523316 0.7271901
-0.7361534 -0.08474372 0.4166354
0.54144454 1.0680224 0.6503362
0.23036736 1.0785022 -0.40812862
0.12169113 1.223754 0.20013359
-0.33671963 0.57099545 0.66576123
0.57995665 -0.23763129 -0.20594132
-0.18129021 1.0767004 0.7857895
0.8132205 1.0882785 0.3725652
-0.54898477 0.69576657 0.2513014
-0.16141117 1.6677928 -0.20029297
-0.6289548 -0.40419447 0.90655136
0.2567376 -0.21196948 -0.40657324
-0.55188024 0.33928788 -0.44666636
-0.41466242 1.6101388 -0.48036027
0.7766124 -0.25012693 0.34381515
0.9151293 -0.24369878 -0.5946375
-0.1301212 -0.07679677 -0.03270159
0.06466424 1.1883773 0.41887707
0.36657077 -0.023828423 -0.37277177
0.64077044 0.91541255 0.6055038
0.5741479 1.411921 -0.08658648
-0.67046285 1.0511038 -0.039559588
-0.36859533 1.0167062 -0.89492565
0.8944676 -0.40889704 -0.08212043
0.72519803 0.5673878 0.4194659
-0.11076851 0.39984882 -0.57481915
-0.32629308 0.37072226 0.30311948
-0.33976007 0.4126635 -0.47865826
0.08014651 -0.25273287 -0.35150522
0.75761616 0.6488372 -0.5866069
-0.46213114 0.7957358 -0.6130784
-0.017328966 1.1504667 0.60547876
-0.6500709 1.1943777 0.07044926
0.25952864 -0.078759864 -0.70751643
-0.8939971 -0.4077052 -0.534116
0.06712679 0.48063767 -0.6834825
-0.23402713 0.89244443 0.5944184
-0.010175364 0.5960009 -0.52912366
0.88861406 -0.40917617 0.7348541
0.2387208 -0.060742117 0.11358809
-0.18815014 0.56585217 -0.4514178
0.081887454 1.4587613 -0.2295329
-0.4317016 -0.23379299 -0.2940247
0.90064913 -0.090234734 0.5380503
0.8819951 -0.4027344 0.90662074
-0.02568857 1.1258962 -0.1619764
-0.46086645 0.6899797 0.42913914
0.5947 1.5277567 -0.50174296
0.30263445 -0.4043803 -0.91471875
-0.27040595 1.3918865 -0.26085082
-0.50561196 0.2915513 0.28707176
-0.3265274 0.72120905 -0.46205103
-0.1421307 -0.4099412 -0.90865254
-0.14438716 1.4605486 0.13493648
0.49897867 0.7369431 0.21606039
0.30001557 1.5378478 0.54216707
-0.3792447 -0.41470426 0.55858266
0.605397 0.45330742 -0.34959507
0.20258138 -0.41273248 -0.7514514
-0.11946282 1.6290805 -0.0073364573
-0.5252912 -0.063017026 -0.16273496
0.5457357 -0.10526632 0.91989416
0.7900477 0.42451495 0.08578889
0.5514232 -0.021218188 -0.10622209
-0.21699473 -0.25486416 0.76087093
0.0054824944 0.87529004 -0.9970802
0.11361793 -0.41858155 0.74895036
0.26521268 -0.22688791 0.013649434
-0.3481186 -0.40982482 0.15526037
0.2963973 0.26562864 -0.21848431
0.054720048 0.67360616 -0.95744026
0.23244295 -0.24472347 -0.5962889
-0.08910283 1.4291523 0.6524962
-0.041664813 1.6823795 0.40339115
-0.19005856 0.97954416 -0.9694681
-0.4406529 -0.25702408 0.43494147
-0.14382257 1.8170968 -0.08999838
-0.12634239 -0.25467235 0.4623118
-0.30820745 0.6716124 -0.68726695
0.13278583 0.6065891 0.13425961
0.2198723 -0.2543167 0.7821412
0.93026686 -0.24766631 -0.7821257
0.42451093 -0.2526042 -0.63284886
-0.27164108 -0.23208368 0.012102813
0.32291776 1.1668675 -0.55795085
0.72086257 -0.39951652 -0.91766083
-0.69127554 1.3751187 -0.37893647
0.100393295 1.6447793 -0.0054609682
-0.3255704 0.31723672 0.10752347
0.19601068 1.5110269 -0.7653906
-0.91843426 -0.25791895 0.42255342
0.44444782 -0.2476632 0.52591777
0.39978844 -0.24678156 0.35363886
-0.91288626 -0.10440244 0.15873516
-0.45550847 0.5328425 -0.7434925
0.47697568 0.16645317 0.16630137
0.44543174 0.346322 -0.30925798
-0.27751097 -0.029666713 0.087282464
-0.012590945 0.045258008 -0.5156374
0.73994803 0.732937 -0.071115315
-0.415716 -0.24329826 0.7453023
-0.21592227 0.25346047 -0.20571825
-0.0685105 -0.22826716 0.28170925
-0.19296342 1.4015806 -0.047733396
-0.3815835 0.8339515 -0.17582676
0.8194561 0.5104579 -0.3152809
0.9023869 -0.08793137 -0.4915647
-0.28762645 1.13094 0.361251
0.16671653 0.71018815 0.6279812
-0.28685358 1.3943365 0.6257136
0.5778487 0.4300694 0.44655246
0.2950294 0.4888472 -0.2580358
-0.6051072 0.6848172 -0.6818778
-0.18510355 0.15461238 -0.5208738
0.380553 -0.41122603 0.017623575
0.08667907 -0.40612847 -0.9086898
-0.11679177 1.1756403 -0.3370813
-0.69291806 0.72915304 -0.10559584
0.4449793 0.46440387 0.5799744
0.009222317 -0.4086128 0.90653086
-0.003916738 1.1470804 0.7970246
0.49743694 1.703337 0.07470602
0.41361105 -0.04040046 0.23240447
-0.39236155 1.1797212 0.19588202
0.109879315 0.30161297 -0.74668455
-0.43395573 0.6145169 0.06716657
-0.19935885 0.83689874 0.11094615
-0.034590293 0.20875496 -0.10282856
0.2573881 -0.08515224 0.7297486
-0.8678123 0.876776 -0.013801304
0.5091908 1.2451775 0.6337246
-0.7012044 0.8930205 0.051343974
0.0036114473 1.8168709 0.08872937
-0.7309074 -0.08592097 -0.8997695
0.3970409 -0.41301128 -0.1806179
-0.04968006 0.3336687 -0.2453448
0.1217057 -0.2598977 0.61151326
0.8969991 -0.088940755 -0.08751418
0.8844455 -0.08283001 -0.7054231
0.5521158 -0.4126525 -0.28748322
-0.12981072 1.251812 0.51212454
-0.44937494 0.8678433 -0.38880974
0.36899874 0.88516223 0.14175427
-0.3015861 -0.2506201 0.573614
-0.36365655 0.34294236 -0.29744077
-0.38156053 0.22584474 -0.493891
0.43549237 0.5488063 -0.8142984
-0.60300326 0.49849778 -0.58057344
0.6231566 0.63167155 0.3116182
-0.62024355 1.5373869 -0.2278768
-0.044181213 1.3134499 0.31681746
-0.59376085 -0.08710328 0.120966315
-0.73181677 -0.08302198 0.79305243
0.4875726 -0.23184381 0.22497508
0.026112499 0.048694678 -0.17082185
0.24259219 0.29764646 -0.41779855
0.24660364 0.60023236 -0.9179387
-0.008551531 1.5491257 -0.74845046
0.7648269 1.2717569 0.35710347
0.38400942 0.43588206 -0.45846128
-0.36455253 -0.035208166 -0.2644863
-0.8038006 1.2499957 0.12044476
0.21159345 0.8248371 0.45443916
-0.052818462 0.22268541 -0.65159035
-0.3965637 0.12511607 -0.16355446
-0.7965475 0.8121167 -0.40215167
-0.51799965 0.51877797 -0.40336743
-0.38371694 1.5064051 0.46502668
-0.14281741 0.42488214 -0.07932681
-0.10013518 1.7663617 0.25672674
-0.92185974 -0.25769156 -0.22127107
0.55593103 -0.40268004 -0.0742341
-0.8334838 1.0056152 -0.33262455
0.85389316 -0.2499035 -0.92769885
0.49983823 1.0907295 -0.6348836
-0.19138135 0.3154308 -0.40866363
-0.34525692 0.5405229 -0.13612579
-0.30179584 0.67645454 0.17528439
-0.07140221 0.97384065 -0.26260883
0.10618131 0.21127331 -0.23792143
0.6129775 1.1147362 0.32550302
0.7508738 -0.25276366 0.54578304
0.89034534 -0.4090462 -0.6868084
-0.015542638 0.90261304 -0.4748146
-0.34529796 0.32508045 -0.0966999
0.38224685 1.4397428 -0.7580415
0.40276057 -0.23608848 -0.10221476
0.42383868 1.6623609 -0.47174567
-0.16528416 0.17954338 0.38673317
-0.2421909 -0.08280986 0.5103686
0.21442518 -0.40911517 -0.095854074
0.14513683 0.09492561 -0.017528022
0.69991606 0.69645745 0.12681033
0.36738986 1.7629585 -0.2799032
-0.85790646 0.8331751 -0.21281953
-0.046883576 -0.09863171 0.91465735
0.94430006 0.8025566 -0.0630777
0.034890085 0.55562 -0.0007382972
-0.28653872 -0.08415353 0.7144101
0.43301186 0.3283334 -0.11606224
-0.2981485 1.5643988 -0.112007335
0.41564882 0.53445077 -0.09301168
0.19326939 -0.24844041 -0.9253762
0.12778547 0.9202808 -0.3227819
-0.21915147 1.7364527 -0.41075802
0.5487064 -0.078156695 -0.52270734
-0.30156255 1.3265846 0.08728947
0.44823986 1.5305111 -0.6150683
0.6213815 1.0338898 -0.48510626
0.9024358 -0.08869218 0.119396344
0.6753328 0.82914186 0.27978784
0.64030147 0.50973356 0.15376775
-0.2958879 0.4071898 0.583629
0.2423542 1.523618 -0.47693485
-0.43101636 -0.40880343 0.89621615
0.15646484 1.34565 0.32442677
-0.7406827 -0.24834916 0.91991687
0.40738142 0.73808265 -0.8979911
0.59294593 -0.24334824 -0.397017
0.7359983 0.9610348 -0.32692963
0.5761256 1.392071 -0.6528069
0.37757415 1.406571 0.041475445
-0.79789555 0.6513568 -0.2896124
-0.7629838 0.4987208 -0.16309133
0.39165348 -0.4127596 -0.76170266
-0.6142566 0.60508096 -0.2612665
0.73324585 1.414016 0.23551917
0.72038823 -0.4173407 -0.1834342
0.75646883 1.4746661 0.035516903
0.7367811 -0.08534552 0.65086794
-0.61792994 -0.25586903 -0.61669266
0.046288367 0.92111766 -0.10241814
-0.254416 -0.40207085 -0.26827973
-0.35691223 0.17287555 0.25125313
0.1865516 -0.025214106 -0.5078757
0.20868994 0.5719074 0.74357533
0.10958633 1.6520469 -0.6101967
0.48271245 0.916655 -0.36523396
-0.64346576 -0.08280151 -0.7412877
0.17963898 1.6146798 0.18780538
-0.53956985 0.23089337 -0.100604914
0.30373842 -0.24863878 0.61962676
0.0159069 1.7510082 -0.45561555
-0.2736148 0.6904617 0.3708027
-0.31355506 1.5487311 0.08186896
0.89695865 -0.40902102 0.33165476
0.24988942 1.0725698 0.15365194
0.013766222 -0.2454776 0.7684797
-0.7529485 1.1649334 -0.4397527
-0.49519056 0.99609816 -0.24849747
-0.48603952 1.1553636 0.42137283
0.3151371 0.6852573 0.16434321
0.68122715 0.6414914 -0.40975028
0.5613476 -0.17280236 -0.047428686
-0.65637875 0.38474888 0.1649167
-0.5706464 0.7271454 -0.45162064
-0.27610064 0.71098524 -0.034478903
-0.2655605 1.6248791 -0.5608151
-0.80816656 1.215282 -0.26445502
0.21230575 0.8232454 -0.1633307
0.7020824 1.5110765 -0.3618654
-0.9280367 -0.2531069 0.6223547
0.4673832 -0.4117785 0.9059708
0.7478653 1.1081774 -0.16635677
0.19583966 1.4369316 0.121621445
-0.31722903 -0.049941204 -0.09204453
0.060443185 1.3244082 0.72786134
-0.74215937 1.3911531 -0.17559236
0.0978908 1.035745 0.29038408
-0.16443978 0.73197365 -0.58303744
0.07246379 -0.07250263 0.25037253
0.17192182 0.48119816 0.44891027
-0.12679291 -0.4155243 -0.610591
0.2901371 1.4790728 0.33138502
0.89728427 -0.40782648 -0.48733485
0.22768095 1.3748096 0.48706308
-0.42011338 1.0086896 -0.08186514
0.4177844 1.3244274 0.39571223
-0.14285594 0.40477008 0.37765777
0.15193948 0.41207767 0.12363609
0.47696927 1.2628398 -0.29230407
0.72722685 -0.41997445 0.024391174
0.06548196 0.54924893 0.5993622
0.09594628 1.5258188 0.35350132
-0.22944334 1.2974373 0.27126974
-0.0139613 1.0670651 -0.9792384
-0.28387362 0.6193753 -0.8761755
0.15375078 1.6413362 0.4691655
0.61231434 0.27779573 -0.40407068
0.8942257 -0.4092794 -0.2853799
-0.57110393 -0.41271216 -0.3182178
0.018854236 0.2985062 0.29030472
0.030304905 -0.09101036 -0.91447604
0.6081071 0.99770653 -0.05719715
0.11690158 1.761802 0.27656502
-0.7003539 0.47405335 -0.373296
-0.19281238 -0.4120344 0.6122918
0.5938953 1.3516498 0.09281433
0.26176077 1.1707654 0.37437767
-0.3814788 0.13532181 0.03527666
0.5790163 0.7051917 -0.5846002
0.06005828 0.9384682 0.107130334
0.7558317 -0.24243337 -0.73438174
-0.111303344 1.4977027 -0.18898699
-0.32359913 -0.41635656 0.74248767
-0.0908995 -0.41561154 0.7549523
-0.6230056 -0.2513646 0.7443745
-0.1151672 0.734291 -0.77784884
-0.25174403 -0.25750083 -0.9224036
0.7237221 -0.41319537 -0.58069146
-0.59395933 -0.25055817 -0.42529356
0.82558835 0.57231265 0.22111975
-0.1304146 -0.06196112 -0.5976888
0.021435093 1.2475076 -0.72200346
0.73204553 0.46593112 -0.48806554
-0.3277615 1.1427085 -0.0095134545
-0.1336895 0.7826785 -0.4086631
-0.5518184 -0.09181653 -0.91478336
0.29857385 0.98080766 0.35849264
-0.817654 0.72924274 0.12701127
-0.26192892 -0.2078726 -0.3812663
0.5258484 -0.41129363 -0.89759696
0.42599556 -0.23087502 -0.4665554
-0.7009901 -0.41844976 -0.8001468
-0.32626837 -0.25456953 0.92050135
0.37070322 -0.40902328 0.21746454
0.047327887 0.70676476 -0.12284431
0.09070253 0.3671001 -0.54163694
0.83277464 1.3782203 -0.10636559
0.692195 -0.4179433 0.8793423
0.5494443 0.17839998 -0.011189887
-0.5593915 -0.0813836 -0.34457934
0.68388724 0.5946292 -0.21648982
0.55522037 1.6468971 -0.33061835
-0.07059942 1.0786235 -0.79310715
0.6989385 0.4113378 0.2908694
0.09431708 1.4144529 -0.63343596
0.89471835 -0.40619212 -0.881135
0.60652494 0.52342576 -0.66819817
-0.7358531 0.58173454 0.24445921
0.47479036 0.9275157 0.3135201
0.54412246 -0.25530168 -0.7740499
-0.35789403 -0.08913513 -0.91200304
-0.08620299 0.36602843 -0.7894589
0.013976149 0.41441834 0.4659214
-0.2375573 -0.21248543 0.18167982
-0.22239453 1.2315581 -0.18674184
0.019207332 0.59487534 0.7721249
0.19847384 0.86153257 0.2254017
0.36209214 0.42751712 0.4032298
-0.92587614 -0.24533764 -0.0031926734
0.005855405 0.24913594 -0.43198746
0.13730696 1.4752353 0.6330997
-0.7971823 1.2300597 -0.07431553
0.40400833 0.92226905 -0.73123336
-0.056038037 0.78692734 0.010894079
-0.6050266 0.7943808 -0.26429135
0.61225295 1.4599979 0.3801643
0.012827201 0.2118279 0.4806081
-0.5255761 -0.41906792 0.7147885
0.75463676 0.8734479 0.07271348
-0.2720278 1.5665876 -0.33208978
-0.5998665 0.5484879 -0.06827773
-0.13915855 1.1956012 -0.02227655
0.52793145 0.73018146 -0.33790225
0.9034087 -0.08918767 0.33043712
0.24505204 -0.23473892 0.43694678
0.28794095 0.8280779 -0.38588423
-0.49455112 0.5292007 0.5365641
0.14187747 1.8009881 -0.29716733
0.06307623 0.3765877 0.6560093
0.12915955 0.17016238 -0.58023345
0.5400288 1.199218 -0.08802836
0.37989247 0.74393713 0.5554913
0.60964036 -0.24551675 -0.59836507
