0.62131417 1.3385777 0.47089893
0.51887804 0.42200512 0.05637199
0.47680712 1.4685392 0.21480137
0.7437963 -0.2534567 0.7562352
0.43782482 0.96117616 0.5106075
-0.5510067 0.89932483 0.38631582
0.11197591 0.10052902 -0.36039117
0.6926503 1.1588974 0.5143757
0.27252048 1.6285737 -0.6503091
0.76595426 -0.24911633 0.9328965
0.45662355 -0.08583833 -0.725075
0.00052886957 -0.4061765 -0.46802008
0.042968474 1.3199224 0.0032020179
-0.713871 0.9290983 -0.16434482
0.32169038 1.3268704 0.21068352
0.08227746 -0.1897752 -0.51392543
0.37397486 0.37198997 0.22001219
-0.33125502 -0.08017731 -0.5783736
0.15551648 0.5261545 -0.40590832
-0.90453976 -0.09555818 0.72542983
0.4851094 1.6735051 0.24812531
-0.59249043 1.3601315 -0.10843024
-0.46545684 -0.25315303 -0.92513347
0.42192006 -0.084292576 0.639578
0.27680618 0.2612493 -0.6330329
0.884282 1.248478 -0.22708696
0.9067479 1.0767319 -0.3082234
-0.26955694 0.9411104 -0.039741263
-0.21207961 1.4698036 -0.50382876
0.25560245 0.09684333 -0.21441618
-0.41420865 1.1950345 -0.25526455
-0.72615516 0.6361248 -0.47064772
0.022522753 -0.10741711 -0.15051368
-0.72553825 1.4103153 0.037310828
-0.7246682 -0.086572245 -0.42760658
0.34620327 0.98182845 -0.54918456
-0.584056 -0.4145804 -0.10778746
-0.32141322 1.2614932 0.5155304
0.11115298 1.2537796 -0.5358569
-0.24424155 0.6994629 -0.25347877
-0.052257426 1.1101122 -0.5939462
-0.20556906 1.1174198 0.57147455
-0.74349177 -0.0806184 0.21087301
0.26074916 0.4165064 -0.7965584
-0.061407104 -0.09026265 -0.7650489
0.7625704 -0.25196797 -0.49219728
-0.5148512 1.1721789 0.6139206
0.6121787 1.2327046 -0.73048186
-0.09546924 -0.214611 -0.45655406
-0.13772321 0.9125644 -0.82295704
-0.09437847 -0.05090126 0.17408347
-0.7608073 0.9945671 -0.520684
0.4151453 0.91284865 -0.11605807
0.15345567 1.2931745 -0.15470953
0.24030766 0.80110145 -0.60631514
0.92283475 -0.24924263 0.0148826465
0.076550126 0.4770562 -0.86714447
0.8590053 0.690297 -0.40178108
0.69917595 1.5602841 -0.2047902
-0.19654253 0.10671087 -0.07660453
-0.40671828 1.3475084 0.35703325
-0.10830701 -0.2191458 -0.2702878
0.89145994 1.1638324 0.17522502
-0.7243446 -0.4213423 0.7760226
0.3764069 1.1792502 0.7283191
-0.49748826 -0.41939926 -0.73086953
-0.71521974 0.8106041 -0.56173337
0.20471278 0.25665954 0.17642514
0.34392858 0.8037862 0.76163316
-0.5690654 -0.08897161 0.5171765
0.74004126 -0.08831401 -0.5822573
0.8557942 1.0315063 -0.47490364
-0.12022397 1.405762 -0.66320014
0.34717822 0.13345736 -0.015767004
-0.020329703 -0.41460872 -0.7619207
0.72637784 -0.41928908 0.64982975
-0.11086128 0.54678166 -0.88811153
-0.4449274 0.6061328 -0.5400201
0.04006339 0.8851892 0.3593184
0.5747696 -0.07235646 0.12113463
0.19795746 -0.41160345 0.2849682
-0.35093164 -0.41557366 -0.59200144
-0.3383991 1.23645 0.69741
0.12262457 1.2156805 -0.95611966
-0.89061683 -0.09985824 -0.9145211
-0.73831964 0.9686425 0.38543576
0.079167634 -0.4302587 -0.2535224
0.42640483 1.05914 0.025559656
0.5384762 0.31782916 0.32921672
-0.07127335 -0.078553215 0.56232953
0.1084522 1.6209574 -0.3766691
0.14410996 1.0833707 -0.20713955
-0.7621978 -0.24593148 0.31165242
-0.49963266 1.6689813 0.078982696
0.43837005 1.091396 -0.19154078
-0.44765562 0.40775388 0.46234453
-0.85712904 -0.08035955 0.017007314
-0.482494 0.7055211 -0.09397845
0.7677404 0.9764501 -0.6202597
-0.19605201 1.2374828 -0.7252171
-0.1930258 1.5892386 0.5159014
-0.34533107 1.7650951 -0.030193103
0.5770931 0.6928638 -0.77941394
0.34872544 1.5839777 0.15814662
0.7045528 0.82481277 -0.69769263
-0.3984683 -0.084105745 0.40507242
-0.6207438 -0.09241809 0.91342676
0.4082983 -0.08017479 0.43237036
0.5870372 -0.26876992 0.89940846
0.92172825 -0.24802738 -0.38895476
-0.8950603 -0.40693748 0.10275926
0.7791122 0.94151706 -0.14172041
0.9193944 -0.24898969 -0.18601063
0.56688863 0.38683295 -0.55426073
-0.5418128 -0.4231074 0.4906158
-0.09211201 0.1338822 -0.29596442
-0.71896005 -0.41711852 0.40216112
-0.06631206 0.45096105 0.13823375
-0.31413785 0.92184997 -0.5285125
-0.86887133 1.0582399 -0.12624049
0.0011094613 -0.4145473 0.5730492
0.18154868 0.26447815 -0.034786377
-0.6811314 -0.08366596 -0.038239267
-0.71402717 -0.41833133 -0.62496686
0.0586529 0.65967256 -0.76274675
-0.89932716 -0.4054777 0.7166282
-0.9040507 -0.09398012 -0.5298742
-0.600101 -0.24596241 -0.2081198
-0.32569364 0.8201534 -0.9111098
0.4264378 -0.2552219 -0.9235492
-0.5581463 1.4711171 0.3618564
-0.009523619 -0.41126403 0.36861736
-0.18067876 0.7016419 0.7638625
0.35687488 0.9416095 -0.9340939
0.4089012 1.3065311 -0.6459807
-0.50030744 1.3711915 -0.29985094
-0.524445 -0.24735352 0.91391146
-0.43561625 -0.2301766 0.093306646
0.6502427 0.8553646 -0.4665637
0.030552125 1.4577289 0.17365177
0.015111057 0.25944006 0.116494805
0.16199827 0.16465643 0.36578503
-0.25606424 -0.42097515 -0.7523799
0.37987816 -0.25774235 0.92342705
-0.21460406 1.4185053 0.43467015
0.3606925 -0.07525512 -0.5473719
-0.1493807 0.93449545 -0.6234076
0.88243085 0.63651896 0.011035636
-0.4585814 1.4267875 0.19106779
0.3939744 -0.07673448 0.8627345
-0.023611233 0.8211233 0.81196624
0.29030025 1.3049393 -0.43364027
0.32245684 1.7839458 0.15330559
-0.3549741 -0.26111713 -0.7687056
0.7412642 -0.08437465 0.22414607
0.31089485 0.98750997 -0.2626863
0.44654906 0.97483546 0.72344303
-0.4598244 1.6215547 0.27506953
0.54693305 -0.4195866 0.130125
-0.6714801 1.1365445 0.4339283
-0.10196984 1.1604514 0.33650285
-0.035135977 -0.24784246 -0.6296629
-0.535385 -0.083306275 0.73044264
0.7965957 1.3923542 -0.3359639
0.22416094 0.6355143 -0.073286235
0.94513583 1.0369079 -0.13352618
0.5826684 0.4573944 -0.14769709
0.5953001 1.3772702 -0.40858632
-0.09093862 1.6102924 -0.38075447
0.4305571 0.2588653 -0.51881444
-0.09662804 -0.41740072 -0.14318305
-0.73995405 -0.4166311 -0.21425825
-0.26765597 -0.40919134 -0.07279992
-0.22358008 0.5296509 0.24048156
0.90353495 -0.089836806 -0.8980404
-0.36939287 -0.4118949 -0.90239835
0.119519554 -0.24050616 0.31637716
-0.89628756 -0.093896344 -0.3342943
0.007161168 0.8157564 -0.27374423
-0.11634943 0.51429915 0.69754934
-0.6224699 0.7300142 0.08069275
0.029782945 1.8573699 -0.11978656
-0.0876949 1.2889304 -0.5181235
0.92595184 -0.2488698 0.23013392
0.15213916 -0.4099884 0.455065
-0.031817652 -0.25724578 -0.9162632
-0.9153985 -0.26095557 -0.872772
-0.17570268 -0.40582907 0.25359577
-0.6383249 0.651541 0.44518733
0.05063898 0.8652605 -0.83669466
-0.23936586 1.1841568 -0.9207225
0.7379857 0.79444385 -0.28230482
-0.2950006 0.13494322 -0.32358456
0.6573216 1.3248968 -0.22826467
0.4400785 -0.24284677 0.7551682
0.021757351 1.4089055 0.48915574
-0.4106272 1.4920189 -0.65707135
-0.10645051 -0.24752639 -0.0811737
0.79104996 0.9538269 0.4343608
-0.19965133 0.12345572 0.1777006
-0.1911005 -0.41889387 0.44198126
0.24440368 -0.08324808 0.5356066
-0.25654888 1.0643501 -0.20247799
-0.28509897 1.2688867 -0.4083181
-0.4844132 1.276489 -0.46393007
-0.35499904 1.0404437 0.7267109
0.40679234 0.63960737 0.6839949
-0.54780114 -0.08540428 -0.55017674
0.08125657 -0.06961681 -0.6659241
0.23852569 0.9695194 -0.017445445
-0.7773595 1.1657739 0.2821642
0.40726718 0.7500814 -0.7078937
-0.6364179 0.82574034 0.5206698
-0.42836758 0.98918927 -0.67601514
-0.06267762 1.0239627 0.4587257
0.05417792 -0.28168696 -0.18450522
-0.7628473 -0.24861929 -0.10554823
-0.016384616 1.5260291 -0.52716
-0.2793947 0.9031073 -0.31331924
0.31274518 1.0950351 0.5655003
-0.25730443 -0.23190933 0.36643887
-0.43686032 0.45771253 0.18478388
-0.5041404 1.0588834 0.09254013
0.31449804 0.10898942 0.18574658
-0.09978023 1.3174173 0.12047145
-0.8979595 -0.40579218 -0.10566114
-0.5784981 -0.40573034 -0.9167732
0.5888679 0.6423503 0.56243014
0.10475233 1.098367 -0.8181778
0.25372034 1.3420868 -0.8887024
0.4421119 1.2739773 -0.8333976
0.08236326 1.2610035 -0.32746157
0.3786239 -0.05397389 -0.18024155
-0.5319965 -0.415954 0.2929627
0.09115067 -0.051026344 0.43305314
0.11485911 0.0913368 0.18776983
0.9222882 0.8753511 -0.29706395
0.7330675 0.37506622 -0.25722548
0.73519534 -0.0869268 -0.90178037
-0.41412854 -0.24891886 -0.47582677
0.21035475 1.8334641 -0.14716159
0.10217883 -0.2353213 -0.03177118
-0.21489887 -0.4043475 -0.45412323
0.466232 0.5758753 -0.2776804
0.42209387 1.140054 0.23330244
0.33296323 -0.41660166 -0.5789732
-0.25548607 0.29048797 -0.637824
-0.49847862 1.6830375 -0.12499523
0.41956478 -0.41341913 0.61562616
0.52146745 1.7071052 -0.17492858
-0.08820612 -0.05602183 0.3757906
0.41882724 0.791155 -0.51086795
-0.31639534 1.780091 -0.23148933
0.2310947 -0.3968745 0.9139894
-0.20064923 -0.020602927 -0.41845375
-0.031094935 0.11631474 0.30085164
0.17813835 0.629429 -0.5679419
0.42378038 1.1179616 -0.41439497
-0.6226169 1.2498996 -0.27282727
-0.26699275 -0.21842635 -0.18055093
0.8443747 1.2278769 -0.43459523
0.5405023 -0.4119175 -0.4914
-0.38356847 0.85011196 0.27243516
0.15329513 0.9417168 -0.52509665
-0.40443522 -0.2455501 0.25974745
-0.414832 -0.06342821 0.20579554
-0.17626335 1.0264789 -0.42488378
0.8938637 -0.09657784 0.9085822
-0.028771576 0.4597153 -0.38235116
0.9273281 -0.2518248 0.86139023
0.100180045 1.4145896 -0.43010986
0.20547321 -0.40869808 0.09765541
-0.06339234 0.99117124 0.6627767
0.37077746 1.79396 -0.0807246
0.28264147 0.13859935 -0.44185966
0.69058543 1.1962652 -0.3838805
-0.44032115 0.69451004 -0.28447622
0.45727277 1.4524431 0.5455023
0.72797316 -0.41744876 0.42979893
-0.54805124 1.0908351 -0.77617973
0.53597736 -0.06823823 -0.31255576
-0.50962204 0.8791956 -0.81376994
0.7220163 -0.4174243 -0.38737196
-0.8979994 -0.09487425 -0.14587785
0.8246547 0.49497062 -0.11893886
-0.8689536 -0.09412362 0.9096569
-0.8443258 1.081397 0.07830585
-0.15053989 0.8426354 -0.16053152
0.32923442 0.5285795 0.08487979
-0.17138466 0.27625164 0.030603249
0.33745176 1.5987173 -0.34217077
0.2833169 -0.2248332 0.21592897
0.15634778 0.79634154 0.039990928
-0.11890229 0.82516015 0.4672929
-0.11404114 -0.2612462 0.91823924
0.5473726 0.8803215 -0.8386966
0.7427472 1.1704195 -0.60317326
-0.099275604 1.5317621 0.33359498
0.23409964 1.2858531 0.029942963
-0.15119934 1.3015763 0.72669727
0.29716647 1.1476924 -0.080829404
-0.123876885 0.5691633 -0.6922959
-0.4879464 0.22808152 -0.28418678
-0.73470056 -0.41545117 0.0020144838
0.1649792 1.2523763 0.5779158
0.71900177 -0.08523303 -0.19035232
0.73208034 -0.08388659 0.013475345
0.4996826 1.4862719 -0.2780937
0.7005857 -0.41571772 -0.7620783
0.35840985 0.7648078 -0.014887347
0.26561737 1.4310976 -0.2887944
0.59828675 0.24588583 -0.20044333
-0.4554875 -0.08487763 -0.73844343
0.6450853 0.31499666 0.15372184
0.3195715 0.6494928 -0.41882443
0.71348786 1.3623334 -0.54524386
-0.46482545 1.4875731 -0.007714104
-0.75670445 -0.25195646 -0.31950745
-0.42013118 -0.40988976 -0.19735649
0.83142066 0.77121127 0.3267324
0.37317914 1.3447793 -0.13965815
0.19966136 0.80824584 -0.9753003
-0.7702968 -0.25500256 -0.5252234
-0.32381588 1.3242474 -0.60501987
0.24862139 -0.39908433 -0.28056473
-0.5842221 0.5584736 0.14725687
-0.6543042 0.94297254 -0.3712581
0.47259516 1.1590352 0.43853104
0.10019709 -0.23807651 -0.7586155
0.24791296 -0.040099885 0.32373524
-0.09607786 0.9888463 0.22745684
-0.554252 0.8957734 -0.060393304
-0.89303064 -0.41118622 0.31654817
-0.8632711 -0.40353537 0.90468574
-0.6977011 1.3683702 0.24564055
0.3368187 -0.41696563 0.7749988
0.7157059 0.78738934 0.5029885
-0.573473 -0.25139385 -0.78939044
0.23649615 -0.22201306 -0.1956711
-0.8937506 -0.4055382 -0.7333734
-0.40589488 1.2048508 -0.8196682
-0.16094202 0.82725155 0.28426036
0.635947 1.6389878 -0.045165204
0.58058935 1.0998082 -0.28197223
-0.59221834 -0.24869198 -0.004341009
0.7672334 1.0944345 0.016965745
-0.8951584 -0.40923285 -0.32327786
0.83869237 0.8396144 -0.50271255
0.35206616 0.21710482 0.35407788
-0.6383184 1.5578125 -0.04278173
-0.7264824 -0.4151228 0.20693465
-0.3454612 0.82023346 0.7278719
-0.7433892 -0.086944655 -0.6089202
-0.21378891 -0.41188696 0.900905
-0.63094485 1.3061352 0.4344797
0.91389215 1.2086468 -0.034559987
-0.7522362 -0.24203554 0.101634994
0.05018491 0.53144944 0.28749794
-0.4479766 1.5108342 -0.21319547
-0.4954543 0.4567219 -0.19840153
0.24706301 0.5969919 -0.73171806
0.2212603 0.77702534 -0.792436
0.30552608 1.1417699 -0.93638015
-0.54233754 -0.41629183 -0.5278587
-0.38788185 1.0523944 0.51768816
-0.24346521 -0.03396575 0.29407746
-0.9015079 -0.09606659 0.34055054
0.08556927 -0.0870536 0.655975
-0.42999712 -0.22934532 -0.10054687
-0.66322714 1.2881455 -0.54714274
0.4989531 0.6431221 0.06829015
0.41694278 -0.020176854 0.028219096
0.20788927 0.30078018 0.5256989
0.78044343 -0.24877907 0.123386234
0.5386663 0.7132175 -0.13022116
0.18592104 -0.080436125 -0.88711685
-0.38698852 1.3374574 -0.10846303
0.5976248 -0.248795 0.42674285
0.3537051 0.7981261 0.34196222
0.49097455 1.5611206 0.022131518
0.111550316 -0.23609996 0.14467779
0.71254086 1.2793763 -0.04027058
0.58493704 1.1623912 0.090964824
0.034253668 0.95156777 -0.68241453
0.013618092 0.78041124 0.19895609
-0.39560747 -0.4147939 -0.39418012
-0.71824586 -0.08825581 0.6215943
0.5403857 -0.41509092 0.33172762
-0.89564455 -0.09291656 0.5325713
-0.61495733 1.5267212 0.15990666
0.017896479 -0.41168648 0.18208793
-0.6425625 0.9197887 -0.6910427
0.756118 -0.25279778 -0.2875359
0.45244133 0.63844997 0.40371275
0.03946141 1.0029709 0.830021
-0.9207132 -0.26693454 0.21569571
-0.22923315 -0.09352447 0.90016437
0.1508094 1.0973568 -0.6263652
-0.84976447 -0.40653878 -0.91524804
0.36412248 0.74541587 -0.2274407
0.28209955 0.5652919 0.27826005
-0.5609127 -0.41318172 0.106989875
0.5182011 0.5802798 -0.476265
0.21168092 1.6470456 -0.20428988
-0.37379652 1.0770339 -0.4046312
-0.92514324 -0.24789444 -0.6458159
0.89675415 -0.08846836 -0.28923607
0.66605926 0.57803357 -0.025768157
-0.6809629 1.097331 -0.2272232
-0.24874505 0.98021924 0.3724667
0.279777 0.64099586 0.5039263
-0.4732081 1.3677208 0.55020076
-0.007356645 -0.06282866 -0.3438293
0.55645335 0.84050155 0.016331628
-0.5109272 1.30579 0.064849645
0.16639769 0.7093191 0.32044494
-0.7258128 -0.41797632 -0.42664984
0.38452792 -0.41081923 -0.39179033
-0.0930885 -0.084417045 0.7478584
0.1951507 1.2102373 0.7740307
-0.45866182 -0.050986484 0.009569433
0.539294 -0.42049587 -0.6722952
-0.41016495 -0.09086628 0.59761214
0.00071239914 1.5000857 -0.030714061
-0.6664494 0.37465706 -0.015312751
-0.4258147 -0.40840814 -0.0067772977
0.2509268 0.44423977 -0.58900344
-0.63911235 0.3524703 -0.22031114
-0.11232062 1.6737597 -0.6058229
0.48689795 0.5261456 0.24633667
0.5841298 0.89404565 -0.21038324
-0.063235015 -0.23694307 0.09044427
0.5810621 -0.086593255 0.5357545
0.15671171 0.82593113 0.80325073
-0.6995659 -0.41252804 0.6013495
-0.18511653 0.9174827 0.7946777
0.5333829 1.2479453 -0.5168102
-0.8895951 -0.08969203 -0.7372298
0.93714 0.9970207 0.057664193
-0.5687239 1.234836 0.253883
0.20120052 1.2763565 -0.7371181
-0.085728064 -0.403616 -0.3258891
-0.26893598 1.0609196 -0.73860973
-0.22966798 1.5362909 -0.72578084
0.61761993 1.0019891 0.4158703
-0.39532435 -0.06564275 -0.42111814
0.24871129 -0.12730516 0.92350805
-0.76701725 -0.24254024 -0.744077
0.7220466 1.2444444 0.1691515
-0.43905422 1.1524193 -0.6000685
-0.31865042 1.0045226 0.1586414
-0.3004195 1.5073395 0.27048486
-0.2808933 0.4422006 -0.7746825
0.10013792 0.75004053 -0.4362006
0.12870806 1.060578 0.6686349
-0.5755362 1.1209971 -0.41663152
-0.005710738 1.6013665 0.53552663
-0.18699007 1.6471906 0.1882587
0.043427423 0.3884519 -0.044066064
-0.08590189 1.82622 -0.30029678
-0.050111257 1.3372467 -0.1731859
0.05020947 0.5324781 -0.18817961
0.05847073 -0.06565182 0.042498168
-0.49178922 0.93188405 0.64838934
0.2642325 0.92419666 0.62756884
0.7267656 -0.41923517 0.22857311
0.42618704 -0.22849016 0.07853077
-0.8438806 0.68508226 -0.06135766
-0.4724423 0.43307796 0.004859278
0.2311016 0.44536424 -0.07237394
0.097446084 1.1279516 -0.010189355
-0.41770893 -0.08721259 0.8884762
0.28850237 1.2095807 -0.27031773
-0.34288174 1.7453134 0.17874086
-0.46410865 0.70764816 -0.80410075
-0.18857545 0.4835257 -0.24853566
-0.926255 -0.25227737 0.8666259
-0.26800132 0.728089 0.5682802
0.35770518 -0.41751003 0.42894202
-0.20876354 1.1473191 0.15784135
0.036611427 -0.41437918 -0.014605268
0.40590453 0.3332106 0.49829417
-0.4252419 0.8434068 0.07399674
0.18717045 -0.40661687 -0.44894883
-0.42358786 0.58300346 0.30946112
0.19722915 1.4760691 -0.08783649
0.050543576 0.69941646 0.45892143
0.8991272 0.6805942 -0.1954808
0.22074346 -0.054116588 -0.08497226
0.7033038 0.33407733 -0.046111237
0.21734428 0.9573008 -0.7647759
0.42983693 0.39236063 -0.6863189
0.13895604 1.0495334 0.4776361
-0.1531364 -0.41109422 0.06745861
-0.1653268 -0.030486133 -0.21933548
-0.4898178 0.7329372 0.6235041
-0.5264362 1.3063533 -0.70086646
0.8994468 -0.40854925 0.1255593
0.84502363 1.3472126 0.09243229
0.55915004 -0.41401452 0.74249005
0.05526697 1.4025738 -0.87123084
-0.24118084 -0.2469939 -0.5885225
0.55113864 1.3078257 0.260063
0.89523935 -0.40933043 0.5360208
0.28097194 1.6459153 -0.0054722503
0.35609806 -0.08866356 -0.9083594
-0.06217344 1.2496426 -0.93002445
0.110551566 -0.07589727 0.85657185
0.014882032 1.6733575 -0.19642314
-0.19606775 1.8115174 0.07541896
0.29660758 1.7102158 0.33917677
0.63548267 1.5976874 0.15780887
-0.542894 0.9710099 -0.52768445
-0.25676104 -0.08981615 -0.7490017
0.72082144 -0.08444967 0.8750404
-0.72307503 -0.08449587 -0.22636066
-0.44686222 -0.24422967 -0.63416684
-0.45564497 1.6811693 -0.31423002
0.65046024 1.034569 -0.7500106
-0.5872017 0.88832325 0.19912648
-0.30433136 0.8540641 -0.72854805
0.39304024 0.58865017 -0.6081488
-0.06297982 0.7560683 0.6352712
-0.28152838 0.5169156 -0.6002058
0.4502775 0.13077386 -0.16756526
0.9061611 0.7914596 0.13005747
-0.35535467 -0.41643643 0.35668564
-0.33235645 1.3716756 -0.8023709
0.25705343 1.0122364 0.802542
0.7401433 -0.085337296 0.43296504
0.38651496 1.567128 -0.14852141
-0.92393494 -0.25516695 -0.4271129
0.44762465 1.5855572 0.4074321
-0.11764882 0.345228 0.57584846
-0.8846569 -0.41083995 0.5209733
0.5389348 0.9138688 -0.6185959
0.5470141 0.8114979 0.43166104
-0.29799417 0.2943198 0.45733264
0.5418259 0.80640256 0.66021955
-0.15129045 -0.2591223 -0.7646686
-0.71018064 -0.26240253 -0.9284107
0.42480898 1.2577064 0.06352632
-0.09421705 -0.24111745 0.62954175
-0.1636371 -0.0917103 -0.9186313
-0.82424355 0.9393033 0.21233115
0.13749596 0.39131296 -0.2621119
0.5768409 -0.09020163 0.74547064
0.02298129 0.77790105 -0.62259316
0.18085027 1.8383113 0.047888305
0.23223478 -0.41938552 0.6056523
-0.44329855 0.37814978 -0.6141706
-0.26293442 0.5176532 0.05102095
-0.57545835 1.5384945 -0.3972497
0.040414035 -0.2230021 0.4687736
-0.6061156 1.0178189 0.5395014
-0.7432672 0.78473896 0.32848084
0.7476281 -0.2548979 -0.08407104
-0.24577454 1.1374643 -0.55745196
-0.018321652 1.1483817 0.1410071
0.7198758 -0.08500409 -0.38955504
-0.6582582 1.1261456 -0.6294952
-0.76586854 0.54842556 0.062030427
0.5734167 -0.083388135 0.32920927
0.25919014 1.407671 -0.6057901
-0.09612885 1.3984951 -0.35829774
-0.26252005 1.6841139 0.361111
0.4176798 1.442521 -0.46389204
-0.4646384 1.0385218 0.30762374
0.34745285 0.3133937 0.04952203
-0.15730304 0.30403075 0.23210919
-0.37895584 0.8726635 0.48508376
-0.04566387 0.64206815 -0.30982012
0.30972797 -0.23991865 -0.7788081
-0.087115556 0.64679 0.3269245
0.61793476 -0.26944923 0.07015297
0.6442642 -0.25462213 0.2488159
-0.39037895 1.4456377 -0.4413426
-0.14633921 1.3968472 -0.85725725
0.10163428 -0.4064818 -0.61263084
-0.1500629 0.74839115 -0.95779335
0.64387536 -0.24445593 -0.9189967
-0.597163 0.4851386 0.36131805
-0.591603 -0.25523928 0.22047155
0.5682371 -0.4160348 0.5247061
-0.11701055 1.0268984 -0.007230911
0.32010832 1.1220839 -0.75221133
0.061894007 0.8884407 0.58588004
-0.6556829 1.0572486 0.212872
-0.122214824 0.59154105 0.52256346
0.8978603 -0.09239861 0.73456997
-0.5624225 1.4449507 -0.5530331
-0.5704963 -0.090499505 0.3203977
0.44056058 0.17558467 -0.3416336
0.35077083 1.2719276 0.5378014
0.29452628 1.3838172 0.67954755
0.7277739 1.0406795 0.20937109
-0.12876315 0.62948203 -0.104244426
-0.108097956 0.64811724 0.11573382
-0.61507666 -0.25805914 0.4180647
0.17515971 0.6771466 -0.27239704
0.91790414 -0.2518294 0.6485474
0.16348675 1.0042179 -0.98380816
0.41075456 -0.23208371 -0.28752118
-0.516198 0.25804794 0.11446624
-0.5271901 -0.2609741 0.5946262
-0.2964623 0.5501477 0.4519472
0.92467576 -0.25020176 0.4437632
0.5915048 -0.2538007 0.6464937
-0.5354841 1.1780578 -0.0976553
0.5662571 0.97810763 0.14393502
0.88625354 0.9538213 0.24846783
0.20367604 0.3717112 0.3357988
-0.34653842 0.5498805 -0.33473802
-0.7491168 -0.2494436 0.5370851
0.22004569 1.7517195 -0.475324
-0.0071467934 1.6471015 0.15721601
0.54246557 -0.087808825 -0.9100387
0.2743205 0.4568832 0.6351483
0.09909926 -0.24910599 0.926708
0.64798325 -0.08358315 -0.7337428
0.027900562 1.0996444 -0.4134493
-0.049004763 0.09261049 0.058507677
0.49476653 1.082689 -0.86084306
0.1754774 -0.06686758 -0.28737235
-0.7914258 -0.25255585 0.7299707
-0.7352809 -0.0848116 0.42014694
0.54644895 1.1084154 0.6383997
0.22108082 1.0955582 -0.41468868
0.11948099 1.2526656 0.19205652
-0.32709935 0.60214365 0.67557687
0.5820625 -0.24024579 -0.2059751
-0.17472328 1.1120081 0.7841017
0.8154672 1.1265063 0.35669112
-0.5450852 0.7166631 0.2605614
-0.17436475 1.6867943 -0.21354622
-0.6263722 -0.40435687 0.90642
0.2564432 -0.21344858 -0.40271693
-0.54855263 0.34561276 -0.42779464
-0.4309919 1.6216257 -0.4900748
0.7790299 -0.25095096 0.3433023
0.9163469 -0.24328512 -0.5958546
-0.13060702 -0.070530966 -0.023139436
0.06551741 1.2209749 0.41243765
0.3607626 -0.023183353 -0.36629248
0.6467533 0.95596755 0.59529126
0.56540745 1.4383433 -0.10418415
-0.6745992 1.065475 -0.034896746
-0.3827229 1.0178332 -0.8918972
0.8966583 -0.40883604 -0.08174214
0.73247594 0.60595834 0.4149835
-0.11371035 0.41024238 -0.5612887
-0.31761315 0.3952618 0.31494397
-0.33817792 0.4210748 -0.4630396
0.080304876 -0.25092202 -0.34990567
0.7487769 0.662886 -0.5915428
-0.47019556 0.80188155 -0.6049204
-0.013841348 1.1837609 0.6002438
-0.6535665 1.2113731 0.07114646
0.25943798 -0.081142224 -0.7058973
-0.89418316 -0.4078127 -0.5330212
0.06096881 0.49053067 -0.6735542
-0.22883666 0.92427593 0.59673154
-0.015090104 0.6071133 -0.5211991
0.89092946 -0.408897 0.7347837
0.24060108 -0.05513466 0.11447008
-0.19064364 0.5776375 -0.4415601
0.07079421 1.4792197 -0.24178445
-0.4313527 -0.23660424 -0.2914028
0.90161526 -0.090757586 0.5367264
0.8843508 -0.40219027 0.9067496
-0.031969026 1.1462252 -0.16622686
-0.4547052 0.7155025 0.43726546
0.5782318 1.5455254 -0.5217527
0.30240646 -0.40435714 -0.91612834
-0.2814598 1.4083608 -0.26759472
-0.49583933 0.31453025 0.3029111
-0.3316795 0.7319397 -0.45416683
-0.14308694 -0.40997273 -0.90996224
-0.15087461 1.4859467 0.12611315
0.4997722 0.7674438 0.2119056
0.29955286 1.5738995 0.52774
-0.37634504 -0.41513944 0.5580933
0.5997089 0.47222874 -0.3476448
0.20282951 -0.41311163 -0.7524051
-0.12936974 1.6515461 -0.019741174
-0.5213773 -0.07051395 -0.15963438
0.5458891 -0.10469142 0.91896844
0.79166806 0.4560073 0.083795086
0.54500794 -0.033338502 -0.10811326
-0.21431386 -0.255532 0.7608241
-0.00914753 0.87767607 -0.99868953
0.11638318 -0.41887897 0.75003123
0.26769114 -0.22437626 0.013675744
-0.34579015 -0.41096798 0.15558577
0.29557425 0.2785876 -0.20389417
0.042137034 0.6763264 -0.9530347
0.23469716 -0.24661165 -0.59570724
-0.08782911 1.4649513 0.644808
-0.046538718 1.714134 0.39080766
-0.20488033 0.98091733 -0.9687513
-0.44151312 -0.25876153 0.43179882
-0.15752052 1.8377807 -0.105602875
-0.124285236 -0.25709105 0.462431
-0.3161103 0.67744553 -0.67916495
0.13340962 0.6308472 0.13820378
0.22214754 -0.25539207 0.7810941
0.9314938 -0.24747899 -0.7836062
0.4264651 -0.2539841 -0.63326836
-0.27097958 -0.2318742 0.014741378
0.31077927 1.1818373 -0.56772745
0.721686 -0.39968476 -0.91896987
-0.7038586 1.384166 -0.38001686
0.090515755 1.6696167 -0.02078433
-0.31680614 0.33612835 0.12090723
0.17710835 1.5216012 -0.77937543
-0.9185662 -0.25826615 0.42536667
0.4466591 -0.24909544 0.5253198
0.40112492 -0.24990577 0.3525001
-0.912495 -0.10455444 0.1617775
-0.46203172 0.5348812 -0.72958255
0.47925937 0.1967982 0.1744177
0.4404549 0.36349672 -0.30155057
-0.27953434 -0.026251223 0.09578037
-0.011380766 0.035103343 -0.49837333
0.7370821 0.7611844 -0.078642055
-0.41265857 -0.24290925 0.74679756
-0.20891485 0.26439655 -0.18842143
-0.064769946 -0.23094898 0.2802789
-0.20162547 1.4229968 -0.05546707
-0.38492057 0.84819055 -0.17038417
0.8160932 0.5316999 -0.31921965
0.9033623 -0.08804392 -0.4921354
-0.2867663 1.1606454 0.36080563
0.17452173 0.74651074 0.62781805
-0.2859106 1.427152 0.62015164
0.58562756 0.46714312 0.44730753
0.2921855 0.50619155 -0.25144672
-0.61241496 0.68748736 -0.6697513
-0.17351337 0.16436252 -0.49611753
0.38174686 -0.4119482 0.017118834
0.08578156 -0.4061967 -0.9100821
-0.12606789 1.1915302 -0.34132415
-0.6932925 0.74122775 -0.094754726
0.4542522 0.5022899 0.5815623
0.0113529265 -0.40890428 0.9066238
0.0029090568 1.1845257 0.79189014
0.4883132 1.7327858 0.05265765
0.41227266 -0.050439794 0.22536613
-0.39421034 1.2019843 0.19526035
0.10329572 0.3086363 -0.73073995
-0.43018967 0.6329627 0.077585116
-0.19791514 0.8595809 0.11406438
-0.028073145 0.21925098 -0.08710068
0.260262 -0.085860476 0.72886264
-0.86980504 0.88905346 -0.0038504887
0.51262176 1.2853494 0.6196482
-0.70250076 0.90813184 0.05908093
-0.0065379483 1.8411629 0.07252304
-0.73122835 -0.0864474 -0.90121555
0.3983823 -0.41321865 -0.18025124
-0.046922132 0.344896 -0.2312993
0.12391345 -0.26075155 0.61058736
0.8980633 -0.08919092 -0.08827834
0.8852088 -0.08289939 -0.7067472
0.55387664 -0.41337967 -0.28741807
-0.12785931 1.2847353 0.508339
-0.4555224 0.87853175 -0.38265547
0.36884105 0.91435003 0.13660589
-0.3002122 -0.25105417 0.57315636
-0.35856912 0.35362172 -0.2815932
-0.3754371 0.23283662 -0.47355837
0.4254254 0.5556569 -0.8119838
-0.6051059 0.50274277 -0.5641602
0.6270967 0.66636467 0.30786186
-0.6324137 1.5482416 -0.232188
-0.0466918 1.3421055 0.30908212
-0.59322333 -0.08996568 0.12427907
-0.7306782 -0.083340995 0.79537416
0.49033812 -0.23609293 0.224864
0.030130373 0.056987714 -0.15395033
0.23854351 0.31158483 -0.40455604
0.23540413 0.60566115 -0.9133545
-0.02725077 1.5588763 -0.76134014
0.7647234 1.3087597 0.3382591
0.3778962 0.45135805 -0.45157096
-0.3596835 -0.03760062 -0.2587186
-0.80674195 1.2629793 0.12246172
0.21601583 0.85853535 0.45164543
-0.0549132 0.23111771 -0.6315318
-0.38195103 0.1353864 -0.14620343
-0.80197805 0.81782365 -0.39121342
-0.51844645 0.52713907 -0.38998145
-0.3865235 1.5359151 0.45952606
-0.13860789 0.44006124 -0.06747265
-0.1085099 1.7943532 0.24309438
-0.92188746 -0.25748336 -0.21852975
0.55784774 -0.4034269 -0.074156165
-0.8402873 1.0131006 -0.32518244
0.85457283 -0.25023487 -0.92940325
0.4876154 1.105171 -0.64618254
-0.18834685 0.3247208 -0.39247793
-0.34358454 0.55595416 -0.12581089
-0.29676306 0.6993363 0.18209916
-0.07787426 0.99101317 -0.26222146
0.10981009 0.22104006 -0.22433321
0.6135806 1.150109 0.3121242
0.7525704 -0.25285578 0.54490376
0.8918243 -0.40868568 -0.6874503
-0.023393262 0.91682625 -0.4737544
-0.33838433 0.34032923 -0.08234878
0.3650666 1.4509677 -0.7738129
0.40421224 -0.23547316 -0.10259138
0.40699905 1.679449 -0.49273726
-0.15532473 0.20574471 0.39918226
-0.23814437 -0.08481495 0.5086528
0.2157143 -0.4075414 -0.095397696
0.15397343 0.102310374 -0.0020738216
0.70056295 0.72816396 0.12060572
0.35296828 1.7823582 -0.30009085
-0.86178017 0.8416028 -0.20190391
-0.042362947 -0.09818864 0.91393495
0.94084877 0.83280134 -0.0751025
0.036706567 0.57408094 0.0050282096
-0.28003508 -0.08468025 0.7131791
0.43259344 0.35008448 -0.10898815
-0.3090006 1.5834519 -0.121458195
0.41421673 0.55799025 -0.0906418
0.19285652 -0.24826606 -0.9268851
0.121502295 0.93866 -0.32442743
-0.23517299 1.7513425 -0.42495176
0.55014914 -0.08095413 -0.52409434
-0.30716664 1.3484635 0.08212036
0.4317053 1.5459343 -0.6341039
0.6113628 1.052292 -0.4968794
0.9040184 -0.08888164 0.11828074
0.6768899 0.8636417 0.27081835
0.642398 0.54164267 0.15202355
-0.28517008 0.4375453 0.5952041
0.22711566 1.5404385 -0.49294454
-0.42768338 -0.40885484 0.89656436
0.1539242 1.3776481 0.31390113
-0.73831916 -0.2487418 0.9201075
0.39507025 0.74467826 -0.8998984
0.5940554 -0.24570279 -0.39779237
0.72815514 0.9834366 -0.33859754
0.5606917 1.4072222 -0.671456
0.37086415 1.4348614 0.02669717
-0.7998828 0.65927553 -0.27564186
-0.75990283 0.5085103 -0.14735663
0.39236104 -0.41286927 -0.7631099
-0.6147511 0.6152729 -0.24904792
0.7312163 1.4488932 0.21464288
0.7228093 -0.41783407 -0.18268612
0.7491741 1.5044417 0.013426362
0.7378929 -0.08544527 0.64892477
-0.61814594 -0.25647262 -0.61605835
0.042568047 0.94223547 -0.10369408
-0.2528172 -0.40279195 -0.26598033
-0.34534484 0.19592662 0.26721573
0.18425843 -0.029875798 -0.4956029
0.21973726 0.6105623 0.7458217
0.09151536 1.6662644 -0.62736505
0.4751792 0.93602574 -0.3729335
-0.6446835 -0.08303155 -0.74138916
0.17315091 1.6444049 0.17228484
-0.5293598 0.24420947 -0.08313726
0.30660698 -0.25015628 0.61966366
-0.0014727103 1.768119 -0.47351563
-0.2683171 0.71677554 0.37686056
-0.32164538 1.5707804 0.07366572
0.89911187 -0.40902647 0.33119053
0.24820971 1.1014063 0.14664668
0.016681742 -0.24572434 0.76791066
-0.7652228 1.172379 -0.43664473
-0.50097764 1.0091356 -0.24430546
-0.48413017 1.1815515 0.4215603
0.3150758 0.7140676 0.16252421
0.6748831 0.6601271 -0.4138279
0.56413674 -0.17761862 -0.046778888
-0.64878285 0.40240514 0.18096904
-0.57559174 0.7350791 -0.4410627
-0.27531517 0.7290989 -0.028258877
-0.2828874 1.6359956 -0.57278
-0.81811553 1.2247577 -0.26208407
0.20857462 0.8439798 -0.16443184
0.6863274 1.5311606 -0.38265353
-0.928295 -0.25357914 0.62538326
0.47178328 -0.41207987 0.905978
0.74150145 1.1347169 -0.18107289
0.18981403 1.4652791 0.108927384
-0.31501293 -0.044376254 -0.086112335
0.06358334 1.3612907 0.7186129
-0.7514778 1.4024363 -0.17614901
0.09826385 1.0658761 0.2859328
-0.17283915 0.74141717 -0.57719254
0.07315598 -0.06742321 0.24740472
0.1792323 0.51386267 0.45300978
-0.12666607 -0.41597426 -0.6102177
0.2870503 1.5121607 0.3170938
0.89903605 -0.4074391 -0.4882429
0.22732416 1.40991 0.47517484
-0.4225554 1.0243742 -0.07855469
0.41718507 1.3597019 0.38178563
-0.13459389 0.43170714 0.3864135
0.15572967 0.43358773 0.1314871
0.46690547 1.2839828 -0.30631548
0.7297523 -0.4206491 0.025064252
0.07430323 0.5838803 0.60335124
0.09243297 1.5582542 0.34082425
-0.2320989 1.3249605 0.26493296
-0.030286297 1.0702672 -0.9833604
-0.29347658 0.6200212 -0.8657939
0.15103136 1.6756313 0.45453903
0.6048837 0.2940148 -0.39636606
0.8960228 -0.40921777 -0.28600752
-0.5711283 -0.4134883 -0.31658012
0.025584366 0.32193452 0.3001706
0.029450826 -0.091066115 -0.91560984
0.60415035 1.0248361 -0.067770794
0.1099972 1.792166 0.26004922
-0.6993369 0.47963393 -0.3568151
-0.1903883 -0.4122916 0.6125536
0.58904696 1.3825159 0.07594851
0.26207912 1.2042027 0.3653136
-0.3682473 0.14959261 0.050443895
0.56990564 0.7192856 -0.5882249
0.058426943 0.96423364 0.1049138
0.75694215 -0.24249493 -0.7357873
-0.122371405 1.5170906 -0.1995497
-0.32149506 -0.4164003 0.7421974
-0.08845518 -0.415777 0.7551639
-0.6214547 -0.25143284 0.74240613
-0.12486955 0.7404405 -0.7728398
-0.25270227 -0.25758368 -0.92406464
0.72510636 -0.4135669 -0.5811458
-0.59453964 -0.25213432 -0.42375892
0.8285282 0.60717046 0.2152383
-0.13127726 -0.06923476 -0.59366333
0.0059943055 1.2570537 -0.72974944
0.7243589 0.48237967 -0.48827255
-0.33193037 1.1619422 -0.010524096
-0.13902187 0.7962291 -0.40465024
-0.5524475 -0.0921953 -0.9160324
0.30037934 1.0138233 0.3520774
-0.8153815 0.7445009 0.1389499
-0.26137096 -0.21176597 -0.37816477
0.5266838 -0.411205 -0.8993263
0.42588174 -0.23232481 -0.46546203
-0.7011932 -0.41857275 -0.800038
-0.32343882 -0.2540548 0.9209526
0.37335145 -0.41061735 0.21734445
0.0456772 0.72538924 -0.119766474
0.08654755 0.3773892 -0.528743
0.8262918 1.407094 -0.12786812
0.6952898 -0.41787052 0.8791928
0.5496318 0.20482123 -0.003372131
-0.55921733 -0.085062236 -0.34190518
0.68011296 0.6180831 -0.22011894
0.5405357 1.6676736 -0.35220245
-0.084622666 1.0851288 -0.79609466
0.7037449 0.44680142 0.29028714
0.07828235 1.4266803 -0.6449405
0.89534247 -0.40628043 -0.8819242
0.5965642 0.53343236 -0.66881275
-0.73065037 0.59984946 0.2583725
0.4765125 0.9609041 0.30564857
0.5450622 -0.25563657 -0.7753543
-0.3589908 -0.08933212 -0.9128468
-0.091786854 0.3711167 -0.7741828
0.022630367 0.4449532 0.47355705
-0.2315748 -0.21546072 0.181391
-0.23015547 1.2500424 -0.19100675
0.030283086 0.6324701 0.77544326
0.19917336 0.8909625 0.22237965
0.36868536 0.46154082 0.40645802
-0.92559063 -0.24516304 -6.334629E-05
0.0069738356 0.25776458 -0.4135679
0.13810721 1.5119374 0.621388
-0.8044951 1.2423068 -0.07170932
0.39219087 0.9337705 -0.7378185
-0.057080418 0.8086643 0.012176659
-0.608421 0.80534375 -0.25506347
0.6103604 1.497077 0.36068714
0.023452256 0.24373788 0.49064243
-0.523148 -0.41913044 0.7155297
0.753425 0.90490735 0.06222459
-0.2855733 1.5819359 -0.34231532
-0.59628224 0.5619812 -0.055767886
-0.14468281 1.2175312 -0.026598893
0.52202314 0.74969995 -0.34195638
0.90488064 -0.08936834 0.32977885
0.24713781 -0.23862025 0.4365108
0.28103307 0.8455502 -0.388211
-0.4850027 0.5571278 0.5476947
0.12561107 1.820473 -0.3160113
0.07407954 0.41273415 0.6636603
0.12103626 0.17902397 -0.5576104
0.5337054 1.2253587 -0.10151579
0.3866263 0.7809502 0.5521759
0.61156154 -0.2467685 -0.59949726
