0.5811869 1.1649318 0.60299695
0.48665863 0.3173325 0.07966131
0.434137 1.32743 0.36066902
0.7463792 -0.2503833 0.7565018
0.39661074 0.79577637 0.60164607
-0.5957649 0.7254872 0.45866245
0.04713986 0.03744644 -0.37642056
0.65488863 0.9875072 0.62351084
0.24189019 1.5806942 -0.48304373
0.7727616 -0.24826929 0.93311584
0.4665549 -0.08111304 -0.7265313
0.0044485144 -0.4149391 -0.47049934
0.008257017 1.2018929 0.12784073
-0.75247735 0.83106077 -0.08345138
0.27920207 1.1933175 0.33912665
0.100373834 -0.23805653 -0.5296606
0.33535564 0.25834718 0.23410076
-0.3341279 -0.06717293 -0.58268297
0.11930706 0.46743977 -0.36792818
-0.9059761 -0.09495685 0.7347529
0.43629795 1.5297508 0.4088446
-0.6298627 1.2557654 0.025119908
-0.46432313 -0.2520069 -0.9245713
0.4290439 -0.075495705 0.6464423
0.23549776 0.21651563 -0.62309754
0.8426732 1.1633973 -0.10305386
0.8649786 1.0080237 -0.20670313
-0.28950486 0.8274228 0.025771145
-0.24474287 1.4085958 -0.35542053
0.2300165 0.03036798 -0.22264849
-0.45516077 1.1121352 -0.14350203
-0.75804186 0.5746981 -0.4272673
-0.0017837539 -0.1118474 -0.123855576
-0.76657057 1.2909597 0.17147344
-0.72811496 -0.08019777 -0.42559528
0.30747676 0.93259156 -0.4604355
-0.59611166 -0.41188335 -0.10940468
-0.3698284 1.0950835 0.64483726
0.07629373 1.1956545 -0.4108255
-0.2911397 0.6090063 -0.21336462
-0.07566562 1.0580044 -0.48693532
-0.24941543 0.9438324 0.67255443
-0.7566018 -0.07441719 0.22520348
0.22484317 0.40067518 -0.7692319
-0.051929228 -0.08230035 -0.7645632
0.7590196 -0.24838951 -0.48668456
-0.5622926 0.9913963 0.71707314
0.5706119 1.1989117 -0.609657
-0.10382882 -0.23977593 -0.4622944
-0.17600492 0.89560616 -0.7376462
-0.11301959 -0.091289 0.18657476
-0.7954116 0.94396824 -0.43074405
0.380579 0.8135607 -0.015892673
0.11840986 1.1993833 -0.029702302
0.19424236 0.7647228 -0.5355953
0.9221767 -0.24614385 0.013809385
0.042925637 0.47322702 -0.83418345
0.8263172 0.6376426 -0.34577227
0.6672334 1.4707645 -0.039172933
-0.20809597 0.021188058 -0.09061446
-0.45190316 1.1971916 0.480918
-0.12951887 -0.24683169 -0.26720047
0.84988904 1.0304052 0.28329116
-0.7183698 -0.42030767 0.7727269
0.33796388 0.98322374 0.83929396
-0.4964985 -0.41740158 -0.7312405
-0.7508248 0.7661605 -0.49414235
0.16628043 0.16819127 0.1828998
0.30191016 0.6118924 0.830493
-0.56848997 -0.08035089 0.54725766
0.75308675 -0.085805945 -0.5849601
0.81657684 0.9839047 -0.3769806
-0.15382841 1.3607492 -0.5192786
0.32400396 0.047240205 -0.012576043
-0.021155318 -0.41301516 -0.7647257
0.72873795 -0.41750836 0.6481498
-0.1441027 0.5430341 -0.84198785
-0.49454498 0.5732539 -0.50380015
-0.004316451 0.7408608 0.43600425
0.5704943 -0.062030412 0.11587906
0.20501742 -0.41567895 0.29486394
-0.354363 -0.41357094 -0.59094334
-0.3806162 1.046545 0.8110948
0.08903268 1.2112885 -0.83393246
-0.89105546 -0.0985823 -0.9131392
-0.7765578 0.81467044 0.4646871
0.087280825 -0.4245029 -0.2527042
0.38692087 0.95172405 0.12864622
0.5099269 0.17776975 0.34923762
-0.06532487 -0.058018085 0.579784
0.07779634 1.5464499 -0.21489123
0.105305605 1.0051955 -0.10318752
-0.76592517 -0.23993434 0.3284523
-0.5369617 1.5461997 0.23904283
0.40614766 0.9925324 -0.08865439
-0.485653 0.24246028 0.48131323
-0.8710606 -0.080171615 0.023125753
-0.5229486 0.5956845 -0.029671099
0.72885644 0.9472617 -0.5270927
-0.23030643 1.2030185 -0.60071576
-0.23254177 1.4110556 0.6656815
-0.38400304 1.6567378 0.14541322
0.54369974 0.6704668 -0.7149025
0.3049125 1.4457009 0.31401765
0.6717182 0.7971932 -0.61808276
-0.4105789 -0.06702355 0.44284928
-0.61881644 -0.0907362 0.91656506
0.4167573 -0.059227984 0.43647406
0.59569955 -0.26443815 0.9001503
0.9222558 -0.2461431 -0.38632524
-0.89854056 -0.40590936 0.10770763
0.7440746 0.85408396 -0.052066624
0.91800094 -0.2459096 -0.1867042
0.52772033 0.34228832 -0.5283313
-0.5352062 -0.41817403 0.47471514
-0.13113885 0.055651337 -0.2882988
-0.70677173 -0.4134233 0.3983085
-0.10547514 0.3428529 0.15775833
-0.35272855 0.87958705 -0.442163
-0.90821075 0.9559508 -0.034129426
0.0036853645 -0.41220403 0.5807594
0.1501367 0.16695333 -0.026068036
-0.6941337 -0.062199246 -0.018887896
-0.71492183 -0.4167452 -0.62589854
0.029055951 0.6577451 -0.6937182
-0.89640105 -0.40739244 0.7196219
-0.90456617 -0.09125199 -0.53098565
-0.61384046 -0.2421626 -0.2136538
-0.36337787 0.8148838 -0.8397745
0.43127662 -0.2535007 -0.9237843
-0.5984801 1.3175972 0.499332
-0.004658808 -0.41569012 0.3771297
-0.22535677 0.50726193 0.81588686
0.32178357 0.9316069 -0.84217083
0.3792751 1.2677207 -0.51430666
-0.5393927 1.2907091 -0.16892529
-0.5243347 -0.2441229 0.91215444
-0.4882484 -0.24599853 0.11258076
0.61569154 0.80323243 -0.38749087
-0.014574459 1.3191323 0.31367165
-0.020256158 0.16995698 0.111908756
0.12959132 0.054628436 0.34907547
-0.25767303 -0.41796157 -0.7503989
0.3985163 -0.267882 0.9221149
-0.25922602 1.2507071 0.5643982
0.39471018 -0.06116163 -0.5336814
-0.1824301 0.90109545 -0.53431916
0.85105395 0.53680575 0.058268085
-0.49585742 1.2914441 0.32446325
0.37785298 -0.074197456 0.8773609
-0.06627239 0.6204287 0.8767024
0.24790427 1.2404048 -0.29838687
0.27986714 1.645831 0.3277254
-0.35294285 -0.25351942 -0.7705805
0.7370831 -0.07371702 0.22082007
0.26903272 0.9034748 -0.15347552
0.40840998 0.7847245 0.8158107
-0.49613178 1.4696624 0.4295022
0.5544406 -0.41971058 0.13205636
-0.71123207 0.9780908 0.53876173
-0.1405186 1.0093589 0.4546095
-0.033123426 -0.24293652 -0.6351985
-0.549404 -0.082013965 0.74457204
0.75942385 1.3238564 -0.18779907
0.18470246 0.5404919 -0.024868563
0.9059589 0.95063055 -0.03920486
0.55318147 0.38383496 -0.11096585
0.56288826 1.3118682 -0.26772457
-0.12223275 1.533428 -0.21837854
0.39270934 0.2046039 -0.5112269
-0.097668536 -0.42118695 -0.14131907
-0.74663067 -0.41368297 -0.21731883
-0.27923205 -0.41723496 -0.06420703
-0.26077354 0.4104629 0.26719248
0.9036664 -0.0887579 -0.8957479
-0.36851084 -0.4106967 -0.9016236
0.11930071 -0.25151116 0.3230784
-0.8971069 -0.09022975 -0.33399436
-0.022243693 0.74120367 -0.19311795
-0.16026625 0.32791507 0.72867346
-0.6612494 0.60508806 0.13622996
-0.01004478 1.754173 0.06245727
-0.11986548 1.2306125 -0.38911748
0.9251733 -0.24545829 0.22813746
0.1572145 -0.41125345 0.4653972
-0.030218732 -0.25603148 -0.91544414
-0.91560954 -0.25988603 -0.8734786
-0.17229697 -0.4143069 0.26017928
-0.67970747 0.48786202 0.4895385
0.017392382 0.86341035 -0.7645763
-0.2730822 1.1779788 -0.80066824
0.7047055 0.7249696 -0.21139704
-0.31320983 0.08295203 -0.33659482
0.61867464 1.2402997 -0.09427377
0.44410655 -0.23672518 0.7575748
-0.021335967 1.2458137 0.61805516
-0.4412157 1.4476702 -0.50270927
-0.1240069 -0.2600855 -0.06676246
0.7567365 0.7983357 0.5202199
-0.21014129 0.02843378 0.14386413
-0.18370815 -0.41764787 0.44606215
0.25928319 -0.059732668 0.5438472
-0.29671976 0.9889375 -0.099326864
-0.3230319 1.2054434 -0.2848102
-0.5214218 1.2157817 -0.34292808
-0.39715183 0.8461132 0.81375766
0.36738527 0.45705044 0.7373828
-0.55229884 -0.0779959 -0.5522382
0.09393919 -0.06864028 -0.6684358
0.20217428 0.85085094 0.08526754
-0.8171755 1.0202863 0.38825348
0.3695378 0.7308738 -0.6348516
-0.68219125 0.65531904 0.58707654
-0.46698835 0.9578424 -0.58730006
-0.11661753 0.85474324 0.54916394
0.0396851 -0.26924706 -0.18616125
-0.771084 -0.23845138 -0.104809254
-0.05021353 1.4677789 -0.3734138
-0.3257786 0.8352996 -0.2212675
0.2669233 0.9216511 0.6695817
-0.26624456 -0.24199891 0.38212082
-0.4801884 0.32233018 0.20787838
-0.5405556 0.92981696 0.18960087
0.27819073 0.037533097 0.17363007
-0.14188728 1.1986839 0.23100972
-0.90331 -0.40321454 -0.10953454
-0.5781299 -0.40514103 -0.91638273
0.55516136 0.4755093 0.6129422
0.06867279 1.0776336 -0.7047084
0.22024098 1.3249645 -0.7488173
0.40435758 1.2537518 -0.6992552
0.044132896 1.1873655 -0.20270793
0.36020613 -0.07581543 -0.1833525
-0.5228285 -0.41716367 0.26659822
0.09815614 -0.06923531 0.4604739
0.092669845 0.019276135 0.14973679
0.8847194 0.8088928 -0.22108838
0.70353496 0.30384094 -0.23973441
0.7384336 -0.08594304 -0.9042008
-0.42900604 -0.2475341 -0.48020855
0.17122376 1.7275424 0.033565912
0.09430568 -0.25303304 -0.03024472
-0.21813323 -0.41117454 -0.45652843
0.42740935 0.5065963 -0.23395923
0.38233703 1.0077856 0.34432387
0.33906263 -0.41801944 -0.5847584
-0.28184798 0.24712822 -0.6251651
-0.53417444 1.5795627 0.042354606
0.42450804 -0.41017485 0.6179324
0.4884376 1.6056626 8.643782E-05
-0.08325397 -0.0750972 0.3877624
0.38041723 0.7401274 -0.43617678
-0.34761542 1.6882942 -0.053667597
0.23482433 -0.3999076 0.9117861
-0.20524484 -0.06880535 -0.41161376
-0.051555835 0.03483064 0.26673615
0.15040934 0.58807147 -0.51285124
0.38296226 1.0480059 -0.30480123
-0.66161025 1.1679045 -0.14703645
-0.28862333 -0.24747264 -0.17185389
0.8081672 1.175458 -0.3149976
0.5462986 -0.41029078 -0.49704206
-0.43465203 0.7118776 0.33756745
0.110208295 0.89331776 -0.42999035
-0.38351193 -0.24831718 0.24201617
-0.45271903 -0.07027317 0.24351946
-0.21151611 0.95835847 -0.32067528
0.8930552 -0.09411596 0.9080129
-0.07362604 0.3983402 -0.3579132
0.92744094 -0.24929315 0.85770416
0.06139279 1.3483465 -0.2888201
0.21184205 -0.41773844 0.102228716
-0.108223125 0.8024417 0.7500397
0.33295298 1.683439 0.09526174
0.23106144 0.0920685 -0.4309243
0.66066337 1.1319411 -0.26356
-0.48351276 0.607077 -0.23081666
0.41892987 1.2759713 0.68143123
0.730492 -0.41472214 0.43070662
-0.5850229 1.0733931 -0.6753988
0.53100705 -0.062122762 -0.32941094
-0.54718107 0.86062855 -0.7347827
0.7229508 -0.41524327 -0.3880762
-0.89928174 -0.09164877 -0.14436767
0.79617953 0.40881228 -0.088869445
-0.8680402 -0.09425053 0.91295856
-0.8870356 0.9591776 0.17096353
-0.19598214 0.72598207 -0.11639076
0.2999041 0.4326821 0.1250234
-0.2004371 0.1764371 0.021816894
0.3009149 1.5189946 -0.18779585
0.2887379 -0.24580848 0.21832255
0.092290364 0.68265605 0.103001036
-0.16463827 0.65975785 0.5378554
-0.111315735 -0.2582448 0.9167635
0.5120971 0.861488 -0.7512544
0.6995889 1.1416956 -0.48689023
-0.13708302 1.3733816 0.47972327
0.19813934 1.1701906 0.15196487
-0.189531 1.1095202 0.8467616
0.25906983 1.0400157 0.029318355
-0.16263644 0.5488337 -0.64406574
-0.5147017 0.14372903 -0.28052974
-0.75298023 -0.41161364 -0.0037783734
0.11750392 1.0769324 0.69480217
0.7172313 -0.07616331 -0.19464123
0.7228502 -0.06841688 0.009067602
0.4629654 1.4014912 -0.12974252
0.70562583 -0.41501272 -0.7610541
0.32063946 0.6539064 0.05557859
0.22911943 1.3500335 -0.14566252
0.57116723 0.17166282 -0.19857146
-0.45778176 -0.07994278 -0.74092865
0.62279 0.20040444 0.16926861
0.28532118 0.5957289 -0.36188796
0.68671805 1.327168 -0.40152016
-0.49994493 1.3717545 0.13350469
-0.7637545 -0.2450284 -0.3211382
-0.4304616 -0.41341197 -0.1919218
0.79393494 0.6403668 0.38710272
0.33549595 1.2483203 -0.007398889
0.16305223 0.8084574 -0.9006215
-0.7726848 -0.25170106 -0.5281563
-0.35656363 1.2774737 -0.47272635
0.2616396 -0.40979183 -0.2802074
-0.6239116 0.4271055 0.1650442
-0.691593 0.87389946 -0.2854619
0.4314208 0.99779207 0.55113006
0.10489613 -0.23738337 -0.76295555
0.24700488 -0.07647276 0.33002937
-0.13535026 0.8635344 0.32198167
-0.5933411 0.78872895 0.018424612
-0.8918723 -0.4110834 0.32460415
-0.85774195 -0.40521863 0.90504944
-0.7392957 1.2296958 0.37294066
0.3447712 -0.41601384 0.77700174
0.6802319 0.62816346 0.5684179
-0.5740746 -0.2489998 -0.79057944
0.23042841 -0.24149927 -0.1927832
-0.8942474 -0.40476134 -0.7350561
-0.44057795 1.1859896 -0.70104605
-0.22375268 0.716573 0.3770852
0.60349375 1.5296636 0.1294216
0.54301333 1.0291526 -0.17926875
-0.61435467 -0.23556954 -0.0131363645
0.7244178 0.97963667 0.12752503
-0.8978077 -0.40691382 -0.32800317
0.802695 0.79535514 -0.4313144
0.31915292 0.09809688 0.35903853
-0.6755322 1.448678 0.108569026
-0.7355053 -0.41288573 0.21289048
-0.39154452 0.62718105 0.7916773
-0.74459136 -0.083403915 -0.608307
-0.21505222 -0.41076785 0.8996663
-0.6741633 1.148993 0.55223024
0.86930406 1.1026103 0.08267288
-0.7495424 -0.23695804 0.11394906
0.0021219533 0.4130298 0.32469714
-0.48468846 1.4169939 -0.06298682
-0.52405345 0.3673327 -0.19495296
0.21320593 0.57948136 -0.6832609
0.19153303 0.76707083 -0.7268147
0.2693988 1.1299808 -0.81811196
-0.5468148 -0.41448665 -0.5290704
-0.4316637 0.88471425 0.6132498
-0.26284602 -0.06876336 0.31042022
-0.904973 -0.094781235 0.35163802
0.096230745 -0.06504995 0.67201596
-0.45330924 -0.24154165 -0.09268728
-0.69846034 1.2408787 -0.4182293
0.47462523 0.52428913 0.10696921
0.39783072 -0.072722614 0.015675489
0.17371069 0.14355183 0.53810394
0.78302693 -0.23845182 0.12186451
0.5046772 0.6241549 -0.06778267
0.19078885 -0.076913014 -0.87959146
-0.42829502 1.2284949 0.01769847
0.60073894 -0.23996118 0.42747456
0.316887 0.66181684 0.41423804
0.45386404 1.4402928 0.18015546
0.11767836 -0.2575444 0.14962912
0.6703799 1.1720219 0.08712487
0.5445782 1.0462396 0.20145202
0.004461537 0.8901529 -0.59554094
-0.020922288 0.6521828 0.27135134
-0.40210992 -0.4149192 -0.39361146
-0.728425 -0.0869133 0.62785494
0.54772484 -0.41226065 0.33451778
-0.90166146 -0.09239963 0.5435997
-0.6514665 1.39307 0.30341354
0.023404814 -0.41950926 0.1885078
-0.6786419 0.89363503 -0.6068115
0.7517491 -0.24826434 -0.2923401
0.4082513 0.48651925 0.46038663
-0.0044372203 0.7984263 0.92381567
-0.92025095 -0.2669295 0.22199288
-0.2208193 -0.090187505 0.9019307
0.1207111 1.0506961 -0.5191053
-0.8492749 -0.40609014 -0.9149117
0.3336727 0.6772837 -0.16372535
0.25514758 0.44396105 0.314425
-0.6000556 -0.4080373 0.09845121
0.48573074 0.5289488 -0.42988074
0.17706323 1.5506897 -0.040850148
-0.40912688 1.0151935 -0.3016191
-0.92619646 -0.24565823 -0.6483439
0.89576507 -0.0855338 -0.28853387
0.648763 0.48263967 0.018989712
-0.71900535 1.0091469 -0.12427744
-0.31278163 0.8625945 0.44979444
0.23952648 0.47837895 0.56389344
-0.51921356 1.1949074 0.67825764
-0.041149467 -0.09163648 -0.31512266
0.51920307 0.72563577 0.10759686
-0.5490943 1.1809157 0.19295049
0.13798815 0.56997806 0.3846496
-0.72946143 -0.41546708 -0.42821014
0.3970469 -0.41530907 -0.39416426
-0.07615681 -0.07576695 0.7594766
0.15754932 1.0184922 0.88456964
-0.48917186 -0.06617768 0.030755453
0.54456854 -0.41996065 -0.67612505
-0.40312564 -0.07460223 0.6409571
-0.039771333 1.3858664 0.11579501
-0.6993613 0.25788632 0.005492514
-0.4488825 -0.41403362 0.011484234
0.20993052 0.4055648 -0.5664011
-0.67054737 0.26064128 -0.20261934
-0.14407502 1.6168795 -0.43120575
0.45952448 0.38389155 0.28629616
0.54564714 0.8113631 -0.12681028
-0.05524624 -0.25928313 0.10173918
0.5841107 -0.07739262 0.5357761
0.11364697 0.62911344 0.87684476
-0.6921238 -0.41166726 0.5964551
-0.22985393 0.71680796 0.87017524
0.49947762 1.195596 -0.3882749
-0.8890103 -0.086992085 -0.7374243
0.8969152 0.88356817 0.14373025
-0.61195564 1.0903212 0.3649624
0.16227934 1.2438493 -0.60594296
-0.0843899 -0.4138094 -0.32553196
-0.30427456 1.0337055 -0.63416624
-0.25983477 1.4963953 -0.5664785
0.57796705 0.84130794 0.5130687
-0.40702355 -0.06173371 -0.4277556
0.2572356 -0.17888483 0.92732286
-0.767841 -0.24092183 -0.7450366
0.681517 1.106734 0.29176182
-0.46741357 1.107645 -0.48877305
-0.3487815 0.8658774 0.23258138
-0.33932394 1.3653531 0.41564363
-0.31320947 0.4163597 -0.7418791
0.070770614 0.6936125 -0.36328897
0.08440478 0.8745237 0.7678477
-0.6121137 1.0580039 -0.3072804
-0.045519553 1.4252481 0.6874328
-0.21936043 1.5071623 0.34982628
0.013997784 0.2910555 -0.034443192
-0.11766004 1.7390538 -0.116964065
-0.08859737 1.2451904 -0.038677923
0.014195541 0.44961286 -0.16074601
0.03816671 -0.10724622 0.058428884
-0.53699577 0.7465074 0.727422
0.21976861 0.7456844 0.7125623
0.72938526 -0.4152222 0.2297509
0.43374538 -0.24823256 0.08218895
-0.8854637 0.58083725 -0.012508044
-0.50398445 0.32977933 0.01862241
0.19727823 0.35353848 -0.044328675
0.06326692 1.015677 0.101110026
-0.41104078 -0.08206963 0.88591397
0.25705767 1.1246955 -0.14905359
-0.37534156 1.5996946 0.35098416
-0.49971333 0.68794703 -0.74658793
-0.2259885 0.4081295 -0.23043309
-0.924142 -0.2555216 0.8708906
-0.31145084 0.5491595 0.62242556
0.36506784 -0.41531157 0.43450463
-0.2491912 1.0230327 0.2736557
0.041739848 -0.42107952 -0.017133903
0.37602094 0.17663205 0.5210054
-0.45958126 0.72277087 0.13966566
0.19598573 -0.4120804 -0.4520524
-0.45923176 0.43779677 0.345039
0.15913522 1.371783 0.05729256
0.007455742 0.54567003 0.508965
0.86501837 0.60311073 -0.14206794
0.20027423 -0.0962396 -0.085187525
0.6805883 0.24361628 -0.031548943
0.1872482 0.93877584 -0.6728165
0.38838202 0.35948515 -0.65997255
0.09081723 0.88694215 0.5727912
-0.14704517 -0.4181824 0.0674804
-0.18668257 -0.0858859 -0.19927391
-0.533924 0.55128723 0.67858166
-0.5601876 1.2718756 -0.5714755
0.8991288 -0.40654567 0.12613657
0.802014 1.2215495 0.22856048
0.5649116 -0.41150942 0.74125606
0.02159788 1.3803251 -0.72753406
-0.24763052 -0.24311683 -0.5889619
0.5115099 1.1652079 0.38857862
0.8956302 -0.40766746 0.53515494
0.24476834 1.5287106 0.15567338
0.3599972 -0.08595434 -0.9075481
-0.09788102 1.2409598 -0.80949956
0.14279854 -0.07396461 0.87710214
-0.018842442 1.5775003 -0.031819128
-0.2320844 1.6859653 0.25502262
0.25411892 1.5536436 0.50469726
0.5864962 1.4591951 0.32353872
-0.57850325 0.92519045 -0.43682513
-0.25259417 -0.081877545 -0.7507448
0.71905553 -0.08265877 0.8778651
-0.72450316 -0.07340765 -0.2190018
-0.4473316 -0.23993567 -0.6392101
-0.48731565 1.5967261 -0.14357649
0.61019135 1.007032 -0.64850515
-0.6331823 0.7500103 0.2704975
-0.34146184 0.82886136 -0.6526203
0.36017668 0.55387145 -0.5633061
-0.108298734 0.5705472 0.6933513
-0.3336516 0.48345 -0.5549573
0.41303122 0.0834959 -0.16075198
0.8723495 0.67441356 0.19427069
-0.35559678 -0.4164474 0.35397834
-0.36546883 1.3469539 -0.6616967
0.21480176 0.8155905 0.8972021
0.7398758 -0.07939699 0.4318291
0.35228127 1.4705262 0.0063177478
-0.9254409 -0.25189814 -0.42998958
0.40980387 1.4255612 0.55822086
-0.15526345 0.17068349 0.58951
-0.8819026 -0.41350383 0.52428854
0.50232685 0.8751596 -0.5269611
0.5043212 0.65286714 0.50539947
-0.3323048 0.1315927 0.46572816
0.5016718 0.6249275 0.72938275
-0.15053982 -0.2522841 -0.76390994
-0.7097609 -0.2614019 -0.9278351
0.38583487 1.1428576 0.18561307
-0.08756462 -0.23346733 0.64058924
-0.15914676 -0.090093434 -0.917719
-0.86602694 0.79969513 0.2892876
0.10519045 0.32016465 -0.24332102
0.57779914 -0.084705584 0.7492249
-0.03339649 0.72477686 -0.5234358
0.1426652 1.7089834 0.226607
0.23752113 -0.4152848 0.6119189
-0.47073364 0.33563018 -0.58635736
-0.29638627 0.42255712 0.077832446
-0.61062944 1.4710228 -0.24027523
0.033660628 -0.23726615 0.47402632
-0.6477426 0.84215784 0.6228705
-0.78735065 0.63155425 0.38778013
0.75085735 -0.24791455 -0.086055055
-0.27037966 1.0885326 -0.4423824
-0.060090035 1.0300212 0.25078106
0.71955794 -0.08059938 -0.38956004
-0.6904517 1.0909362 -0.51980996
-0.80762386 0.4249019 0.09193201
0.569203 -0.060694303 0.32439
0.22662166 1.3565348 -0.46321413
-0.13467535 1.3222985 -0.2178734
-0.29621083 1.5221784 0.52334523
0.3830551 1.3773355 -0.32122463
-0.5241 0.8871157 0.4044962
0.31652424 0.22018231 0.05007846
-0.19191071 0.1917012 0.22955415
-0.41725096 0.71097374 0.5497676
-0.07827372 0.57631767 -0.26598677
0.32084346 -0.23387665 -0.7780845
-0.13970989 0.527269 0.36676472
0.62723297 -0.2665022 0.07998501
0.6500032 -0.24190335 0.2528384
-0.4256754 1.3820097 -0.2968223
-0.178583 1.3760152 -0.7127912
0.104975566 -0.41217294 -0.6212923
-0.1888507 0.74956584 -0.8884481
0.64736056 -0.24427721 -0.917845
-0.63496244 0.33088672 0.38734287
-0.60103583 -0.2525052 0.26500928
0.57150483 -0.4124239 0.52541476
-0.15586111 0.9278433 0.09371281
0.28628373 1.1023967 -0.6350895
0.016042106 0.7141154 0.6613215
-0.7026144 0.9216665 0.29537117
-0.15840301 0.4240026 0.55408263
0.89666486 -0.0889042 0.73442835
-0.5950801 1.3932312 -0.4045995
-0.58958316 -0.07437404 0.3514416
0.40951258 0.110091776 -0.34513843
0.30605197 1.0983162 0.659603
0.25414205 1.195559 0.8077758
0.6871389 0.8953739 0.31877622
-0.16774088 0.5288298 -0.0677325
-0.12725064 0.54256684 0.1469521
-0.6262658 -0.24413079 0.4770116
0.14620858 0.60260546 -0.21364498
0.91901135 -0.24858728 0.6470303
0.13065529 1.003137 -0.8872994
0.41436273 -0.24267727 -0.28783083
-0.54847884 0.1334987 0.1158679
-0.48688966 -0.2566601 0.5921868
-0.3344465 0.38696563 0.48680162
0.9243338 -0.24675976 0.44145823
0.59540576 -0.24803922 0.64910424
-0.5692198 1.0674385 0.0139520345
0.52903426 0.86448956 0.23402426
0.8523153 0.82009053 0.33266062
0.1634785 0.2521796 0.35338318
-0.3889305 0.47598058 -0.32721335
-0.7765819 -0.2535666 0.5396904
0.1888249 1.6951226 -0.30398905
-0.044702798 1.509383 0.3130234
0.54684985 -0.08608605 -0.9091482
0.23584071 0.27932292 0.66671145
0.09526504 -0.25652042 0.9250978
0.6587045 -0.08065569 -0.7380403
-0.013123354 1.0341754 -0.29814655
-0.05468827 0.0109557975 0.031038033
0.45429808 1.0656767 -0.7514989
0.14656594 -0.08499042 -0.29177976
-0.7882284 -0.2529093 0.7319443
-0.745147 -0.07950761 0.4376582
0.5082773 0.9268758 0.74332684
0.18449715 1.0293348 -0.3061495
0.08249846 1.1215521 0.3097607
-0.37184927 0.41492337 0.718379
0.5867461 -0.23693101 -0.21597579
-0.21359205 0.9132948 0.8771341
0.77644724 0.9785242 0.46172452
-0.58763325 0.5667416 0.31172985
-0.20513855 1.5967317 -0.04531338
-0.62005305 -0.40371597 0.9032494
0.23123744 -0.23850589 -0.38096595
-0.57495785 0.27750665 -0.41278517
-0.46201766 1.5610713 -0.32381254
0.7813325 -0.24557072 0.34385383
0.91581166 -0.24192446 -0.5914178
-0.16369876 -0.10632631 0.0030136716
0.023303514 1.0673604 0.527622
0.33500612 -0.07088566 -0.35900837
0.6085344 0.7799117 0.6858221
0.5259065 1.3365616 0.04048904
-0.7133539 0.9523721 0.06159497
-0.4185573 1.0078073 -0.7912845
0.8972645 -0.4069114 -0.08097561
0.70609844 0.4629651 0.46040875
-0.15059054 0.37856752 -0.54863465
-0.3499654 0.25844717 0.32726026
-0.3332082 0.35504812 -0.44147226
0.05700775 -0.25577784 -0.35768253
0.7161015 0.6221569 -0.53612816
-0.5072707 0.76827466 -0.5365747
-0.058197305 0.9967364 0.70563346
-0.6922622 1.0911605 0.17619956
0.27655506 -0.071299076 -0.69553566
-0.8952065 -0.4061334 -0.5369666
0.026324585 0.46746367 -0.6473882
-0.27441162 0.7461828 0.6709964
-0.039679416 0.54914176 -0.47486264
0.8908361 -0.40789264 0.7341322
0.22512275 -0.09341413 0.11842583
-0.21889478 0.5400782 -0.4088872
0.033602186 1.3909315 -0.095300734
-0.45000374 -0.24000728 -0.29002386
0.900596 -0.08708029 0.53508544
0.88592136 -0.4010505 0.90658414
-0.06923732 1.0577404 -0.054012023
-0.49583375 0.55041945 0.4922257
0.54785705 1.4925281 -0.36467165
0.30670995 -0.40284464 -0.91585034
-0.3226964 1.3280933 -0.1286954
-0.52599347 0.16196516 0.31187496
-0.3765005 0.67970985 -0.39220935
-0.14367609 -0.40907073 -0.9088764
-0.19405103 1.3588066 0.26637432
0.4386937 0.6089288 0.27172267
0.2612428 1.3916037 0.6765381
-0.36853012 -0.4118985 0.54724294
0.5671927 0.4110982 -0.30989355
0.20720407 -0.4115737 -0.7581067
-0.16664404 1.5395017 0.14145583
-0.5390846 -0.06415366 -0.15039022
0.53984463 -0.100848146 0.9165197
0.7667165 0.3486519 0.11515348
0.54562575 -0.049176812 -0.12416305
-0.21328339 -0.2524842 0.76442504
-0.046253502 0.8808367 -0.918417
0.117494315 -0.4168205 0.74990004
0.26849258 -0.24721104 0.013378708
-0.33899343 -0.41689602 0.15313855
0.26341695 0.2092347 -0.19571663
0.004705458 0.67605585 -0.8879703
0.24795839 -0.24896958 -0.6101271
-0.12884164 1.2823818 0.7868502
-0.0830255 1.5485482 0.55300903
-0.23685983 0.98200655 -0.87137175
-0.4562117 -0.24829951 0.40673745
-0.19420677 1.7382677 0.081428766
-0.13171981 -0.2477867 0.47989237
-0.35172626 0.6466776 -0.6275526
0.09587048 0.5083678 0.18237653
0.22691852 -0.2576684 0.7749927
0.9339869 -0.24730861 -0.779642
0.44659215 -0.24725369 -0.6212874
-0.30574036 -0.251977 0.028586926
0.27892834 1.1379421 -0.44464642
0.72355336 -0.3998595 -0.9183113
-0.7425473 1.314821 -0.24365631
0.052147105 1.5535631 0.13967887
-0.34289813 0.2403878 0.119639054
0.14391701 1.4870025 -0.62111163
-0.92617744 -0.25975052 0.43072182
0.45342734 -0.23952192 0.52920794
0.40647405 -0.24335825 0.3594523
-0.9143611 -0.10430891 0.17184138
-0.4948038 0.50536263 -0.6926178
0.45436522 0.10019918 0.17703748
0.41022107 0.2996434 -0.29277143
-0.31895941 -0.08219159 0.11966039
0.012673339 -0.07147549 -0.4849678
0.6980537 0.6736404 -0.009418126
-0.4097747 -0.2376444 0.7570983
-0.22981665 0.18983439 -0.18638955
-0.06864733 -0.24833119 0.29536724
-0.24971706 1.3208127 0.079705
-0.42807794 0.7415668 -0.099281974
0.78206015 0.47021055 -0.2860434
0.90429866 -0.085844725 -0.4879037
-0.31704584 1.0397499 0.485855
0.12685728 0.5704838 0.69195366
-0.3271414 1.2449712 0.75699145
0.5545721 0.31615955 0.48222858
0.25613996 0.43076783 -0.21953845
-0.6493336 0.65632623 -0.6174495
-0.16526738 0.09500183 -0.49528432
0.388987 -0.41818732 0.017699283
0.08776092 -0.40441012 -0.9108881
-0.1660007 1.1158782 -0.22496128
-0.7305276 0.63084865 -0.038005337
0.419455 0.33456776 0.6207313
0.010560034 -0.41002804 0.90607524
-0.032602374 0.9874944 0.90137255
0.4452567 1.6084825 0.22076719
0.40210944 -0.071106955 0.22074705
-0.43175185 1.051639 0.31589735
0.06817936 0.2817173 -0.7221564
-0.4594274 0.51445794 0.13740824
-0.20299388 0.7358158 0.19164416
-0.052313693 0.1378597 -0.094667904
0.26992673 -0.08131039 0.7340125
-0.9120423 0.7759261 0.06802476
0.4682867 1.1038078 0.7436099
-0.74670833 0.78230435 0.13101397
-0.043785512 1.7121358 0.2557646
-0.7313776 -0.08506568 -0.9019469
0.4100203 -0.41675878 -0.17947878
-0.0785293 0.27169073 -0.21812487
0.1280531 -0.24396539 0.6110445
0.89600044 -0.08521788 -0.0890397
0.88961375 -0.08120683 -0.7058952
0.5623982 -0.4118569 -0.29030633
-0.16452311 1.1222494 0.63942075
-0.4934142 0.81285334 -0.30288234
0.3409782 0.79294324 0.2272906
-0.29896683 -0.23749062 0.5798181
-0.37878773 0.27824605 -0.2794057
-0.39502898 0.17355776 -0.47455886
0.39103103 0.5380484 -0.76495373
-0.63881314 0.45094997 -0.53405255
0.5856269 0.5219799 0.3664249
-0.66954243 1.4577451 -0.07828058
-0.09566149 1.1860703 0.4286839
-0.612347 -0.07495141 0.1513626
-0.7337664 -0.08195321 0.8017855
0.4978093 -0.2383617 0.23011276
0.015624141 0.0030293483 -0.17533553
0.21164152 0.2675385 -0.3989872
0.19958444 0.60217273 -0.86029136
-0.059890382 1.5209422 -0.59901714
0.72188437 1.1586366 0.465473
0.34171677 0.40607145 -0.42926747
-0.36380512 -0.06988557 -0.25596943
-0.8471015 1.1366509 0.24199785
0.17349201 0.70303094 0.5287394
-0.091702506 0.20223701 -0.6307558
-0.38354334 0.07398078 -0.15438241
-0.8386893 0.7489979 -0.3257479
-0.5565477 0.4666155 -0.372304
-0.42650425 1.3675156 0.6068217
-0.17480963 0.34489247 -0.04679578
-0.14366248 1.6463118 0.41659266
-0.9241407 -0.25371242 -0.21944258
0.5666351 -0.40358788 -0.073658004
-0.87481976 0.93680644 -0.23599729
0.8585062 -0.25060907 -0.9283157
0.45335987 1.0671949 -0.53107524
-0.19738242 0.2454472 -0.39384052
-0.38239074 0.4669185 -0.09744619
-0.31893635 0.5916843 0.23406887
-0.124422446 0.9029977 -0.14904785
0.0882828 0.15147722 -0.23046306
0.5732243 1.0026302 0.42400533
0.7539048 -0.24821705 0.54528815
0.8940767 -0.4074859 -0.68260336
-0.06040941 0.86227834 -0.3780271
-0.3704309 0.2590798 -0.08175394
0.331614 1.417901 -0.6222594
0.4093234 -0.24722168 -0.10584577
0.37326267 1.6198618 -0.3288644
-0.1816926 0.07941224 0.38720864
-0.23743246 -0.061270326 0.52090436
0.2205953 -0.41386294 -0.0951622
0.13767523 0.012113618 -0.030684102
0.6667471 0.605774 0.1872371
0.3154329 1.6929498 -0.12056744
-0.89936805 0.7516198 -0.13691787
-0.026762268 -0.09498218 0.9148337
0.9045228 0.73987067 -0.008025827
0.0032260092 0.4556203 0.034791894
-0.25206178 -0.076750636 0.71590006
0.4054783 0.28045171 -0.10029663
-0.34608418 1.4896781 0.032317266
0.37106824 0.4732505 -0.054651212
0.1990543 -0.24457932 -0.92619026
0.08255747 0.8701847 -0.22890829
-0.26533633 1.6771498 -0.2470842
0.5726798 -0.07912573 -0.53582335
-0.35129446 1.2214109 0.20636061
0.40489122 1.4971528 -0.47818732
0.5765939 1.0014186 -0.39165968
0.9013726 -0.08421861 0.11525182
0.61602354 0.7168634 0.34349912
0.6113434 0.4193587 0.19072264
-0.3271566 0.25785422 0.6216908
0.19159871 1.4777867 -0.34085655
-0.4261657 -0.4074471 0.8946083
0.10585214 1.2324698 0.44516128
-0.7326586 -0.24998063 0.91817725
0.36229277 0.7328145 -0.8284122
0.57401514 -0.24004278 -0.4158371
0.689335 0.9151285 -0.24278937
0.5402384 1.3681399 -0.5292009
0.32965207 1.3202287 0.1664055
-0.8375666 0.57701814 -0.23194265
-0.7997733 0.4127779 -0.11942668
0.39603168 -0.40960166 -0.7621023
-0.65520346 0.530663 -0.21380198
0.6888678 1.3090117 0.35810232
0.72658336 -0.4152498 -0.18298608
0.7077323 1.3886545 0.16611084
0.7383215 -0.08122942 0.6510632
-0.6185188 -0.2521557 -0.6178011
0.017066319 0.8551166 -0.016021807
-0.25915253 -0.4135749 -0.2634768
-0.36602077 0.078788206 0.25214005
0.20341088 -0.07025653 -0.5025016
0.17839895 0.41911423 0.7946918
0.060313437 1.6143684 -0.45682448
0.43800145 0.8690804 -0.28393283
-0.6482006 -0.07979323 -0.74304944
0.13368297 1.5101321 0.32627767
-0.556038 0.13963008 -0.08097541
0.31415218 -0.24245346 0.6202065
-0.03305682 1.6982913 -0.2941776
-0.31710753 0.56383526 0.42800045
-0.35905206 1.4491287 0.22464538
0.8989684 -0.40717363 0.33089697
0.21129404 0.97687554 0.25258172
0.026303828 -0.23848528 0.7704005
-0.7980459 1.1120846 -0.3240446
-0.53911495 0.92347383 -0.14967778
-0.51949394 1.0245103 0.5269717
0.24452445 0.6189427 0.21695025
0.64513874 0.60397214 -0.36187756
0.57179654 -0.19322382 -0.044227313
-0.6888964 0.2647746 0.20225649
-0.6157609 0.683613 -0.37885314
-0.3093161 0.62495387 0.028813956
-0.31462294 1.5782478 -0.40457493
-0.8539193 1.140672 -0.1460453
0.17125966 0.7485255 -0.082855284
0.6521472 1.4691846 -0.22020623
-0.9327855 -0.25624365 0.63699204
0.4835356 -0.4141974 0.90453964
0.6991998 1.0452638 -0.06659295
0.14566481 1.3386724 0.2508766
-0.34259254 -0.07847148 -0.072984755
0.019905245 1.1678551 0.842847
-0.79042566 1.3084366 -0.038195804
0.05684465 0.93084 0.38476604
-0.22447973 0.71196985 -0.51376235
0.067457624 -0.094577685 0.2569143
0.14064473 0.3706373 0.48281747
-0.12626931 -0.41339824 -0.61277634
0.24527274 1.3595526 0.4655028
0.89909494 -0.40628397 -0.48319235
0.1822953 1.242055 0.60841966
-0.4499016 0.9098913 0.012019176
0.37517452 1.2014456 0.5137875
-0.17155698 0.29233885 0.40462533
0.121121526 0.32978332 0.15508527
0.42828935 1.2061734 -0.18145376
0.734196 -0.41748232 0.024930246
0.034570225 0.4099841 0.6432945
0.05340086 1.4098948 0.48300958
-0.2776695 1.1926441 0.3766008
-0.06128342 1.0681131 -0.8752182
-0.3273075 0.6074327 -0.8144005
0.11246844 1.5000819 0.61791146
0.575889 0.23226896 -0.38873
0.8954779 -0.40765923 -0.28307644
-0.5773902 -0.41182822 -0.31892538
-0.011051763 0.21245003 0.30704558
0.03513348 -0.09050163 -0.91723585
0.5668665 0.91767454 0.030621005
0.0714751 1.6400642 0.4344289
-0.73364055 0.3977912 -0.33195367
-0.1889398 -0.40863803 0.616343
0.5494355 1.2596887 0.214097
0.21894413 1.0552504 0.48032743
-0.37878293 0.06711227 0.0374166
0.5351201 0.67987746 -0.5241823
0.012899802 0.8432408 0.1953013
0.76385224 -0.24085554 -0.7405301
-0.15958583 1.4248991 -0.048959635
-0.32316315 -0.41366518 0.73731136
-0.08748804 -0.41262516 0.7576888
-0.61734587 -0.25075793 0.7231047
-0.1544002 0.72484684 -0.7052425
-0.2506501 -0.25591487 -0.923406
0.73081565 -0.4132471 -0.5800361
-0.60417736 -0.24308902 -0.42502993
0.7972393 0.48336202 0.26329178
-0.13057607 -0.06520387 -0.59891355
-0.031346906 1.2238014 -0.6039857
0.68731403 0.42988598 -0.45473754
-0.3733725 1.0455781 0.10218686
-0.18034151 0.7394234 -0.33229166
-0.55174255 -0.090615116 -0.91569734
0.2615912 0.8704829 0.45081878
-0.85740733 0.6118673 0.19348823
-0.2806926 -0.23663554 -0.3779905
0.52939045 -0.4107254 -0.89817715
0.38365656 -0.2425119 -0.46732545
-0.7001674 -0.41780674 -0.7993494
-0.32156625 -0.25056815 0.923179
0.38234204 -0.41462237 0.22406867
0.00351456 0.6203643 -0.059662387
0.044920243 0.33007634 -0.5132632
0.78468716 1.3074312 0.016981792
0.7002887 -0.4168405 0.8784971
0.53218144 0.11838318 -0.0017499318
-0.5640037 -0.06702137 -0.33759123
0.6489726 0.5448101 -0.17140299
0.49972633 1.5874029 -0.18152481
-0.11791901 1.0598606 -0.68756783
0.6764202 0.3131708 0.3230481
0.044352565 1.3796152 -0.49846992
0.89563364 -0.4069382 -0.8783746
0.5612075 0.5005144 -0.62695074
-0.77159417 0.45247334 0.29464895
0.4400028 0.8190322 0.3937782
0.5470195 -0.25254798 -0.7760991
-0.35679933 -0.087406166 -0.9125422
-0.124228045 0.35359558 -0.758423
-0.011730013 0.28791466 0.50002545
-0.21686211 -0.24518216 0.1814481
-0.26841867 1.1680251 -0.074692816
-0.011763852 0.4346347 0.821959
0.15821935 0.7713444 0.30712295
0.3291259 0.31265235 0.43788385
-0.9249909 -0.24756825 0.0052386415
-0.0061067706 0.20582604 -0.39411783
0.095234334 1.3274558 0.7663949
-0.8439486 1.1345265 0.04426895
0.36190882 0.9163964 -0.6496265
-0.1035897 0.72348064 0.048630744
-0.64467573 0.7206017 -0.18454808
0.56802034 1.3356044 0.51056397
-0.0070879236 0.0976593 0.49141043
-0.51891375 -0.4179262 0.70616287
0.716131 0.78828096 0.15224323
-0.31719124 1.5042286 -0.18440741
-0.63216364 0.4470014 -0.03724642
-0.19195287 1.1112251 0.08566584
0.4940486 0.6804277 -0.27724808
0.903192 -0.08553581 0.32625198
0.25084823 -0.24075127 0.44600236
0.24399799 0.79226387 -0.30973986
-0.5264553 0.3806035 0.58527637
0.09210768 1.7350553 -0.1341536
0.034295 0.23221709 0.68909425
0.0709411 0.12317657 -0.5600413
0.49169022 1.123158 0.014968618
0.3432814 0.613152 0.6225699
0.62907386 -0.24845055 -0.610414
