0.62943554 1.3048582 0.47470492
0.52888507 0.40246987 0.03318523
0.47651002 1.4415708 0.2248795
0.7435552 -0.2531007 0.7545682
0.44920874 0.9259167 0.50742745
-0.5412287 0.85160154 0.4042766
0.10458654 0.09710693 -0.39043325
0.7021889 1.1245576 0.51089406
0.24900088 1.6273905 -0.62751853
0.76873016 -0.24910565 0.93189687
0.45885652 -0.086910166 -0.7274355
0.0008184489 -0.4081223 -0.4718806
0.040228095 1.29512 0.020113198
-0.71839666 0.9008474 -0.14053123
0.32201427 1.299315 0.2210615
0.09006175 -0.21057162 -0.5292746
0.38813657 0.34341055 0.20109636
-0.32729638 -0.05858407 -0.57406014
0.14840119 0.51557755 -0.4199794
-0.904228 -0.09542006 0.7292776
0.4848429 1.6448686 0.2640329
-0.60081494 1.3312807 -0.072671965
-0.46511567 -0.25412917 -0.9244102
0.42472464 -0.08431898 0.6410867
0.26034075 0.26033446 -0.6568297
0.8720388 1.2393727 -0.23559824
0.8954892 1.0713973 -0.32296234
-0.26472884 0.91275597 -0.03462149
-0.23093928 1.4569681 -0.4745453
0.25975072 0.096462786 -0.25130287
-0.4242046 1.1739473 -0.23013374
-0.7353239 0.6132473 -0.4567021
0.01463598 -0.09400789 -0.13323975
-0.73223805 1.3768902 0.07861404
-0.72241557 -0.0871702 -0.42555124
0.3294639 0.97823095 -0.55115885
-0.58372337 -0.4112444 -0.10835889
-0.31573266 1.2180204 0.54535836
0.09456873 1.247066 -0.5221331
-0.25212008 0.6803292 -0.25298524
-0.06631634 1.1016425 -0.58034444
-0.1943363 1.0727706 0.58909297
-0.74510777 -0.08168728 0.21876171
0.24204797 0.42103255 -0.81229675
-0.061897326 -0.08754513 -0.7681966
0.7614627 -0.25269386 -0.49142832
-0.50371504 1.1218197 0.64015234
0.58839333 1.2377254 -0.72970605
-0.09630292 -0.2197018 -0.46296376
-0.16181248 0.91106486 -0.81160486
-0.09509371 -0.058849767 0.17921492
-0.7753327 0.9750947 -0.49373347
0.41236144 0.89816064 -0.11813512
0.14738642 1.276385 -0.14124793
0.22071695 0.7993356 -0.61195934
0.9226383 -0.2495333 0.013288463
0.058330458 0.4819126 -0.87840927
0.8490176 0.68959284 -0.42658937
0.6905314 1.5530486 -0.19877598
-0.18902227 0.101235 -0.09350764
-0.4036979 1.3062667 0.38842165
-0.1128458 -0.23046789 -0.27150884
0.8919303 1.143192 0.16539325
-0.7190212 -0.42090482 0.7726844
0.39056182 1.130759 0.7325992
-0.49546176 -0.4190732 -0.72810256
-0.7262342 0.79286814 -0.5398217
0.21072415 0.25572282 0.15930924
0.3628049 0.7596698 0.75367117
-0.56428105 -0.090879634 0.52600527
0.74150205 -0.08883163 -0.5833224
0.84210825 1.0306697 -0.4887457
-0.14288965 1.3996533 -0.6384859
0.3549705 0.12915 -0.050505973
-0.020216078 -0.41253644 -0.76070887
0.7266842 -0.41903052 0.64688444
-0.130436 0.54745626 -0.88804376
-0.45819086 0.59357953 -0.5328165
0.048410967 0.85049987 0.3637867
0.57015395 -0.04628501 0.11314149
0.20089465 -0.41110078 0.28404203
-0.34926462 -0.41148236 -0.58972645
-0.32603177 1.1841688 0.7218863
0.09458828 1.2226517 -0.94382125
-0.8904811 -0.099217236 -0.91334724
-0.727591 0.9250545 0.40880743
0.08089825 -0.42529428 -0.25410414
0.42514306 1.0403738 0.025090883
0.5542246 0.29056945 0.3027161
-0.06553453 -0.06423834 0.5586455
0.0937704 1.6099813 -0.35072857
0.13805205 1.0686178 -0.19907133
-0.7589442 -0.24704269 0.3171526
-0.5059392 1.6363454 0.12317629
0.4332671 1.0775638 -0.19282982
-0.43070737 0.36644864 0.4635226
-0.85923356 -0.081155255 0.021546943
-0.48492044 0.67680866 -0.08082689
0.75156206 0.9803017 -0.63380563
-0.2186088 1.231602 -0.70355755
-0.18764877 1.5410383 0.5480023
-0.3571995 1.7406541 0.014607593
0.5580692 0.6971314 -0.795804
0.34606194 1.557286 0.17577341
0.686373 0.8284271 -0.71210766
-0.39522016 -0.07401234 0.4084453
-0.6154307 -0.09181902 0.9141388
0.4133504 -0.067043275 0.42895097
0.5905398 -0.26772115 0.8986436
0.92126024 -0.24813178 -0.38928688
-0.8945106 -0.4068073 0.10468838
0.7736196 0.9309319 -0.15607187
0.91854846 -0.2489545 -0.18690802
0.5547716 0.38610345 -0.57814896
-0.53214306 -0.42344406 0.48284274
-0.095796086 0.12880531 -0.31313533
-0.7118439 -0.41767544 0.39912087
-0.058371108 0.4363416 0.13316482
-0.3295201 0.91187644 -0.51488745
-0.87279034 1.028063 -0.09522286
0.0044507748 -0.41120034 0.57036716
0.18826263 0.25689495 -0.05219317
-0.6832009 -0.07979168 -0.038380835
-0.7122326 -0.41851872 -0.62333953
0.04280339 0.6650211 -0.7633029
-0.89711416 -0.40647888 0.7172187
-0.9026334 -0.09300225 -0.5277215
-0.5987376 -0.23555401 -0.20798981
-0.3502408 0.8153952 -0.89770114
0.4264584 -0.25537583 -0.92385966
-0.55533195 1.4248025 0.39944538
-0.0048697563 -0.40974903 0.36738044
-0.15878674 0.6507472 0.7637949
0.33143026 0.9506724 -0.9349525
0.3884706 1.3081831 -0.6368526
-0.513965 1.350489 -0.2677342
-0.5207505 -0.24601266 0.9110968
-0.4473095 -0.21519162 0.09080933
0.6391432 0.8527429 -0.48016375
0.027880702 1.4267058 0.19562617
0.022753466 0.25768816 0.09812535
0.18443027 0.1405726 0.348854
-0.2546031 -0.4207937 -0.750031
0.39023536 -0.26551116 0.921595
-0.21036887 1.3714306 0.4597385
0.37432042 -0.053868897 -0.54798234
-0.1654011 0.9277618 -0.6116151
0.88532186 0.62268734 -0.01608698
-0.45825663 1.3879448 0.22508934
0.38098332 -0.07532146 0.8701352
-0.0016691361 0.7673749 0.81675833
0.27604496 1.2986834 -0.422201
0.31841236 1.7570932 0.17828868
-0.35348403 -0.261605 -0.767345
0.7376303 -0.08432771 0.22063372
0.30455655 0.97477233 -0.2613631
0.4651636 0.9318991 0.7219678
-0.46021494 1.5800627 0.31579518
0.5478221 -0.41707268 0.1268504
-0.66394687 1.0904396 0.46288377
-0.096845254 1.1239091 0.3572441
-0.04108131 -0.23068574 -0.633889
-0.5377226 -0.08405852 0.7332316
0.7830222 1.3882374 -0.34032047
0.22573638 0.62154764 -0.08272694
0.93885463 1.0278469 -0.15023062
0.5864995 0.4452898 -0.17153037
0.58222705 1.3750024 -0.40462688
-0.107387975 1.5947587 -0.3492272
0.42055592 0.25846136 -0.54981875
-0.09415283 -0.415783 -0.14485152
-0.73853725 -0.41603604 -0.21278939
-0.26758417 -0.4123224 -0.07266913
-0.21652955 0.4996207 0.23999047
0.9027895 -0.08936754 -0.8979218
-0.36869866 -0.4124266 -0.9013295
0.12611017 -0.23894724 0.31744277
-0.8949602 -0.0932056 -0.33158857
0.0042902357 0.8032411 -0.27460182
-0.09478992 0.4665038 0.69160867
-0.6190384 0.6960039 0.09431646
0.016511094 1.8365995 -0.08198933
-0.10379794 1.27842 -0.4978751
0.9257121 -0.24895018 0.22687471
0.15506499 -0.40827465 0.45354605
-0.03136053 -0.25826746 -0.9153297
-0.91521716 -0.26019266 -0.871843
-0.17211543 -0.40747797 0.25042093
-0.62265706 0.6091267 0.4573837
0.0296059 0.8700355 -0.83230734
-0.26573974 1.1810869 -0.8981551
0.73040503 0.78746384 -0.2997934
-0.290941 0.12937087 -0.33050242
0.6474725 1.3156476 -0.22885308
0.44044626 -0.2418139 0.75437
0.028236993 1.3689556 0.50812304
-0.43527958 1.4824369 -0.6237547
-0.1091665 -0.24577805 -0.0796133
0.80053633 0.9241077 0.4184488
-0.184181 0.114440896 0.1487584
-0.18297397 -0.41583797 0.43613115
0.25342146 -0.06810112 0.5291008
-0.26453155 1.0471599 -0.18609647
-0.29855275 1.2531471 -0.3837399
-0.498717 1.2587824 -0.43525738
-0.33763352 0.9870641 0.74381036
0.4240564 0.60000753 0.66632754
-0.54625416 -0.08465716 -0.54855746
0.08303587 -0.056608655 -0.6759305
0.2374329 0.9483154 -0.013801493
-0.773947 1.1242905 0.31596857
0.3890523 0.7538322 -0.7166445
-0.6240909 0.77869594 0.53920746
-0.44986773 0.9783155 -0.65933764
-0.05555415 0.98150086 0.46929392
0.0527549 -0.26748377 -0.18990943
-0.7618935 -0.24688607 -0.10457648
-0.03581065 1.5153135 -0.50032485
-0.28944242 0.8872572 -0.29901224
0.32296044 1.0546708 0.5691215
-0.25525928 -0.22695313 0.36747205
-0.43252409 0.421681 0.18955344
-0.5045853 1.0259426 0.11565067
0.31979948 0.11863284 0.14827682
-0.102129236 1.2906079 0.13708362
-0.8976374 -0.4057843 -0.104630485
-0.57795906 -0.4057938 -0.9161545
0.60437244 0.60822064 0.5413202
0.08072924 1.1016314 -0.8082706
0.22313529 1.3512633 -0.8787935
0.415093 1.2813733 -0.82686317
0.07159084 1.2486714 -0.3122018
0.38466263 -0.06122692 -0.18379194
-0.5242313 -0.41352165 0.28519934
0.09673402 -0.028076328 0.44938624
0.12793745 0.094342396 0.15232608
0.91273034 0.8706515 -0.31899664
0.7322898 0.36871594 -0.2876192
0.73515165 -0.086646646 -0.9025217
-0.41283822 -0.23336394 -0.47474194
0.19845986 1.8169754 -0.118792325
0.10407244 -0.23788741 -0.03418564
-0.21505684 -0.40404102 -0.45582706
0.4634002 0.5631542 -0.2942152
0.42512268 1.1131186 0.23582947
0.3339392 -0.41563216 -0.5789988
-0.26478592 0.27730334 -0.6427264
-0.51181376 1.658168 -0.08190556
0.42002895 -0.41201556 0.611886
0.51057947 1.6949708 -0.15807506
-0.077281564 -0.046743322 0.37876487
0.4040449 0.786944 -0.5202094
-0.33210588 1.7598573 -0.18989585
0.23249039 -0.3989386 0.91222113
-0.1981995 -0.041963063 -0.42054218
-0.013892639 0.118276596 0.27177864
0.16701756 0.62356275 -0.5762676
0.41055113 1.1109105 -0.4139347
-0.63230383 1.2256882 -0.2388673
-0.27364177 -0.22942933 -0.17682981
0.8291346 1.2265618 -0.44290167
0.54107404 -0.41041815 -0.49072954
-0.37914747 0.8138349 0.28348228
0.13793883 0.9368627 -0.52040625
-0.39030308 -0.22018862 0.24670771
-0.4330799 -0.024018275 0.20935181
-0.18835463 1.0130886 -0.40977195
0.8932941 -0.09576797 0.9083331
-0.034672767 0.449646 -0.39616245
0.9281006 -0.2507988 0.85857534
0.08478695 1.404722 -0.41065305
0.206694 -0.4107579 0.09621331
-0.048303448 0.94187844 0.6721727
0.36092943 1.7760522 -0.057966318
0.27783418 0.13016365 -0.48242107
0.67908716 1.1916987 -0.38791385
-0.44776818 0.6708789 -0.27493948
0.46692294 1.4135509 0.55755556
0.7272995 -0.41736627 0.4264174
-0.5707397 1.0815837 -0.75244856
0.537595 -0.048240144 -0.31753546
-0.5324524 0.86900294 -0.7955259
0.7207954 -0.4171819 -0.38675797
-0.89579874 -0.09425207 -0.14288479
0.8254886 0.48688197 -0.14924973
-0.8678496 -0.09438184 0.9108435
-0.8446095 1.0461932 0.108381584
-0.15284574 0.81743616 -0.16138779
0.33841974 0.5118244 0.072195515
-0.1633319 0.27033633 0.019470189
0.32448405 1.5916023 -0.32303467
0.28811458 -0.22822356 0.21229841
0.15347588 0.77590525 0.0364089
-0.10818188 0.7843085 0.4732837
-0.11180669 -0.26033133 0.9167032
0.52436894 0.8868183 -0.84661037
0.7236005 1.1745129 -0.6086613
-0.097769305 1.4924486 0.36063606
0.23229459 1.2632746 0.040319845
-0.1381068 1.2505817 0.7514107
0.29358643 1.1285342 -0.076209076
-0.14055628 0.564577 -0.6931801
-0.4905445 0.19080766 -0.28708267
-0.7347819 -0.4145819 0.0023993691
0.17313975 1.209306 0.59159756
0.71874356 -0.082466446 -0.19380164
0.7275065 -0.07949123 0.011195829
0.4903701 1.4777124 -0.26799917
0.7005047 -0.41602618 -0.76135963
0.36011708 0.7466545 -0.023062877
0.25473607 1.4205654 -0.2732268
0.6038233 0.23397273 -0.23392639
-0.45513946 -0.08544602 -0.7376791
0.65871733 0.2967893 0.12432824
0.3113681 0.6426469 -0.429706
0.6970648 1.366473 -0.5448384
-0.47156373 1.4573984 0.028731655
-0.75547564 -0.25227937 -0.31818587
-0.4195639 -0.40689692 -0.19742271
0.84063876 0.7480393 0.3036845
0.3666932 1.3297691 -0.1307781
0.17228763 0.81724924 -0.97655606
-0.7682723 -0.25542068 -0.52365977
-0.34439445 1.3135574 -0.5786836
0.25001752 -0.40261537 -0.28391314
-0.5782032 0.5230844 0.15275696
-0.6639731 0.9214629 -0.34778675
0.4799949 1.12425 0.44025213
0.10186361 -0.23426184 -0.7566601
0.25658518 -0.046276797 0.3232525
-0.09094572 0.95956266 0.23882768
-0.55640924 0.867138 -0.041333046
-0.8912246 -0.41143572 0.3182354
-0.85844135 -0.40488246 0.90456545
-0.7002659 1.3260845 0.28582442
0.33959806 -0.4174234 0.772537
0.7276541 0.7555001 0.4827578
-0.5724891 -0.2520591 -0.7877742
0.23901367 -0.2282473 -0.20279658
-0.893643 -0.40509763 -0.7318933
-0.43294227 1.1988652 -0.79803604
-0.15978909 0.801804 0.2967288
0.6304767 1.6223418 -0.033261076
0.5711057 1.0919564 -0.28780803
-0.5950266 -0.23891008 -0.0066063516
0.7637665 1.0780184 0.009012135
-0.89486957 -0.40887848 -0.3226611
0.8258003 0.8398297 -0.52440673
0.37484315 0.17651409 0.33242756
-0.6457225 1.5263826 -0.0004735415
-0.7239604 -0.41476196 0.20705599
-0.32843685 0.76836944 0.73723054
-0.74197924 -0.087066844 -0.6069713
-0.21333879 -0.41176248 0.89960456
-0.628241 1.2594702 0.47281823
0.9092076 1.1946375 -0.04591689
-0.7478496 -0.24135302 0.10546008
0.06093491 0.50668204 0.28429595
-0.46143234 1.4872137 -0.17550743
-0.49535468 0.43110603 -0.19533107
0.22970575 0.5997402 -0.743314
0.20390296 0.7824967 -0.79806304
0.27855566 1.1517472 -0.93106973
-0.53950655 -0.41448057 -0.5250159
-0.37763354 1.008049 0.53728795
-0.245936 -0.024910495 0.30215198
-0.9005173 -0.09570104 0.3456911
0.09130265 -0.085595444 0.6628355
-0.44056603 -0.21623027 -0.1002831
-0.67924535 1.2700613 -0.5100765
0.5045906 0.62202585 0.05239296
0.40844542 -0.03826884 0.01712119
0.22938769 0.2642246 0.5065751
0.78024685 -0.2455723 0.11976203
0.5371946 0.7003054 -0.14469033
0.18839055 -0.08107549 -0.8869097
-0.39560226 1.3105309 -0.07967297
0.59543264 -0.24379268 0.42153782
0.36155298 0.76796836 0.33451828
0.4855067 1.5425694 0.03389865
0.115055196 -0.24043515 0.14631698
0.70585346 1.2634943 -0.042901974
0.58380383 1.1420231 0.08906755
0.01885577 0.94226956 -0.67517424
0.015248069 0.75598145 0.20051783
-0.3951105 -0.41101825 -0.39405078
-0.71976995 -0.087498605 0.6240198
0.54135716 -0.41246623 0.32744935
-0.8965092 -0.09298985 0.53700066
-0.61612535 1.4857991 0.20077647
0.020836107 -0.41254103 0.18085855
-0.6604743 0.90718794 -0.66883504
0.7541897 -0.25237888 -0.28823927
0.46495438 0.60624707 0.3892057
0.05775073 0.9479686 0.83727676
-0.9188503 -0.26711047 0.21841139
-0.22201392 -0.09247048 0.8992194
0.13338652 1.0938606 -0.6191888
-0.8498087 -0.40593085 -0.9143617
0.36167777 0.73541707 -0.23772517
0.29812872 0.5420219 0.26506156
-0.56280833 -0.40894562 0.10350521
0.5077946 0.5757645 -0.49299365
0.20039392 1.6329377 -0.1811068
-0.38585204 1.0608594 -0.3847346
-0.9245404 -0.24711338 -0.6441034
0.8961028 -0.08838003 -0.28974205
0.66943586 0.56379044 -0.048028946
-0.68797386 1.0705771 -0.19800046
-0.24624866 0.9503406 0.38325718
0.2940798 0.60570824 0.49237734
-0.46901834 1.3200998 0.585551
-0.016525973 -0.07207573 -0.3364449
0.55697405 0.8211794 0.007765432
-0.5134723 1.2710927 0.09666757
0.1753054 0.680019 0.31545007
-0.72359216 -0.41757753 -0.42521274
0.38704136 -0.4108314 -0.39379066
-0.08336783 -0.08496313 0.7494676
0.21068938 1.1578977 0.7855773
-0.4798624 -0.014253827 0.011983425
0.53875244 -0.4205365 -0.6714306
-0.40368575 -0.08857781 0.60931915
-0.0070913997 1.476348 -0.0061207362
-0.66201067 0.34484193 -0.0063076476
-0.42864105 -0.4045238 -0.008555961
0.23706155 0.44027823 -0.6066583
-0.6346694 0.32634467 -0.21286151
-0.13638842 1.6642063 -0.5722055
0.49977022 0.49691772 0.22717729
0.5767436 0.8833554 -0.22125348
-0.0587035 -0.2434996 0.09073272
0.58185244 -0.0868188 0.53419614
0.17758861 0.774508 0.8027752
-0.6920305 -0.4126429 0.5971339
-0.1658064 0.861135 0.80239606
0.5179194 1.2463934 -0.5128919
-0.8886206 -0.08880934 -0.7355137
0.9358562 0.98078316 0.03948766
-0.567841 1.1964498 0.2847141
0.1782735 1.2790606 -0.7264073
-0.08261761 -0.40671647 -0.3288315
-0.29206192 1.0552318 -0.7203523
-0.25630394 1.5301179 -0.6951122
0.6265242 0.97008616 0.40921122
-0.39690983 -0.031164983 -0.42083383
0.25256437 -0.16113427 0.92665136
-0.7660982 -0.24277477 -0.7425487
0.72141194 1.2212119 0.1683877
-0.4556892 1.139589 -0.5775237
-0.31667554 0.9713726 0.17073342
-0.30032998 1.4698305 0.30260277
-0.29549515 0.433587 -0.77425283
0.091859415 0.7398371 -0.43893155
0.14287715 1.0129595 0.67721295
-0.5862998 1.1008792 -0.38874713
0.0007737165 1.5587933 0.5629009
-0.18957043 1.6163588 0.22164126
0.05085364 0.38150668 -0.05964277
-0.10255792 1.8107716 -0.26173383
-0.0582335 1.318795 -0.15115535
0.049390465 0.5226347 -0.1997956
0.05625727 -0.07597466 0.05156936
-0.47653598 0.88003343 0.6658939
0.27925676 0.88214725 0.6272151
0.7248362 -0.41729462 0.22412837
0.42985642 -0.2321099 0.07717511
-0.8452076 0.6536381 -0.04217542
-0.46880874 0.40211022 0.008644885
0.2370148 0.4355074 -0.08874564
0.09589656 1.1055212 0.0007144492
-0.41051698 -0.0849269 0.884258
0.2803365 1.1972306 -0.26265496
-0.34844434 1.7092037 0.22093281
-0.48294824 0.69894344 -0.7908704
-0.19318298 0.4696554 -0.25652552
-0.9251227 -0.25473714 0.8699706
-0.25311327 0.68359375 0.5734123
0.35945988 -0.4151889 0.42540652
-0.20789893 1.1167356 0.17981538
0.038411595 -0.41340894 -0.018522311
0.42500287 0.30090678 0.47375503
-0.4222286 0.8125099 0.086134136
0.18681526 -0.40962932 -0.45205408
-0.4120783 0.5470575 0.31274134
0.18964317 1.4574819 -0.06957097
0.06333788 0.66176367 0.45613402
0.8951144 0.6742546 -0.22138947
0.2216393 -0.06764677 -0.09460419
0.7088301 0.3218273 -0.078942075
0.1975734 0.9622154 -0.76425517
0.41266543 0.3963012 -0.7066697
0.14678231 1.011226 0.4845459
-0.15025708 -0.41239178 0.06461403
-0.16998142 -0.046970863 -0.215588
-0.47477755 0.6836743 0.6362102
-0.5494405 1.2965055 -0.6713989
0.89850956 -0.40859142 0.1221439
0.8393562 1.3250844 0.08681725
0.560548 -0.4136492 0.73925114
0.026395619 1.407324 -0.8547083
-0.2424449 -0.23151058 -0.58668804
0.5530523 1.280565 0.2637105
0.89566135 -0.40912557 0.531983
0.27467436 1.6245165 0.015466577
0.35671878 -0.08808315 -0.9079344
-0.08969453 1.2518923 -0.91069686
0.1313802 -0.075368956 0.8672086
0.0027336408 1.6556258 -0.16732526
-0.20453265 1.7853795 0.115940034
0.29756984 1.6777936 0.3645168
0.6340618 1.5754181 0.16699259
-0.55703723 0.95528716 -0.506289
-0.26047784 -0.08983566 -0.750062
0.71894395 -0.08412448 0.87599057
-0.72092116 -0.0840309 -0.2268603
-0.44228804 -0.2370702 -0.6324805
-0.4747886 1.6615642 -0.27062154
0.6274366 1.0398798 -0.75573754
-0.5833938 0.8516674 0.21698177
-0.32358858 0.8479072 -0.71585846
0.37868637 0.58876497 -0.622669
-0.045107346 0.7106614 0.6367085
-0.29547662 0.50729656 -0.5980803
0.45113808 0.14100306 -0.20804825
0.90943784 0.77329683 0.10749951
-0.34961504 -0.41210783 0.34835708
-0.3586654 1.3654774 -0.77428937
0.2763701 0.96179336 0.8054285
0.737218 -0.086009175 0.4286676
0.37740517 1.5524156 -0.1335732
-0.9230006 -0.25457394 -0.42605782
0.4513346 1.552325 0.4227814
-0.09577897 0.30405653 0.56576854
-0.8821448 -0.41168037 0.52158004
0.52197385 0.9144093 -0.6252142
0.5562372 0.77932525 0.41866502
-0.28234813 0.24887276 0.4475568
0.5529922 0.7699623 0.6460862
-0.1526804 -0.2562673 -0.7646807
-0.70963436 -0.26244557 -0.92797905
0.4231187 1.2369514 0.06898141
-0.08954786 -0.23263109 0.6254399
-0.16524139 -0.092674054 -0.9182614
-0.819097 0.8997927 0.23714122
0.13726752 0.38665545 -0.27824378
0.5754352 -0.08954209 0.7465287
0.0018060172 0.77064854 -0.6141994
0.17279652 1.8096058 0.07811387
0.23343444 -0.4174181 0.6032678
-0.451887 0.36584526 -0.6107044
-0.25923455 0.49733764 0.05010284
-0.5924512 1.5207561 -0.35639077
0.041545615 -0.21489596 0.4624461
-0.59234273 0.9696641 0.56055903
-0.7344806 0.7436156 0.34708032
0.7449112 -0.25081 -0.08558549
-0.25976986 1.1272051 -0.5379522
-0.018835396 1.1227823 0.1561456
0.7208499 -0.08571096 -0.39129514
-0.6762297 1.1116112 -0.6004212
-0.76134413 0.51460886 0.0741135
0.5683596 -0.07052314 0.32156974
0.2383084 1.4056058 -0.59004927
-0.11066592 1.3829116 -0.33333147
-0.2620002 1.6404303 0.39689207
0.40264332 1.4394784 -0.45121557
-0.46285796 0.9994524 0.32999808
0.36004847 0.30394527 0.025936965
-0.14732394 0.28274313 0.2299152
-0.3652364 0.8297758 0.49559814
-0.051850304 0.63052374 -0.31567895
0.31069934 -0.23532234 -0.7790195
-0.07970315 0.6179711 0.32350245
0.6176554 -0.2582022 0.0710751
0.6439921 -0.24545398 0.24791612
-0.4072556 1.4290339 -0.40896684
-0.17402788 1.395163 -0.8323481
0.1016781 -0.4062615 -0.61692095
-0.17417118 0.7485781 -0.94898355
0.6435422 -0.24475285 -0.91934
-0.5829879 0.4460927 0.36845136
-0.58618796 -0.25160068 0.2295981
0.56774235 -0.41475475 0.5202057
-0.119239934 1.0053902 0.0060805404
0.29831243 1.1269858 -0.74721766
0.07608715 0.8453941 0.5888885
-0.6547352 1.0203223 0.23590751
-0.10573614 0.55140877 0.51891434
0.8965454 -0.09145593 0.7343484
-0.5827384 1.4298584 -0.5152189
-0.5721688 -0.09203979 0.3293156
0.44204414 0.15544084 -0.38634786
0.35877913 1.2326164 0.54652417
0.3022471 1.3373126 0.69144034
0.7303465 1.0161135 0.20116666
-0.12912604 0.61208844 -0.108491704
-0.102210835 0.62656856 0.11226627
-0.61658055 -0.25853664 0.43523622
0.17234689 0.6656225 -0.27997333
0.9180348 -0.25114065 0.64601624
0.13682078 1.0137926 -0.9801222
0.4157588 -0.23495054 -0.29141065
-0.50961524 0.2219832 0.11666369
-0.50611484 -0.26408195 0.59035814
-0.2838995 0.51044804 0.45369464
0.92503166 -0.25004804 0.44041085
0.5908412 -0.25341797 0.6438061
-0.5396236 1.1476959 -0.069299325
0.5677901 0.9562502 0.13713875
0.89205617 0.9315563 0.23163135
0.22200009 0.34493008 0.32168734
-0.3525672 0.5309733 -0.3374463
-0.7544887 -0.25147977 0.5413538
0.20169342 1.747331 -0.44700336
-0.0102349 1.6173966 0.18557122
0.5428419 -0.08751978 -0.91032094
0.29526293 0.41703802 0.6161784
0.094508134 -0.25544867 0.9238857
0.64965427 -0.08361007 -0.7344302
0.0154233165 1.0896864 -0.39989102
-0.034408983 0.08556309 0.030036386
0.4703719 1.0924839 -0.8622294
0.16606787 -0.07444812 -0.29380128
-0.7899363 -0.2526704 0.73380935
-0.73459065 -0.08491585 0.42738634
0.56014466 1.0674043 0.6367817
0.20929895 1.0871172 -0.4085788
0.12164413 1.2234894 0.20449594
-0.30697462 0.55203784 0.6759739
0.5806703 -0.22733593 -0.20957956
-0.15590575 1.0563164 0.79951537
0.8207948 1.0997995 0.3479445
-0.5375875 0.67784226 0.2716608
-0.1876964 1.6679201 -0.17732567
-0.62030053 -0.40410835 0.9041854
0.25555986 -0.22594556 -0.40586093
-0.5503443 0.3234058 -0.42196533
-0.45100302 1.6040635 -0.4499007
0.7791536 -0.25227678 0.34051305
0.9159812 -0.24331114 -0.59550285
-0.14657417 -0.075550035 -0.008663278
0.07203618 1.1841948 0.42721742
0.35263932 -0.045126837 -0.36925012
0.66023386 0.9167076 0.585256
0.55914927 1.425137 -0.098496765
-0.6777004 1.0343906 -0.0070393775
-0.40736094 1.0114636 -0.873839
0.89610255 -0.40854472 -0.083568156
0.7455062 0.5779512 0.3896498
-0.12496876 0.39977258 -0.5741236
-0.3062098 0.3606053 0.31689268
-0.34380254 0.40175992 -0.46609774
0.0768805 -0.24973473 -0.35939318
0.7336969 0.6638387 -0.613703
-0.48545593 0.78923535 -0.5906558
-0.0026363677 1.1357911 0.616163
-0.6571307 1.179306 0.102149464
0.26205122 -0.07344657 -0.6988567
-0.8935335 -0.407327 -0.5320208
0.045536436 0.48919234 -0.68758744
-0.21523595 0.8786912 0.6057893
-0.024905164 0.5961647 -0.5277128
0.89104503 -0.4085694 0.7326504
0.24061687 -0.06401473 0.11041324
-0.19847846 0.56551015 -0.44503862
0.059079893 1.4634993 -0.21972737
-0.43648273 -0.23020941 -0.29219875
0.90021634 -0.089821175 0.5354269
0.8855884 -0.4016277 0.90591085
-0.037535746 1.1286423 -0.15138319
-0.4413014 0.6719119 0.44872832
0.56233 1.5453748 -0.5138495
0.30321038 -0.40425682 -0.91580665
-0.2955712 1.3898649 -0.238445
-0.48318374 0.27770495 0.30221558
-0.34359133 0.718415 -0.44624585
-0.14201236 -0.41031283 -0.9090872
-0.15508616 1.4572573 0.15282883
0.50131583 0.73686373 0.20047905
0.30755162 1.5323887 0.54782546
-0.36622453 -0.41383964 0.5473939
0.5940975 0.4638644 -0.36965966
0.20413044 -0.41168332 -0.75287473
-0.13878164 1.6278052 0.013639519
-0.5223659 -0.036853924 -0.16053511
0.5408199 -0.103086784 0.9169936
0.7980965 0.4411006 0.05302527
0.5532335 -0.0030993107 -0.11377025
-0.21030053 -0.25698122 0.75792253
-0.03778989 0.88369226 -0.98783624
0.1162189 -0.41922253 0.74591553
0.2697314 -0.23446918 0.010497155
-0.34660333 -0.4079163 0.15176696
0.29633844 0.27793527 -0.22921458
0.0183621 0.6827539 -0.95293224
0.24593918 -0.24296696 -0.60083795
-0.07816084 1.4162364 0.6692922
-0.04415547 1.6746273 0.4223744
-0.2323744 0.9796819 -0.956265
-0.44243667 -0.25133973 0.41510087
-0.17080194 1.8162318 -0.06397832
-0.123983815 -0.24585375 0.46324462
-0.3317988 0.66929567 -0.67449796
0.13713285 0.6113252 0.13399425
0.22243631 -0.2601773 0.77482426
0.9319811 -0.247269 -0.7835213
0.43033212 -0.24933228 -0.63314885
-0.27880168 -0.24254668 0.018595526
0.29292727 1.1801028 -0.5609291
0.7209518 -0.39958808 -0.9189114
-0.71826583 1.3603425 -0.33946663
0.08183321 1.6455705 0.0059991158
-0.30786178 0.31654283 0.12157105
0.15005678 1.5245497 -0.7607845
-0.91918266 -0.25900513 0.42773744
0.44608057 -0.24368516 0.5213106
0.40116447 -0.24092719 0.35065082
-0.91091216 -0.10417787 0.16673109
-0.47406727 0.5246817 -0.7204081
0.5001387 0.17138374 0.14951304
0.43952444 0.34673047 -0.3332575
-0.29741603 -0.052430905 0.10897271
-0.008506026 -0.009662975 -0.5092776
0.7349925 0.74901456 -0.09686206
-0.4069724 -0.24181774 0.7479482
-0.2057151 0.26185352 -0.19919762
-0.060636412 -0.2316708 0.2831741
-0.21130563 1.3999454 -0.029044122
-0.39095712 0.8208685 -0.15768862
0.8062924 0.5300764 -0.34710515
0.9026798 -0.087558776 -0.49222898
-0.27981526 1.1307541 0.38611394
0.19014308 0.70474005 0.6239927
-0.276479 1.3781079 0.65125406
0.60153973 0.4376228 0.42271882
0.29295975 0.49681228 -0.2694249
-0.62924165 0.6734882 -0.65490997
-0.17594633 0.13982454 -0.51404667
0.3825335 -0.41401604 0.015164763
0.08670944 -0.40626127 -0.9091978
-0.13683727 1.1764728 -0.32253942
-0.69481546 0.71020997 -0.07846451
0.47254068 0.46757603 0.56090033
0.0100952685 -0.411078 0.90471494
0.019505696 1.1325452 0.8089176
0.48324955 1.7133934 0.070918515
0.41284913 -0.03808657 0.22345121
-0.39287588 1.1639254 0.22263321
0.08703351 0.30786216 -0.74911916
-0.42524993 0.60193646 0.088362575
-0.19264936 0.83288234 0.12326115
-0.021472195 0.21822022 -0.106386915
0.26446688 -0.088350296 0.7274257
-0.87019694 0.854867 0.022486411
0.5251181 1.2432399 0.6211964
-0.7021731 0.87277055 0.079967394
-0.015607187 1.815599 0.108928174
-0.7313223 -0.08611557 -0.9007453
0.39871103 -0.41427705 -0.18202658
-0.04571563 0.33890086 -0.24781114
0.12642598 -0.25077492 0.6033386
0.896441 -0.089189395 -0.08815597
0.88520944 -0.08247368 -0.7069551
0.55488664 -0.41109934 -0.28629196
-0.11777908 1.2431605 0.53471637
-0.4653956 0.8597048 -0.36618853
0.37301004 0.8918295 0.13418147
-0.29607737 -0.24294983 0.56702936
-0.36672637 0.33243698 -0.28839868
-0.37750405 0.2104362 -0.4806988
0.4056645 0.562379 -0.82695985
-0.61386985 0.48440668 -0.554395
0.6367086 0.6397214 0.28831926
-0.64567614 1.5267794 -0.1902394
-0.045264594 1.3031604 0.32756308
-0.5993854 -0.08578506 0.12890211
-0.72917515 -0.08302751 0.7990878
0.4927241 -0.22472885 0.22201264
0.034545213 0.06250918 -0.18593684
0.2331809 0.30228662 -0.42837098
0.21304151 0.6134405 -0.92463803
-0.055396743 1.557236 -0.73558563
0.7682159 1.2831427 0.33813024
0.36846524 0.44641802 -0.4725457
-0.35690212 -0.048219875 -0.25778115
-0.80957973 1.2287117 0.16040568
0.2266292 0.8233162 0.45042497
-0.06843682 0.21899584 -0.6499132
-0.3752499 0.13586465 -0.15196627
-0.8098513 0.79360247 -0.36818665
-0.52367294 0.5051013 -0.38520783
-0.3823691 1.488847 0.49672973
-0.1338971 0.42908454 -0.07515569
-0.10908221 1.7610451 0.27996725
-0.9212624 -0.25721264 -0.21701783
0.5583333 -0.39935905 -0.075828254
-0.85051227 0.9872032 -0.29600257
0.85443413 -0.2502356 -0.929585
0.46768486 1.1065717 -0.64489865
-0.19172207 0.31057048 -0.40691143
-0.34534538 0.5360881 -0.12533018
-0.28675488 0.6717785 0.18704414
-0.08752543 0.97507894 -0.24861929
0.11376455 0.21808895 -0.250802
0.6178086 1.1218643 0.31044507
0.75167394 -0.25280672 0.5419012
0.8923212 -0.40833277 -0.686543
-0.035018608 0.90920836 -0.4644354
-0.33537334 0.32926446 -0.087179676
0.337516 1.4566531 -0.75967896
0.40608954 -0.24084263 -0.105756216
0.3889923 1.6781346 -0.47211713
-0.13629752 0.16495849 0.39933568
-0.23258227 -0.069561556 0.5016985
0.21536586 -0.40811616 -0.09865604
0.1599108 0.09074913 -0.040403068
0.7049953 0.7077446 0.10245341
0.3380342 1.7749531 -0.27700853
-0.8654315 0.8114679 -0.17726709
-0.03194016 -0.096826166 0.91161525
0.9369197 0.8225261 -0.09862676
0.041382067 0.55972457 -0.0030895285
-0.2645814 -0.085885435 0.7094074
0.44005325 0.34243292 -0.13647076
-0.321508 1.5620663 -0.08574082
0.41662037 0.54467666 -0.10654497
0.1933865 -0.24920595 -0.92642355
0.11386852 0.9282417 -0.32008016
-0.2536798 1.7372657 -0.3863016
0.55366087 -0.08056337 -0.52467936
-0.31132275 1.3168826 0.10780516
0.40955937 1.546812 -0.61803865
0.59793997 1.0502316 -0.5031481
0.90182483 -0.088247895 0.11812044
0.68023473 0.8369652 0.25595558
0.6509037 0.52071464 0.1290318
-0.26392204 0.3913982 0.5884435
0.21027818 1.5345366 -0.47125375
-0.42387167 -0.4083738 0.89468825
0.15508634 1.3447015 0.32969734
-0.7325978 -0.2492044 0.9189786
0.37307513 0.75167334 -0.9093511
0.59060127 -0.2403262 -0.3987908
0.7175617 0.9771936 -0.35042286
0.53750324 1.4103745 -0.6634944
0.36667168 1.4142928 0.0379071
-0.8035627 0.6309698 -0.25925666
-0.7586256 0.48170593 -0.13509896
0.39128557 -0.41154927 -0.76121724
-0.6178254 0.5897231 -0.23896533
0.72944975 1.4248878 0.217891
0.7216523 -0.4164899 -0.18272601
0.74456125 1.4891176 0.016465096
0.7366795 -0.08492006 0.64803886
-0.61484504 -0.25709778 -0.61350584
0.039273184 0.92475975 -0.099065185
-0.25153428 -0.40636882 -0.26721904
-0.33498615 0.1611695 0.26654667
0.18934396 -0.049399506 -0.5041683
0.24120422 0.56406355 0.7331153
0.068729505 1.6598036 -0.5971943
0.4649574 0.9284692 -0.38045686
-0.644124 -0.08313399 -0.74001765
0.17080063 1.6161674 0.19652069
-0.5315495 0.21498275 -0.082128964
0.30802947 -0.24562679 0.61614585
-0.022168823 1.7571394 -0.43758896
-0.25919712 0.67751104 0.38152826
-0.32790393 1.5404232 0.10894306
0.89876795 -0.40921745 0.32631606
0.25013536 1.076061 0.15237015
0.020434232 -0.24614519 0.7643689
-0.7759392 1.1480098 -0.40316373
-0.50732696 0.9854325 -0.22182599
-0.47726357 1.140113 0.44812426
0.31463537 0.69577396 0.14977822
0.6653206 0.6560322 -0.43443474
0.5596231 -0.16503671 -0.05159148
-0.64076257 0.3680942 0.18898231
-0.5858046 0.71582466 -0.4253275
-0.2751244 0.70498526 -0.022948895
-0.305912 1.62533 -0.53737247
-0.8267535 1.1985747 -0.22500971
0.20591074 0.8294394 -0.16587573
0.6753366 1.5294635 -0.37900856
-0.92921233 -0.25479075 0.63039315
0.47693467 -0.41421685 0.9043784
0.73218626 1.1232456 -0.1876396
0.18626826 1.439243 0.12709343
-0.3246798 -0.05476418 -0.07618016
0.0752006 1.3121532 0.7379224
-0.7620503 1.3773098 -0.13409129
0.10293783 1.0349016 0.29432788
-0.19129324 0.73241395 -0.5726584
0.08158449 -0.066064805 0.25533637
0.19507858 0.48055655 0.44048855
-0.1264219 -0.4106242 -0.6104646
0.28877687 1.4799657 0.33476114
0.8989989 -0.40733576 -0.48733646
0.2326087 1.3710061 0.4899693
-0.42234027 0.993992 -0.057343043
0.42168593 1.3262703 0.39137265
-0.12155828 0.39844745 0.3845867
0.16534229 0.4237039 0.11844685
0.45618805 1.2758054 -0.30210662
0.7279533 -0.41864628 0.022244614
0.092288755 0.54254794 0.59558594
0.094351426 1.5245925 0.3625004
-0.23106593 1.2916422 0.28421706
-0.0591307 1.0750268 -0.97022367
-0.31327802 0.6130953 -0.86125475
0.156094 1.6359003 0.4834286
0.6029041 0.28941 -0.42719066
0.8954073 -0.4090158 -0.28605172
-0.56982195 -0.4116134 -0.31496903
0.040469594 0.304627 0.2921067
0.029558592 -0.09214667 -0.9163282
0.6001748 1.0082407 -0.074187145
0.10839456 1.7610252 0.292201
-0.7018583 0.4551959 -0.34615964
-0.18542543 -0.40963775 0.6066792
0.58646154 1.3628142 0.07965195
0.2670895 1.170722 0.3738296
-0.35201994 0.14438008 0.042633608
0.55490416 0.72015464 -0.6025526
0.058488857 0.9403312 0.11062856
0.7575277 -0.24301337 -0.73690915
-0.13470373 1.4977367 -0.17040089
-0.31822997 -0.41618544 0.7356788
-0.08802068 -0.415299 0.75157464
-0.61761993 -0.25194454 0.7306607
-0.14259277 0.7382255 -0.7669803
-0.25299197 -0.25928468 -0.9240294
0.72546905 -0.41393363 -0.5804932
-0.59207875 -0.24539497 -0.42034376
0.83877873 0.5864755 0.1883573
-0.13805345 -0.040982716 -0.6138505
-0.016667472 1.2560663 -0.7131076
0.7134385 0.48016253 -0.51433015
-0.33479485 1.1330901 0.012169291
-0.1496163 0.78489876 -0.40149793
-0.5535706 -0.09226007 -0.9151754
0.30742538 0.98179686 0.35411948
-0.8106307 0.7070118 0.15835184
-0.26770228 -0.21599749 -0.37569028
0.5256679 -0.41145217 -0.8983453
0.42337096 -0.22607857 -0.47023883
-0.7002389 -0.4185521 -0.79875004
-0.3196478 -0.25242692 0.9205985
0.3766666 -0.40965176 0.21625885
0.044303387 0.7098764 -0.12412357
0.07603007 0.36663157 -0.5506678
0.81437683 1.3948927 -0.13053176
0.69741774 -0.41779572 0.8779614
0.5621623 0.19162387 -0.029887883
-0.55246884 -0.07164062 -0.3376633
0.67527103 0.61027265 -0.24099073
0.526706 1.6593504 -0.3372029
-0.106761575 1.081536 -0.77980256
0.7165657 0.4236582 0.26236975
0.05654169 1.423557 -0.6259146
0.8948114 -0.4063676 -0.88107646
0.5807307 0.53732324 -0.6875956
-0.7199197 0.56108403 0.2711481
0.48325896 0.9313347 0.3007673
0.5454282 -0.25631234 -0.7758064
-0.36083806 -0.089893594 -0.9128808
-0.105170265 0.36931545 -0.78534067
0.041190743 0.40548283 0.46671242
-0.22002222 -0.22349127 0.18289322
-0.23798135 1.2315159 -0.16906631
0.05169182 0.5824387 0.77111906
0.2030285 0.8649026 0.22182924
0.38350517 0.42784584 0.38734645
-0.92359924 -0.2468875 0.002829207
0.0027008092 0.25097427 -0.43559003
0.14679243 1.4666569 0.64296734
-0.81045955 1.2113476 -0.03485521
0.37290066 0.9387212 -0.7407535
-0.058899745 0.78962815 0.011086818
-0.6135756 0.78051776 -0.23673287
0.6138525 1.4659245 0.36876673
0.044087067 0.20344217 0.4790759
-0.5169097 -0.4194992 0.7103342
0.7536942 0.8869176 0.048409566
-0.30208313 1.5649571 -0.30711627
-0.59393483 0.53068066 -0.04805368
-0.15037633 1.1935631 -0.008044839
0.514878 0.74131966 -0.35631195
0.9029182 -0.088991344 0.32871607
0.24843076 -0.23255195 0.4394637
0.27110106 0.83853185 -0.39298064
-0.46927315 0.51106745 0.55474484
0.10950121 1.8097689 -0.28413987
0.09776914 0.37135446 0.6511646
0.10471442 0.15733519 -0.5849483
0.5274955 1.2104789 -0.10096699
0.39920276 0.7447344 0.5417017
0.613595 -0.24731058 -0.60038567
