0.5896313 1.1706192 0.5915222
0.50845575 0.33526668 0.06834999
0.44140804 1.3321161 0.34584466
0.7449758 -0.2535258 0.7540456
0.40744376 0.80759585 0.5953089
-0.5822461 0.7329259 0.45153493
0.061402164 0.08093685 -0.39756334
0.66133285 0.9974745 0.6138463
0.24061029 1.5913349 -0.48939383
0.7705058 -0.2507359 0.9318609
0.46667862 -0.08396751 -0.7250421
0.004931965 -0.4120323 -0.4767483
0.012403999 1.2098322 0.12015018
-0.7485181 0.83434236 -0.08534062
0.28552246 1.1990579 0.32905573
0.09999578 -0.22691819 -0.5377114
0.34854978 0.28753862 0.23241997
-0.3322765 -0.03204301 -0.5847043
0.12068434 0.4863749 -0.38770336
-0.90483195 -0.09676288 0.73070467
0.44913 1.5302045 0.3955389
-0.6295054 1.2608213 0.019916516
-0.46112877 -0.2550899 -0.9231712
0.43061405 -0.07027385 0.64629257
0.23891672 0.22485918 -0.6495342
0.8464596 1.1716752 -0.11968921
0.8675574 1.0178318 -0.22300304
-0.28817785 0.83989865 0.021843292
-0.24509148 1.4084673 -0.3595215
0.23723005 0.075187474 -0.2461971
-0.45392993 1.1165924 -0.14743562
-0.75323117 0.5796664 -0.42693406
-0.0068634287 -0.10851911 -0.12416731
-0.75723916 1.2912226 0.17013529
-0.72770345 -0.080410756 -0.42615324
0.30789292 0.9436505 -0.4711826
-0.5928061 -0.40728304 -0.11212079
-0.36519864 1.1055973 0.63585687
0.07911073 1.2038474 -0.4199028
-0.29045242 0.62883604 -0.22381385
-0.07527566 1.0654941 -0.4959293
-0.24146205 0.9558539 0.6643231
-0.75222015 -0.061054483 0.21616496
0.22063583 0.41739455 -0.77789295
-0.051950045 -0.07135506 -0.7648428
0.7578195 -0.24760795 -0.48339877
-0.55586267 0.9998346 0.7095579
0.57103324 1.2080076 -0.6153907
-0.10352808 -0.23453084 -0.4687475
-0.17469886 0.899789 -0.74132013
-0.10888179 -0.0846584 0.18506545
-0.7934792 0.9415375 -0.43453255
0.38599163 0.82763433 -0.030861601
0.12386657 1.2081305 -0.03905249
0.19611858 0.7759106 -0.54640955
0.9228815 -0.2523477 0.010032715
0.042998932 0.4865991 -0.84317344
0.82704544 0.6463827 -0.3604408
0.6801876 1.4816666 -0.05802951
-0.2121178 0.07472508 -0.0992427
-0.44678047 1.2022363 0.47554088
-0.1279239 -0.24548781 -0.27098018
0.8550997 1.0353742 0.27079463
-0.7162012 -0.4214182 0.77050686
0.34804183 0.99539363 0.8301301
-0.4921322 -0.4170171 -0.7287135
-0.74436224 0.76956713 -0.49602708
0.17632961 0.21794415 0.1756787
0.31172645 0.6252531 0.81801534
-0.5632327 -0.07339519 0.5354663
0.7480855 -0.090311915 -0.58184505
0.8229852 0.991719 -0.39046752
-0.1512421 1.3641007 -0.526304
0.32535088 0.10063206 -0.03906814
-0.01872037 -0.4113761 -0.7618336
0.7264321 -0.41857082 0.6449183
-0.14061862 0.55853355 -0.8405969
-0.49215496 0.57519656 -0.5079894
0.004686298 0.751448 0.43381292
0.57990706 -0.045167547 0.11631329
0.20635296 -0.413415 0.29208988
-0.3508828 -0.40924764 -0.59114337
-0.37449834 1.0602596 0.8019499
0.08766784 1.2197788 -0.8514774
-0.8899708 -0.09918441 -0.9126521
-0.7607045 0.81826526 0.4583984
0.089083135 -0.4215464 -0.25721323
0.39302975 0.96045864 0.11682619
0.53437066 0.18749703 0.35188138
-0.06632574 -0.039292254 0.5804167
0.08460094 1.561316 -0.2247679
0.11189604 1.01257 -0.11277749
-0.76352555 -0.2368052 0.32062277
-0.5408236 1.5548186 0.23615734
0.41163886 1.0065808 -0.10185054
-0.4750775 0.24515475 0.4858563
-0.87020475 -0.084627524 0.01828927
-0.5214866 0.5994632 -0.033512816
0.73060954 0.955958 -0.53859615
-0.2303243 1.2084503 -0.6106967
-0.22737165 1.4205415 0.6616634
-0.38777804 1.6661675 0.14610069
0.5416312 0.6833402 -0.7261485
0.31267887 1.4522092 0.299823
0.6704749 0.8079394 -0.6311295
-0.41191566 -0.04336311 0.4302649
-0.6174402 -0.09304601 0.91546965
0.4262132 -0.04509344 0.43108463
0.5928186 -0.26778895 0.8982978
0.92141193 -0.25076497 -0.38812184
-0.8935342 -0.4094224 0.10397692
0.74602246 0.8617712 -0.067208596
0.91860914 -0.25079936 -0.18940654
0.52894926 0.36342612 -0.53368676
-0.53082085 -0.41598552 0.47447908
-0.12637872 0.10885802 -0.307908
-0.7037561 -0.4126432 0.395486
-0.096723735 0.38773382 0.158874
-0.35409778 0.88625836 -0.45301786
-0.90660584 0.95612144 -0.03349109
0.004594501 -0.40795654 0.5797637
0.15705147 0.21962288 -0.037468374
-0.69660413 -0.033587545 -0.022109512
-0.71044356 -0.41730592 -0.62498045
0.028077554 0.6675355 -0.7028769
-0.8953181 -0.40852922 0.71766645
-0.9036354 -0.0946757 -0.5312084
-0.6126735 -0.23091176 -0.21887332
-0.3684016 0.8167054 -0.8483979
0.43105546 -0.2570033 -0.92275596
-0.5959951 1.319572 0.4965751
-0.004878654 -0.4132247 0.37704116
-0.21335855 0.53166914 0.80162716
0.3204723 0.9418553 -0.8552052
0.38403884 1.2774887 -0.5206233
-0.5438279 1.2957075 -0.1743336
-0.5225837 -0.24783973 0.9097376
-0.4878673 -0.23641896 0.10488618
0.6184242 0.81399715 -0.40048653
-0.009158783 1.3259941 0.30514988
-0.013488798 0.22417422 0.105264775
0.14091992 0.096994705 0.34209648
-0.2538581 -0.41720024 -0.74884653
0.395285 -0.27051616 0.92095125
-0.25188494 1.2572912 0.5573089
0.38689142 -0.033013422 -0.542027
-0.18304656 0.9072188 -0.54224455
0.8529452 0.5462477 0.0418524
-0.49462152 1.2922087 0.32054806
0.37527958 -0.079223916 0.8740648
-0.054896124 0.64098096 0.87630844
0.25623584 1.2517174 -0.3098482
0.2893628 1.6557207 0.3144447
-0.34852386 -0.2509992 -0.7683682
0.74441767 -0.0628813 0.2170959
0.27752802 0.9165205 -0.17027205
0.41911495 0.7977613 0.8091295
-0.49089396 1.4701703 0.42113292
0.5553819 -0.4169253 0.128252
-0.70360035 0.98269093 0.52928066
-0.13464475 1.0180087 0.44885796
-0.03347341 -0.23055933 -0.64026237
-0.5456352 -0.087285444 0.73855066
0.76472497 1.3369479 -0.2052036
0.19353357 0.56913626 -0.03186245
0.90646887 0.9574765 -0.05501206
0.5710523 0.38784802 -0.12569943
0.57157123 1.3284883 -0.28486073
-0.1201649 1.5372825 -0.22377658
0.40281612 0.22254509 -0.54260206
-0.09431055 -0.41728592 -0.14632666
-0.74139553 -0.4122914 -0.21838653
-0.2764351 -0.41392148 -0.06990411
-0.26366407 0.42852512 0.26916203
0.90363187 -0.089428715 -0.89504576
-0.36514848 -0.41257024 -0.89969724
0.12266068 -0.25196248 0.32546088
-0.8964058 -0.0948054 -0.3353069
-0.02290654 0.7566331 -0.21117316
-0.14727771 0.34621394 0.72195137
-0.65296507 0.60897994 0.13113765
-0.009167195 1.7648122 0.05073869
-0.11765726 1.2339605 -0.39524478
0.9249021 -0.2518701 0.22310261
0.15699983 -0.408078 0.46410814
-0.02763433 -0.25822854 -0.91257805
-0.91323066 -0.26155174 -0.8740338
-0.17373563 -0.41099477 0.25746238
-0.6605891 0.49657708 0.48299968
0.016444715 0.8709922 -0.7738341
-0.27335238 1.1802963 -0.810536
0.7072286 0.7340617 -0.22502637
-0.31827283 0.11728673 -0.35110652
0.6243365 1.2495267 -0.11183059
0.44190997 -0.2366522 0.7536676
-0.013434652 1.2531221 0.61196065
-0.45012942 1.448652 -0.5105686
-0.12274921 -0.2592091 -0.07136782
0.7634552 0.80339956 0.50817215
-0.20895244 0.078690276 0.13527462
-0.18335247 -0.41410017 0.4429885
0.26767302 -0.03774455 0.53492403
-0.2945987 0.9935403 -0.10720581
-0.3209442 1.2061288 -0.288985
-0.51974726 1.2151861 -0.34776223
-0.38648635 0.8594417 0.8033212
0.3727535 0.47132814 0.72637
-0.55063915 -0.06963797 -0.5547685
0.097001664 -0.04507251 -0.6830615
0.20899513 0.86479914 0.075958475
-0.81151783 1.0210727 0.38337624
0.36979938 0.7398063 -0.6453586
-0.6619306 0.66494596 0.5797609
-0.4735951 0.9627167 -0.5978891
-0.106603295 0.86611557 0.5449667
0.045450933 -0.2663852 -0.19205052
-0.76574314 -0.22991435 -0.107990064
-0.046165094 1.4709617 -0.37913913
-0.32470366 0.84407413 -0.2318348
0.2769025 0.93130875 0.66174066
-0.26722842 -0.2324554 0.38303262
-0.4855684 0.32430705 0.21812215
-0.53601146 0.9358834 0.18468708
0.29257864 0.08736926 0.1584948
-0.13793921 1.2057194 0.2257282
-0.897603 -0.40670514 -0.111003265
-0.5742894 -0.40650517 -0.91540116
0.5547086 0.49238545 0.5992906
0.06946145 1.0893992 -0.7195547
0.22155157 1.3304356 -0.76548815
0.40497047 1.2638879 -0.71081865
0.049264535 1.1946125 -0.211039
0.3747214 -0.07448715 -0.18563983
-0.52328587 -0.41340518 0.26903057
0.10349778 -0.06090078 0.46599987
0.101609915 0.06614295 0.13888948
0.8859004 0.81631106 -0.23949623
0.71400905 0.3096739 -0.25894132
0.7377872 -0.087298796 -0.903072
-0.42424616 -0.2367357 -0.4826914
0.17547128 1.739651 0.022600599
0.1023616 -0.2511229 -0.034058746
-0.21706323 -0.407134 -0.45914045
0.44276226 0.51597965 -0.24536997
0.38927075 1.014695 0.33559585
0.3399899 -0.41413537 -0.58315897
-0.29230785 0.24937376 -0.64278674
-0.5403708 1.58535 0.042030703
0.4201875 -0.4084082 0.6124189
0.493469 1.6072979 -0.01864383
-0.07885343 -0.068387896 0.39012572
0.3835296 0.7528815 -0.44843996
-0.35177726 1.6807773 -0.05113668
0.23344746 -0.40156722 0.9098072
-0.20816404 -0.05870238 -0.4218502
-0.046392977 0.08391937 0.25884092
0.14841339 0.5976768 -0.5294716
0.38747668 1.0610273 -0.31785935
-0.6605886 1.1704395 -0.15232502
-0.28969967 -0.24219087 -0.17572954
0.81357765 1.1870842 -0.33080995
0.5465968 -0.40777 -0.4940827
-0.4273839 0.71784985 0.3346364
0.11189699 0.90428674 -0.44171914
-0.38725042 -0.23985569 0.24237351
-0.4626243 -0.055381812 0.23477253
-0.21042849 0.96731853 -0.32957816
0.8931576 -0.09593953 0.9077939
-0.068720594 0.42421234 -0.37732655
0.9282838 -0.25112826 0.8579005
0.06809972 1.3562341 -0.2957102
0.21266854 -0.41375566 0.09903224
-0.09459805 0.8150655 0.746938
0.34159407 1.6949656 0.08055891
0.24248983 0.12176851 -0.46112293
0.66576743 1.1427842 -0.27828926
-0.48331964 0.6150261 -0.23686412
0.4317348 1.2822566 0.67388874
0.7283593 -0.41463968 0.42630708
-0.5883229 1.0786989 -0.69008666
0.5344602 -0.04148761 -0.32913625
-0.54735506 0.86538994 -0.74279726
0.72209966 -0.41455537 -0.38670897
-0.89771414 -0.09629886 -0.14908414
0.7962142 0.42269412 -0.103620715
-0.8675817 -0.09523982 0.91182435
-0.8788396 0.9608811 0.16851696
-0.19296034 0.7473457 -0.12326741
0.3126303 0.46147507 0.122836545
-0.19828355 0.23225495 0.022162791
0.3079511 1.5334437 -0.20027894
0.29267895 -0.24208489 0.21770789
0.100392744 0.703337 0.09651245
-0.15628302 0.673656 0.53264
-0.110626586 -0.26290077 0.9155799
0.5108365 0.87244976 -0.762503
0.70397377 1.1501026 -0.4967948
-0.13259171 1.3803825 0.47163653
0.20411524 1.1772954 0.14149542
-0.1842554 1.1222955 0.8429158
0.26573455 1.0496576 0.016968265
-0.16581312 0.55433786 -0.6532261
-0.5358012 0.15564507 -0.29281962
-0.74572116 -0.40976018 -0.006092411
0.12795877 1.0855644 0.6889235
0.72238654 -0.057945594 -0.19413754
0.7263603 -0.045812126 0.0075282454
0.47328627 1.4129151 -0.14284137
0.7041013 -0.416038 -0.7602868
0.33112952 0.67242336 0.04763911
0.23547131 1.3611231 -0.1565387
0.59290665 0.18442509 -0.22417021
-0.45361027 -0.08038989 -0.7406741
0.6489795 0.20475566 0.15750088
0.28876942 0.60967743 -0.37640536
0.6926417 1.3390332 -0.41747454
-0.50442874 1.3768578 0.13325474
-0.7601354 -0.24064933 -0.32016492
-0.42785293 -0.40933713 -0.19690773
0.7938098 0.6471853 0.37347788
0.3425472 1.2567451 -0.019922974
0.16008592 0.81848013 -0.91080713
-0.7691547 -0.25357038 -0.52657855
-0.35806665 1.2786586 -0.47980243
0.2620419 -0.4076018 -0.2862148
-0.61990947 0.42968297 0.16491702
-0.68768156 0.87589943 -0.28817445
0.44097018 1.0049593 0.5442558
0.10712229 -0.23014462 -0.75924826
0.25162804 -0.07263572 0.32597727
-0.12775561 0.87209 0.317684
-0.58872294 0.79311156 0.0136509165
-0.88801134 -0.41372967 0.32096863
-0.8574356 -0.40593922 0.9046662
-0.73865044 1.230164 0.37546745
0.34153593 -0.41601306 0.77253693
0.6838137 0.6384527 0.55680954
-0.5699196 -0.25101197 -0.7889778
0.2385127 -0.2403629 -0.20277733
-0.8914681 -0.40651047 -0.73442364
-0.44291157 1.1884689 -0.7118076
-0.21645072 0.72503966 0.37039757
0.6190349 1.5407143 0.113640636
0.547638 1.0394993 -0.19379228
-0.61718726 -0.22038402 -0.01832071
0.7260194 0.9891331 0.11301574
-0.893461 -0.40962774 -0.32801425
0.8026995 0.8031914 -0.44759423
0.3349585 0.12946987 0.35531533
-0.6802824 1.4558147 0.10574061
-0.7303216 -0.41220942 0.20869479
-0.38102907 0.6430967 0.78573406
-0.7430292 -0.08803084 -0.6090034
-0.21338427 -0.41303897 0.8978993
-0.6736162 1.1547228 0.55247843
0.8742293 1.1088645 0.06523487
-0.74616635 -0.23276478 0.11027557
0.0152197415 0.44147903 0.32758063
-0.48982543 1.4195778 -0.06439161
-0.52919185 0.37866086 -0.1907815
0.21214168 0.59010994 -0.6932931
0.19005801 0.7772059 -0.7354151
0.26839042 1.1383541 -0.831155
-0.54206324 -0.41282198 -0.5280657
-0.42373955 0.8956494 0.60552394
-0.2599352 -0.056965858 0.30764204
-0.9046166 -0.09879146 0.34516466
0.09564611 -0.03528916 0.66751266
-0.4571932 -0.23285165 -0.09872177
-0.70064235 1.2344339 -0.42039236
0.4858123 0.5388464 0.10035908
0.40920267 -0.057865947 0.017029349
0.19069517 0.16837162 0.5404283
0.7811336 -0.22889519 0.115649074
0.5130692 0.6367887 -0.079758726
0.19532356 -0.08058821 -0.88380075
-0.4274726 1.2343261 0.014238901
0.5986464 -0.23023124 0.42329848
0.32406667 0.67171824 0.4078801
0.46243438 1.4493349 0.16319993
0.12045288 -0.255378 0.14961872
0.6751954 1.1787391 0.07192324
0.5490398 1.0528578 0.19013956
0.0060748607 0.9030154 -0.60614395
-0.020324307 0.6723811 0.2667204
-0.39952964 -0.4112234 -0.39575252
-0.72367 -0.09209439 0.6237131
0.54841256 -0.40907055 0.32981038
-0.9015833 -0.09554953 0.53869903
-0.649275 1.3955414 0.30227804
0.023139678 -0.41550267 0.1876005
-0.6787367 0.8936751 -0.6152426
0.75076187 -0.24168855 -0.29055873
0.42046186 0.4970223 0.45300975
0.00889629 0.8138906 0.9239254
-0.917333 -0.27230412 0.2176653
-0.22052501 -0.09594633 0.9013146
0.12077012 1.0612063 -0.532273
-0.8472202 -0.40710968 -0.91453063
0.3403531 0.689098 -0.1760999
0.27071318 0.4661165 0.31530428
-0.59138334 -0.40521574 0.09607962
0.48704347 0.5406743 -0.43817455
0.18236618 1.5612359 -0.05237877
-0.40942842 1.0189128 -0.30871022
-0.92343044 -0.24898058 -0.6479248
0.8964269 -0.09122475 -0.29065543
0.65257406 0.49115396 0.007800809
-0.7160489 1.0102345 -0.12681735
-0.30387577 0.8680922 0.44539627
0.2524193 0.49019867 0.5575633
-0.5198153 1.2012764 0.6715523
-0.04174105 -0.090144485 -0.32639933
0.52344656 0.73925143 0.09237167
-0.5448843 1.182726 0.18718348
0.14376895 0.58707076 0.38216072
-0.72453976 -0.4151137 -0.4275664
0.39674246 -0.41103774 -0.3975606
-0.07522935 -0.06290066 0.7557243
0.16603062 1.0304711 0.8785398
-0.4991308 -0.04607857 0.020278055
0.5433613 -0.4195276 -0.6722263
-0.40121055 -0.06112466 0.6298634
-0.03678476 1.3948848 0.10881543
-0.7009957 0.26485384 0.00967036
-0.44550785 -0.4098377 0.0024123602
0.20929495 0.41306418 -0.5830439
-0.6750511 0.27203095 -0.20169386
-0.14656675 1.6154983 -0.43579265
0.47453037 0.3925704 0.28131992
0.5499127 0.82355213 -0.14099267
-0.055312097 -0.25871205 0.09958097
0.58281654 -0.06609347 0.53092104
0.12423451 0.65041786 0.86560464
-0.6884536 -0.41263998 0.5937301
-0.21832368 0.7322069 0.8652413
0.50555074 1.2076479 -0.39883524
-0.8881074 -0.089505464 -0.73687285
0.8919256 0.8906698 0.1282056
-0.60764396 1.0976316 0.3620289
0.16446528 1.2541356 -0.6183629
-0.08143112 -0.41092706 -0.3311941
-0.3071156 1.0383093 -0.6418418
-0.26637006 1.4934504 -0.57220876
0.5878202 0.8499038 0.50472176
-0.4096563 -0.04793383 -0.43172562
0.25405747 -0.17810225 0.9272349
-0.7647577 -0.24364194 -0.74430406
0.6862872 1.1129504 0.2794467
-0.4693008 1.1080725 -0.49695164
-0.3470869 0.8742831 0.2303092
-0.33469635 1.3694079 0.40813035
-0.31386274 0.4265041 -0.74858135
0.07158139 0.70422673 -0.3801071
0.09564638 0.88478667 0.765176
-0.61126083 1.0575166 -0.31240743
-0.038713396 1.4335063 0.68126285
-0.21781145 1.5171142 0.34075606
0.020979527 0.34054047 -0.04598102
-0.11910233 1.73964 -0.12647629
-0.08436276 1.2523422 -0.044833004
0.01792759 0.48630807 -0.17165937
0.04192633 -0.10259207 0.05631095
-0.52562904 0.7575076 0.72035
0.2324672 0.75931334 0.7059593
0.7278353 -0.41262245 0.22411433
0.43871522 -0.24111119 0.08114044
-0.87834966 0.5844811 -0.009896535
-0.5039059 0.34227195 0.021560807
0.20636135 0.39414325 -0.059693836
0.0691496 1.0255551 0.09222256
-0.41058993 -0.086190134 0.88598585
0.26160428 1.1361718 -0.16148919
-0.37377417 1.606662 0.34532046
-0.50320566 0.69416684 -0.75457966
-0.22892857 0.43514955 -0.24253808
-0.923591 -0.25636148 0.87076426
-0.30233848 0.5682323 0.6178514
0.3640845 -0.4125751 0.42969197
-0.2440699 1.0286424 0.2672804
0.0408077 -0.41600466 -0.018976655
0.40060207 0.17863722 0.52850735
-0.45635307 0.73097634 0.13547027
0.19511639 -0.41033888 -0.45675582
-0.45371896 0.4473272 0.34861273
0.1625593 1.3802755 0.04760747
0.015860427 0.5588584 0.50912976
0.8691265 0.61339176 -0.1579234
0.2080982 -0.09233563 -0.09627665
0.69938284 0.24683496 -0.05197493
0.1858338 0.9497721 -0.6873223
0.38617975 0.38468888 -0.6679752
0.10053332 0.89792836 0.5682742
-0.15008378 -0.41404426 0.06533122
-0.18870977 -0.073014736 -0.20912421
-0.5207501 0.5619947 0.67538106
-0.5639559 1.2682743 -0.5799296
0.8978174 -0.40883523 0.12022618
0.808444 1.22386 0.21217278
0.5616587 -0.4118448 0.73714375
0.020169651 1.3871253 -0.73893905
-0.2484886 -0.22595336 -0.5895821
0.51926905 1.171209 0.37629056
0.8951773 -0.40974903 0.53348684
0.24998683 1.5376357 0.14346115
0.36334354 -0.08924118 -0.9074967
-0.099249735 1.2513025 -0.8249588
0.14026812 -0.07721184 0.872684
-0.014029103 1.5861394 -0.039869543
-0.23234451 1.701151 0.2524482
0.26702946 1.5601046 0.49512368
0.5989295 1.4667922 0.3049975
-0.57774913 0.9258644 -0.4437988
-0.2516802 -0.07161592 -0.74839246
0.7187504 -0.085415155 0.8772205
-0.7193849 -0.057403874 -0.2197678
-0.4426341 -0.22849587 -0.6376095
-0.49605078 1.596432 -0.1474906
0.6110028 1.0192506 -0.65923214
-0.6238328 0.7551706 0.26492855
-0.343019 0.83541167 -0.6628257
0.35829157 0.5686623 -0.5715267
-0.09458931 0.5928713 0.6882951
-0.33171928 0.48927638 -0.568053
0.426186 0.12274563 -0.19251464
0.87091017 0.6823395 0.17949414
-0.35504663 -0.4120076 0.3527344
-0.37044695 1.3497651 -0.67186797
0.22930974 0.82679987 0.8911178
0.7391319 -0.07996066 0.4267206
0.35464323 1.4761019 -0.0074649975
-0.9225569 -0.25574374 -0.42952162
0.4189939 1.4324455 0.5521741
-0.14397596 0.18448158 0.6051407
-0.87945044 -0.41556793 0.5214733
0.50347626 0.8862256 -0.5394896
0.5116049 0.6655998 0.49359387
-0.3218372 0.14782152 0.48600727
0.5074563 0.6398674 0.71817887
-0.14997487 -0.24541892 -0.7634157
-0.7066384 -0.26360893 -0.9270822
0.39161807 1.1497114 0.1749485
-0.0878907 -0.2211633 0.6378144
-0.15805277 -0.09446561 -0.91666347
-0.8550961 0.80283606 0.28501138
0.1105029 0.36180001 -0.2564057
0.578783 -0.09002723 0.74754006
-0.03261991 0.739339 -0.5373894
0.14754255 1.7187299 0.21965289
0.23475628 -0.41059837 0.60903907
-0.47472847 0.34864885 -0.5914449
-0.29009044 0.44593075 0.072723225
-0.62088346 1.4735779 -0.24460085
0.032608196 -0.23184359 0.47361404
-0.63624156 0.8497445 0.6152328
-0.7714195 0.6375344 0.38347876
0.7497904 -0.23696849 -0.08801058
-0.27080113 1.0937049 -0.45122993
-0.05521369 1.0385685 0.24469513
0.71482116 -0.0742543 -0.38732406
-0.6919055 1.0890169 -0.5291445
-0.8009187 0.43180686 0.095185935
0.5780214 -0.03805333 0.3162307
0.22870457 1.3657434 -0.47050643
-0.13167822 1.3262475 -0.22279549
-0.29073885 1.5277966 0.5171919
0.39120376 1.3925405 -0.33081907
-0.51501733 0.8947338 0.39820236
0.32947457 0.2695533 0.04364251
-0.18752256 0.23785184 0.23405895
-0.40824354 0.72151184 0.5457343
-0.08054025 0.5949925 -0.28332114
0.3205599 -0.2300345 -0.77600026
-0.13220333 0.5405191 0.3656494
0.62738025 -0.2592858 0.075704195
0.65291214 -0.22851127 0.24927962
-0.428304 1.3847835 -0.30038005
-0.17986678 1.3832335 -0.7244288
0.10628283 -0.4085744 -0.6225983
-0.1929596 0.7593537 -0.8946488
0.646876 -0.24622941 -0.91737497
-0.6215854 0.34135246 0.38770282
-0.5987146 -0.24453747 0.25929493
0.5679897 -0.41088784 0.5200455
-0.15117112 0.9378748 0.08638854
0.28638458 1.111056 -0.6460396
0.028315537 0.7286763 0.6554098
-0.6946108 0.925825 0.29055083
-0.15523031 0.44447878 0.5611202
0.8969875 -0.09191806 0.73319423
-0.59755623 1.3905038 -0.40843266
-0.5971736 -0.063757226 0.34458974
0.42140895 0.1339415 -0.38081834
0.3181801 1.1067472 0.6501845
0.2662214 1.2023443 0.79885614
0.691468 0.9052956 0.30413854
-0.163459 0.5601211 -0.07775077
-0.13037871 0.56860685 0.14600535
-0.6237602 -0.24099049 0.46977907
0.14988527 0.6241479 -0.22745195
0.9183769 -0.2520069 0.64510715
0.12728488 1.0112169 -0.90260804
0.41948733 -0.23868255 -0.29397547
-0.56069905 0.14575812 0.12114163
-0.48689365 -0.24837914 0.5886891
-0.33179784 0.3970189 0.49764425
0.9252585 -0.2524389 0.4386403
0.59368926 -0.2464047 0.6423553
-0.567894 1.0725671 0.009755943
0.5327687 0.8701689 0.22403088
0.8523487 0.82308006 0.32187754
0.17513065 0.2870717 0.35020864
-0.3872797 0.49206388 -0.33317846
-0.77318376 -0.25675464 0.53784204
0.19122136 1.7165709 -0.31701797
-0.04128821 1.5176849 0.30502403
0.54752594 -0.088463634 -0.90874064
0.25043273 0.28626058 0.6674016
0.094327986 -0.2601813 0.9222572
0.6574872 -0.0842092 -0.7359136
-0.009641388 1.0425624 -0.30762255
-0.05489356 0.05821299 0.019568607
0.45231646 1.0742856 -0.7614573
0.14637733 -0.088406265 -0.30081013
-0.7878173 -0.25512648 0.7316985
-0.7467258 -0.08404799 0.43441635
0.5206702 0.9360235 0.7400687
0.18805884 1.0399935 -0.31772715
0.08852096 1.1282281 0.3010881
-0.36173716 0.4350124 0.7093563
0.58789456 -0.2215166 -0.21640807
-0.20420434 0.92668897 0.86500657
0.7819098 0.98141086 0.45007163
-0.5777525 0.5740745 0.30743977
-0.20283863 1.60184 -0.046184845
-0.61966425 -0.4055332 0.9029324
0.23880726 -0.23538977 -0.39541453
-0.587147 0.28578675 -0.41854697
-0.4726816 1.5662508 -0.33056384
0.7812992 -0.2455548 0.33976382
0.9143547 -0.24543618 -0.5919994
-0.16915229 -0.10215027 0.0021699513
0.030460518 1.075161 0.5220958
0.33614373 -0.06355557 -0.36486542
0.6155274 0.7887248 0.6767037
0.5358654 1.3481145 0.024067117
-0.70823956 0.9549801 0.058762267
-0.42361236 1.0122967 -0.79833984
0.8962246 -0.4092914 -0.08648664
0.6986413 0.47490764 0.4451674
-0.1553221 0.37881035 -0.5643917
-0.35049465 0.27469152 0.34408373
-0.35583436 0.36071238 -0.45805964
0.061259627 -0.25625658 -0.3667554
0.7165965 0.6335449 -0.5505605
-0.5072284 0.77135193 -0.5453836
-0.048922062 1.0079272 0.7009369
-0.68776923 1.0930332 0.17549932
0.27745306 -0.057630774 -0.6973262
-0.8917347 -0.4085357 -0.535906
0.022346161 0.47650278 -0.66579425
-0.26293522 0.7605852 0.6651872
-0.04370582 0.56332636 -0.49524823
0.890744 -0.40903318 0.7332119
0.23175606 -0.087095216 0.11001639
-0.22283506 0.5439955 -0.42316556
0.037097644 1.4000385 -0.10439215
-0.45204252 -0.23127419 -0.29574984
0.9006367 -0.09145938 0.5325767
0.8861556 -0.4019224 0.9062233
-0.063903116 1.0660331 -0.060348332
-0.4835232 0.5595676 0.49221486
0.5563693 1.5069381 -0.38495386
0.30767775 -0.40512314 -0.9140303
-0.32379726 1.3308078 -0.13270363
-0.5305443 0.16264486 0.3207635
-0.37616757 0.68766284 -0.40386015
-0.13964963 -0.41077 -0.906905
-0.1909515 1.3667619 0.25921178
0.44779572 0.62483037 0.26345783
0.27308682 1.3987908 0.67189515
-0.3656025 -0.40829784 0.5462507
0.57940817 0.41537237 -0.32338235
0.20937622 -0.41031945 -0.7553718
-0.16739327 1.549298 0.13798283
-0.54389334 -0.04789821 -0.15971732
0.53840196 -0.103599206 0.9160682
0.7696599 0.35964367 0.09984326
0.5582818 -0.022248413 -0.12672198
-0.21094498 -0.24606441 0.76066154
-0.050054595 0.88807213 -0.9268975
0.11642347 -0.41438806 0.74648654
0.27607965 -0.2448043 0.009862591
-0.34476662 -0.41334718 0.15147984
0.27142453 0.25268212 -0.21666017
0.0034969386 0.68614405 -0.89635164
0.25133556 -0.23944196 -0.61102223
-0.12277594 1.289926 0.7793088
-0.07856926 1.5572692 0.5467912
-0.24121669 0.9827764 -0.87062645
-0.45455575 -0.23471005 0.40579608
-0.19370997 1.7442716 0.082008205
-0.13368893 -0.24112266 0.48134995
-0.3544423 0.65451324 -0.63491577
0.10170013 0.5401228 0.18533736
0.22665496 -0.25101334 0.7720295
0.93304324 -0.2489864 -0.7806767
0.44548342 -0.23985319 -0.62200165
-0.30658573 -0.25225413 0.025029354
0.2790023 1.1478351 -0.45733273
0.7232212 -0.40052247 -0.9181912
-0.74877846 1.3148377 -0.2454797
0.05463723 1.5643129 0.13115741
-0.3460707 0.27585918 0.12893206
0.14469957 1.4919536 -0.62696433
-0.92368436 -0.26304597 0.42655024
0.45138395 -0.23055205 0.5279037
0.4088494 -0.23594156 0.35954136
-0.9110275 -0.110033736 0.16805556
-0.49504125 0.5168468 -0.6966741
0.4725935 0.14141583 0.16928203
0.4244559 0.315468 -0.31807148
-0.32578957 -0.07722037 0.117388085
0.0036372058 -0.058922905 -0.50128853
0.70325035 0.68186647 -0.022938568
-0.40563393 -0.23408967 0.7513759
-0.23571044 0.23478737 -0.19842581
-0.06928876 -0.24593624 0.29608604
-0.24725986 1.3262726 0.07490176
-0.42525265 0.7495507 -0.1048273
0.7774021 0.48462301 -0.29709375
0.9031391 -0.089552216 -0.48807907
-0.3120942 1.0451345 0.47805715
0.13929006 0.58617246 0.68331486
-0.32210857 1.2560503 0.74896646
0.5581935 0.32702 0.47405934
0.2691874 0.4600415 -0.23590556
-0.6490112 0.66117954 -0.62270623
-0.17345089 0.1310275 -0.51415974
0.39046323 -0.4151209 0.01522579
0.090048596 -0.40627882 -0.90821767
-0.16149859 1.1220378 -0.22925788
-0.72679675 0.6386038 -0.04018972
0.42503798 0.34581965 0.6135495
0.0103337485 -0.41285896 0.9035275
-0.02606916 1.0001969 0.8961748
0.45732164 1.6186585 0.20301487
0.40974963 -0.06046775 0.22399032
-0.42721406 1.0586054 0.31040603
0.06694604 0.2903224 -0.7426062
-0.45675832 0.5199133 0.13778037
-0.20518701 0.7529837 0.18564862
-0.050889403 0.18852052 -0.10664852
0.26580012 -0.068039775 0.7230746
-0.90820354 0.7785002 0.06695655
0.4815657 1.1125132 0.7390382
-0.7398932 0.7856239 0.12655309
-0.041081227 1.7225478 0.25012797
-0.72962624 -0.08684951 -0.90142405
0.40900555 -0.41399005 -0.18222946
-0.074753284 0.31464213 -0.23460451
0.12704767 -0.22534102 0.6118951
0.89757293 -0.09112577 -0.09073867
0.8885608 -0.083874226 -0.70400757
0.56207186 -0.40807712 -0.28934193
-0.15879752 1.130673 0.6346016
-0.4912923 0.8171338 -0.30919236
0.34580776 0.80711114 0.22044596
-0.30006924 -0.22694722 0.5771891
-0.39830303 0.29860032 -0.2911566
-0.42078513 0.18010727 -0.4943558
0.3885286 0.5530522 -0.7728263
-0.64104635 0.46528247 -0.5360267
0.58926797 0.5355389 0.35167545
-0.67645013 1.4667258 -0.081149906
-0.0879112 1.1931567 0.4225293
-0.61680114 -0.069611624 0.14316496
-0.73146236 -0.08508065 0.79879683
0.50253516 -0.228853 0.2296195
0.017085116 0.04560934 -0.19627517
0.21040174 0.2895084 -0.41858685
0.19437909 0.6163045 -0.8668822
-0.059635196 1.5281932 -0.6110624
0.73102987 1.1619335 0.45351768
0.34136552 0.4194529 -0.44502324
-0.3695703 -0.061528903 -0.26065588
-0.8393258 1.1394235 0.24077028
0.18407688 0.71556187 0.52416205
-0.09562055 0.20512368 -0.6646111
-0.39586252 0.11502968 -0.16525419
-0.83479923 0.754624 -0.32638174
-0.5545945 0.4655061 -0.37394136
-0.42190674 1.3688507 0.6017133
-0.16623726 0.38615346 -0.05857564
-0.14196226 1.6561854 0.41096744
-0.92046523 -0.25913525 -0.22021472
0.5667801 -0.39846563 -0.07640405
-0.8727493 0.9365517 -0.23612341
0.8578507 -0.25046283 -0.9285983
0.45218423 1.0760367 -0.5403426
-0.21041942 0.2832945 -0.40243456
-0.37981498 0.4873477 -0.10408882
-0.31761992 0.6043739 0.23100236
-0.119744435 0.9163561 -0.16007414
0.093006685 0.19649011 -0.2471529
0.5791544 1.008641 0.41374803
0.7524569 -0.24952891 0.540408
0.89385426 -0.40910518 -0.68543243
-0.057930976 0.87227035 -0.3891135
-0.36829823 0.29378754 -0.084792644
0.33304915 1.4221123 -0.63286453
0.41672146 -0.24289279 -0.10701706
0.37676543 1.6369307 -0.34266996
-0.1717538 0.121120684 0.3944306
-0.2359894 -0.046982124 0.5200728
0.2212334 -0.41029456 -0.09902187
0.13511837 0.058429383 -0.048648622
0.6666726 0.61884207 0.17297195
0.3183919 1.7085955 -0.1356082
-0.89561164 0.7563765 -0.13658781
-0.028967343 -0.10126774 0.913645
0.9056901 0.7479676 -0.022368353
0.008197882 0.5006863 0.031889588
-0.25434247 -0.06820096 0.7135314
0.41717172 0.3061555 -0.118108116
-0.34851137 1.4918921 0.03183851
0.38501585 0.49155715 -0.061832145
0.19994926 -0.24900311 -0.92419696
0.088310115 0.87951267 -0.24134943
-0.27090004 1.6818943 -0.25062454
0.56147826 -0.06650298 -0.52883184
-0.3484401 1.2282994 0.20174053
0.40579823 1.5059686 -0.48706707
0.5799236 1.0117323 -0.40460327
0.9047936 -0.09036991 0.112455875
0.624872 0.7287152 0.3334936
0.6188787 0.4267382 0.182079
-0.31713516 0.26969343 0.6309917
0.19512701 1.4903239 -0.34870046
-0.42460257 -0.4097713 0.89312184
0.11374587 1.238246 0.43687963
-0.7314465 -0.25150198 0.91770923
0.35862124 0.74666977 -0.83512414
0.5770075 -0.23103732 -0.41353774
0.69315076 0.92464036 -0.2583096
0.54243505 1.3818343 -0.54361904
0.3366258 1.3270831 0.15292971
-0.82852906 0.5853962 -0.23001388
-0.79643416 0.42651796 -0.11879632
0.39646852 -0.40909344 -0.75972646
-0.6509764 0.53570503 -0.21495554
0.6987314 1.3133118 0.34344324
0.7252333 -0.412548 -0.18382448
0.7172612 1.395545 0.14880285
0.7377267 -0.086094156 0.64730185
-0.6133171 -0.2509226 -0.615453
0.018768659 0.8667282 -0.026143223
-0.25640076 -0.41026354 -0.2675961
-0.36235642 0.11239445 0.25570077
0.19818848 -0.060219407 -0.51456237
0.18502681 0.4327295 0.77428865
0.058958627 1.6269436 -0.46884847
0.44180483 0.8806771 -0.29800022
-0.64484525 -0.08398458 -0.7432231
0.1409074 1.5140264 0.31634182
-0.5678978 0.16141796 -0.0856432
0.311868 -0.2315296 0.61907333
-0.031636365 1.7083001 -0.30356163
-0.30814493 0.5720894 0.4262155
-0.3615269 1.4550734 0.22051942
0.89841926 -0.41003597 0.32687616
0.21765837 0.9862319 0.24449122
0.024800222 -0.22937313 0.7649703
-0.7984432 1.1102595 -0.32460988
-0.53611875 0.92708474 -0.15434803
-0.51519245 1.0329597 0.52127993
0.2554947 0.6374489 0.21011469
0.64534974 0.6151819 -0.37515247
0.5762907 -0.17352675 -0.045669593
-0.68775594 0.27237844 0.20357093
-0.610891 0.68572617 -0.38333958
-0.3092034 0.6409846 0.024078444
-0.32309932 1.5797783 -0.40897155
-0.85206634 1.1435838 -0.14451095
0.17956951 0.7693078 -0.093150765
0.6600809 1.4842328 -0.23846784
-0.93233 -0.25869167 0.6338861
0.48020792 -0.41633993 0.90294576
0.7024123 1.0527632 -0.08233729
0.151897 1.3436792 0.24066634
-0.34524485 -0.07270293 -0.07522555
0.026561042 1.1766424 0.8373836
-0.792333 1.3143947 -0.038622044
0.06412864 0.93979764 0.37949562
-0.22415835 0.716486 -0.5255344
0.07191591 -0.09117232 0.2584292
0.15226835 0.38521653 0.48815495
-0.12589452 -0.4085608 -0.61368465
0.2545252 1.3663962 0.45587957
0.8989297 -0.40815073 -0.4855919
0.19058546 1.2500942 0.60063535
-0.44881168 0.9167697 0.0077117756
0.38401195 1.2085276 0.5038912
-0.1675987 0.32257935 0.41620937
0.13106027 0.37460202 0.14630443
0.43572482 1.2191032 -0.1946445
0.7332002 -0.41519755 0.020382322
0.044047106 0.423416 0.6409312
0.058494847 1.415618 0.47368056
-0.27135453 1.1978369 0.37102357
-0.06468541 1.0736587 -0.88156027
-0.32769608 0.6152129 -0.8188356
0.122556 1.5024066 0.6104542
0.59052575 0.2344802 -0.4149139
0.8948259 -0.40959454 -0.2866363
-0.5741705 -0.40924895 -0.31978732
-0.0026202607 0.25630713 0.30738392
0.03650502 -0.094231956 -0.9158057
0.57016665 0.9284862 0.01734938
0.07706412 1.6445074 0.42317277
-0.7350374 0.41094765 -0.33089226
-0.18705353 -0.40534645 0.61295986
0.55664873 1.2670608 0.19842663
0.22695929 1.0629346 0.47298932
-0.3835527 0.11578463 0.034510672
0.53644353 0.69281936 -0.5353318
0.019117914 0.85800755 0.18800604
0.7619283 -0.24316067 -0.73915815
-0.1588994 1.4304905 -0.053490087
-0.31939882 -0.4129618 0.73548573
-0.08703415 -0.4109832 0.75386536
-0.61568743 -0.25362426 0.7204872
-0.15561067 0.73146474 -0.7128642
-0.24829161 -0.25982413 -0.9224949
0.72953594 -0.4126919 -0.579378
-0.59971064 -0.23548539 -0.42564833
0.788324 0.4966138 0.2451368
-0.13082962 -0.045009784 -0.608788
-0.030281952 1.2303745 -0.6156535
0.69065 0.4458379 -0.4683458
-0.3688915 1.0515889 0.0966449
-0.18212733 0.75124145 -0.34738964
-0.5495833 -0.09319571 -0.9150306
0.27009708 0.8790959 0.44373724
-0.8428521 0.61663836 0.19347864
-0.2800544 -0.22908366 -0.37919036
0.52935356 -0.41241178 -0.8970138
0.39493275 -0.22414212 -0.4728668
-0.69655573 -0.4190371 -0.7987603
-0.32029992 -0.25561318 0.92163944
0.38459206 -0.41101027 0.22069533
0.011134813 0.652545 -0.074025095
0.0437618 0.3479343 -0.54225224
0.78765655 1.3123376 -0.0022085155
0.6984006 -0.41848388 0.8770726
0.5423155 0.1464943 -0.016720828
-0.56653726 -0.04756965 -0.34896946
0.652315 0.5563223 -0.18260029
0.50506103 1.5951884 -0.20316866
-0.11802252 1.0671575 -0.69527864
0.6815077 0.32252705 0.30921745
0.045258373 1.3858845 -0.506904
0.8956969 -0.40674573 -0.880743
0.5592863 0.5177506 -0.6353181
-0.75302553 0.46019274 0.29308355
0.44790757 0.8275691 0.38669074
0.5467673 -0.25457975 -0.7746781
-0.35457456 -0.091150105 -0.91193
-0.12797102 0.36108416 -0.7662974
-0.0083502345 0.3141548 0.5051875
-0.22023386 -0.24084698 0.18244155
-0.2655614 1.172014 -0.07830013
-0.0014161414 0.46705282 0.8090347
0.16371569 0.78254515 0.30049914
0.34321046 0.321342 0.4400093
-0.92055154 -0.2524895 0.0017783239
-0.012021262 0.24289027 -0.41952068
0.10355991 1.3350582 0.76158655
-0.8371935 1.1346762 0.04220348
0.3591795 0.9231825 -0.6593594
-0.09976335 0.737507 0.046069585
-0.64127064 0.7246469 -0.18777356
0.57487905 1.3411318 0.49504226
0.008973459 0.12974584 0.4910879
-0.5148378 -0.41737938 0.7039062
0.7163223 0.79836804 0.1369718
-0.3197137 1.506891 -0.18750682
-0.63668305 0.45276147 -0.03452222
-0.1877428 1.1190135 0.080283254
0.49750677 0.6931895 -0.28998446
0.90567696 -0.09209803 0.32441908
0.25270897 -0.2336124 0.44886863
0.24766803 0.8034543 -0.3234291
-0.5168488 0.3904208 0.5841503
0.09740893 1.754287 -0.14497896
0.046462364 0.24429804 0.6914102
0.06940293 0.1462598 -0.5840695
0.49800754 1.1339263 0.0028566346
0.35257474 0.62696534 0.6121278
0.6249082 -0.24388814 -0.6054661
