0.62033284 1.2737339 0.502987
0.52274805 0.38136464 0.045498483
0.48314458 1.415622 0.24940391
0.7414973 -0.25282454 0.7552902
0.43235517 0.89818674 0.52200615
-0.554389 0.8583158 0.37582624
0.12425762 0.10571866 -0.3947236
0.6882309 1.0922084 0.54059356
0.29850614 1.6188815 -0.60799384
0.76107764 -0.24695268 0.931234
0.4593622 -0.08474447 -0.7279843
0.00014765537 -0.40500128 -0.47317067
0.051126752 1.2828844 0.02299181
-0.7054434 0.9134932 -0.17599133
0.32679558 1.275752 0.23545797
0.08028082 -0.17701018 -0.5178998
0.3739391 0.32656556 0.20606616
-0.326719 -0.0696609 -0.58343095
0.16403276 0.51184976 -0.4242264
-0.9036964 -0.0937635 0.72294664
0.49278927 1.6177348 0.29139972
-0.57942665 1.3396509 -0.09912248
-0.46547008 -0.25248283 -0.9251694
0.41807964 -0.08221042 0.63734245
0.2936138 0.26158497 -0.6669463
0.8961551 1.2133045 -0.1928726
0.9199554 1.0454276 -0.28135964
-0.27018845 0.9165635 -0.03704922
-0.19052942 1.4577335 -0.4793613
0.25713217 0.09133193 -0.24934125
-0.40021372 1.1759722 -0.24895045
-0.71849877 0.63528717 -0.49664462
0.02850198 -0.11985785 -0.17250423
-0.71433735 1.3851043 0.046074867
-0.7235899 -0.08420564 -0.43060267
0.36385408 0.9694604 -0.53677833
-0.5834545 -0.4129026 -0.11052671
-0.32318506 1.2061756 0.52176225
0.13102895 1.2423414 -0.51658845
-0.2371845 0.6822215 -0.26692292
-0.034964867 1.1038457 -0.58432484
-0.21058199 1.058975 0.57642365
-0.7454741 -0.078616835 0.20434551
0.27618217 0.4199627 -0.8169102
-0.06153969 -0.08638489 -0.7674465
0.7612853 -0.25127745 -0.49344432
-0.51996464 1.1181595 0.615414
0.6349752 1.2262273 -0.6990521
-0.09782322 -0.21586436 -0.46467865
-0.116457835 0.91827464 -0.8244186
-0.101242125 -0.058441788 0.16710132
-0.74472773 0.993908 -0.5294428
0.4234584 0.87834084 -0.11041422
0.1655196 1.2623926 -0.133739
0.26029396 0.79105306 -0.6037252
0.9208554 -0.24806762 0.013674294
0.093629256 0.482341 -0.8890178
0.8718962 0.668206 -0.39472413
0.71669424 1.5286219 -0.16144958
-0.21265954 0.10247018 -0.11080598
-0.40395314 1.298889 0.36874127
-0.105935834 -0.22029002 -0.278176
0.89272547 1.110227 0.20561661
-0.7253239 -0.42058936 0.7758114
0.36625826 1.1040926 0.74723005
-0.49696553 -0.41854304 -0.73183084
-0.6994201 0.8123395 -0.5782064
0.1978161 0.23318768 0.15169892
0.33123744 0.7324235 0.7639241
-0.57101095 -0.08596777 0.50746226
0.738555 -0.086272046 -0.58258045
0.87295496 1.0120904 -0.45067918
-0.095838256 1.4011312 -0.63917
0.3399763 0.124235556 -0.056065194
-0.019334763 -0.4139765 -0.7632342
0.7241582 -0.41881543 0.6491554
-0.09401665 0.55672187 -0.9077258
-0.4345547 0.6017214 -0.56233275
0.03696517 0.8341814 0.3588903
0.5698787 -0.051144026 0.117474005
0.19448757 -0.4110043 0.28242618
-0.35116988 -0.41389856 -0.5942389
-0.3453902 1.1755017 0.7034514
0.15171663 1.2254748 -0.9374433
-0.8906476 -0.099056005 -0.91415656
-0.7403244 0.9283839 0.3740177
0.07832987 -0.4337303 -0.263462
0.43253386 1.0165769 0.03983844
0.535469 0.26408216 0.31473273
-0.078130126 -0.07222499 0.5625259
0.13013095 1.5998379 -0.3390879
0.15486307 1.0555812 -0.1973857
-0.7628476 -0.24498509 0.30581796
-0.48494428 1.6371348 0.103761554
0.44878036 1.0610518 -0.17411877
-0.46152252 0.3615725 0.43505037
-0.86011374 -0.07869312 0.011613585
-0.479784 0.6838174 -0.11285856
0.7882273 0.9640155 -0.60007024
-0.17342876 1.2374582 -0.7107073
-0.19058526 1.529886 0.5399094
-0.32891566 1.7357357 0.003076089
0.5971718 0.6922355 -0.77904487
0.35792348 1.534789 0.19544199
0.72429276 0.8182492 -0.687276
-0.40216845 -0.07808388 0.39280182
-0.62219834 -0.08990224 0.9113442
0.40557754 -0.069441795 0.43067044
0.58005303 -0.26905936 0.8979043
0.92051804 -0.24713966 -0.38880217
-0.8951033 -0.40639037 0.098599955
0.7880286 0.904196 -0.12349556
0.9179667 -0.24773577 -0.18590795
0.58329916 0.37884897 -0.5689161
-0.54443705 -0.42136243 0.48817378
-0.097173765 0.13239433 -0.33249706
-0.72025204 -0.41623425 0.39976555
-0.06982468 0.42495614 0.11734696
-0.29870224 0.91340494 -0.53433824
-0.858721 1.0433934 -0.13325748
-0.0021142936 -0.41292965 0.56906295
0.18031235 0.2528345 -0.06621061
-0.6860641 -0.08119519 -0.04320356
-0.71333724 -0.4179005 -0.6257113
0.07386877 0.65728056 -0.7756578
-0.90006685 -0.40402514 0.7153169
-0.9032988 -0.09210266 -0.5323143
-0.5989653 -0.24030218 -0.21192
-0.30498776 0.83451784 -0.92276645
0.42768365 -0.25487155 -0.92367876
-0.55273175 1.4241188 0.37615445
-0.014484001 -0.40917212 0.36738163
-0.1935393 0.63796437 0.7499704
0.3806664 0.95001113 -0.92288256
0.43113536 1.297564 -0.6179811
-0.48272657 1.3552961 -0.28611842
-0.52431417 -0.2459361 0.9134296
-0.4340704 -0.21728843 0.08706758
0.6652979 0.83759475 -0.45521694
0.03926564 1.4118717 0.19843775
0.009693405 0.24300435 0.08679531
0.15935163 0.12918963 0.34950215
-0.25575203 -0.42007804 -0.7537215
0.367459 -0.2534746 0.9228015
-0.21182396 1.365779 0.45360512
0.3638765 -0.0642934 -0.5579387
-0.13288951 0.9302421 -0.6257025
0.8867964 0.59148574 0.01862958
-0.45087057 1.3877532 0.2059438
0.39845228 -0.07671695 0.8595222
-0.036464952 0.75091565 0.80977166
0.30937487 1.2867708 -0.40877122
0.33390912 1.7340207 0.19993371
-0.35439008 -0.259032 -0.7694509
0.738512 -0.08227259 0.22228092
0.3216106 0.96221834 -0.2538795
0.43748683 0.90288687 0.73822093
-0.44995606 1.577096 0.29700744
0.5436367 -0.41702163 0.12765059
-0.67391354 1.0912235 0.43152583
-0.10088599 1.1097682 0.34119594
-0.03110895 -0.24602993 -0.6327542
-0.53411794 -0.080455855 0.7260675
0.81398046 1.3655887 -0.29846293
0.22821188 0.60720897 -0.083290085
0.95359063 0.997918 -0.10722414
0.5893203 0.42482287 -0.15698181
0.61549467 1.3574164 -0.37370944
-0.07006641 1.5906513 -0.34754914
0.44741932 0.2536008 -0.54799783
-0.09961486 -0.42140022 -0.14806667
-0.7387029 -0.41598302 -0.21665713
-0.27057576 -0.4092794 -0.07807881
-0.23141046 0.49280035 0.22278556
0.9033564 -0.088801004 -0.8978224
-0.36964768 -0.41136837 -0.9026342
0.11505078 -0.24072 0.31719127
-0.89577174 -0.09215605 -0.33849317
0.011500952 0.7933085 -0.27745673
-0.12954889 0.45352137 0.6781509
-0.6236317 0.70337296 0.061985612
0.04947062 1.8262465 -0.07351876
-0.06815906 1.2772483 -0.5002745
0.9241296 -0.24779765 0.22610435
0.14786395 -0.4075668 0.45154318
-0.031144857 -0.25699914 -0.91688836
-0.91561824 -0.25999022 -0.87250304
-0.1805166 -0.40284982 0.2521821
-0.6443428 0.6082667 0.4220698
0.07196343 0.86932886 -0.8350115
-0.21268077 1.1948769 -0.90844256
0.74906915 0.76592964 -0.27202767
-0.3119227 0.13029067 -0.36457098
0.6718148 1.2934694 -0.19626132
0.43682173 -0.24322611 0.7528392
0.022460788 1.3470911 0.5115922
-0.3858514 1.4904056 -0.63587135
-0.10655132 -0.2567237 -0.08700067
0.7866068 0.8897386 0.45268437
-0.20354944 0.11837609 0.13938725
-0.19629171 -0.4162638 0.43990028
0.23735987 -0.07603684 0.5303047
-0.2457541 1.0392551 -0.19972187
-0.26747322 1.2541655 -0.3960798
-0.46554852 1.2681527 -0.45451945
-0.3628409 0.9782905 0.72299564
0.39256954 0.572018 0.67781764
-0.5472908 -0.083257556 -0.5545777
0.08221814 -0.0582437 -0.6754633
0.24555294 0.93367755 -0.011697378
-0.77539974 1.13452 0.28040358
0.42594093 0.7458134 -0.7069037
-0.642997 0.7772979 0.5046536
-0.40835667 0.99076205 -0.6799535
-0.065180466 0.9712048 0.462703
0.051974338 -0.29913756 -0.18637481
-0.76232433 -0.24765608 -0.11036225
0.0064902706 1.5124595 -0.49592093
-0.26837808 0.8853521 -0.32061768
0.30801156 1.0291672 0.5797665
-0.25997543 -0.22201791 0.36143014
-0.4443483 0.42630666 0.15960282
-0.49975026 1.0277495 0.08992909
0.30366358 0.099138916 0.14867069
-0.09256048 1.2739227 0.14011666
-0.8973262 -0.40588206 -0.10835407
-0.57916564 -0.40497184 -0.9170282
0.5777607 0.5764379 0.561695
0.12917048 1.1009828 -0.8062599
0.2793549 1.3503823 -0.86400133
0.46699795 1.2726755 -0.80474484
0.097834036 1.2383785 -0.30922803
0.38032502 -0.06539084 -0.18491557
-0.53483284 -0.4149598 0.28974423
0.080792256 -0.023017198 0.4385594
0.10470571 0.07804701 0.15699194
0.9340063 0.8444816 -0.278314
0.7433155 0.34828615 -0.26565045
0.7360807 -0.085945144 -0.90117264
-0.41191715 -0.24192315 -0.47844476
0.22976345 1.7999599 -0.100308195
0.09729746 -0.24048513 -0.035950944
-0.21704209 -0.40279883 -0.4580599
0.47582936 0.55083865 -0.28503272
0.42435718 1.0879962 0.2515416
0.33285832 -0.415255 -0.5809506
-0.25095522 0.29278117 -0.674533
-0.4799311 1.6595136 -0.09923245
0.41652185 -0.41242516 0.6109185
0.53690803 1.6747123 -0.1279263
-0.09622416 -0.038503475 0.38543564
0.4358021 0.77742565 -0.5063032
-0.29533625 1.7562644 -0.1961116
0.22797237 -0.40002733 0.91075766
-0.19782257 -0.02015113 -0.432742
-0.03703694 0.102831736 0.26701206
0.18907954 0.61988616 -0.58050776
0.4399035 1.0987707 -0.39513183
-0.60672295 1.2351453 -0.26814306
-0.26651198 -0.21898988 -0.18852618
0.8616675 1.2042446 -0.3996567
0.54016125 -0.4107459 -0.49111086
-0.38555136 0.80961764 0.264336
0.1694843 0.928805 -0.521957
-0.41795442 -0.23920971 0.25951505
-0.4174031 -0.039003756 0.19365972
-0.16184539 1.012804 -0.42351753
0.89287 -0.09476047 0.9078487
-0.023893243 0.44730726 -0.40767825
0.9258561 -0.25102565 0.8616457
0.12060988 1.3967298 -0.40281782
0.20255846 -0.40979075 0.09588768
-0.070723206 0.92850935 0.6644496
0.38692412 1.7558757 -0.03264158
0.30406463 0.1284948 -0.4914996
0.70540684 1.1726956 -0.3561015
-0.4332369 0.68123937 -0.30189344
0.4567291 1.3856285 0.5800352
0.72569144 -0.41683206 0.42770743
-0.52580297 1.098758 -0.7768325
0.5433132 -0.052961383 -0.3126188
-0.49001712 0.88956225 -0.8261647
0.72064555 -0.41674423 -0.38799447
-0.8977263 -0.09351986 -0.15134773
0.83052886 0.4604632 -0.120171815
-0.8675525 -0.09152901 0.9085302
-0.8369967 1.058521 0.07163052
-0.14655834 0.8229398 -0.16185501
0.33096665 0.49205565 0.07359433
-0.17911592 0.26395738 0.0013131408
0.35903984 1.5762084 -0.30165935
0.28005672 -0.2194913 0.2181549
0.16218548 0.7611009 0.0377947
-0.12317303 0.772112 0.46088785
-0.11429679 -0.26087746 0.9172737
0.5683066 0.8817975 -0.82869494
0.7626606 1.1570925 -0.5730269
-0.09357971 1.4800345 0.3580042
0.24177876 1.2452147 0.051778838
-0.15824234 1.2357162 0.74135184
0.30621713 1.1130755 -0.064399585
-0.11084651 0.5670241 -0.71162385
-0.49964932 0.2164787 -0.322815
-0.7332232 -0.4146437 -0.00096239074
0.16195923 1.1867337 0.5954859
0.71925557 -0.08157055 -0.19267869
0.7284833 -0.079291806 0.012639711
0.51907474 1.4598238 -0.24118078
0.70006216 -0.41565782 -0.76169324
0.36358333 0.7278176 -0.013993124
0.28361332 1.4059727 -0.2584169
0.6088156 0.21765926 -0.22079115
-0.45534942 -0.08275501 -0.74111503
0.64730525 0.26829687 0.14094108
0.3302064 0.6320001 -0.426651
0.7362232 1.3475015 -0.5083965
-0.45183942 1.4586453 0.010505075
-0.7556399 -0.2502815 -0.3226968
-0.42149377 -0.40841907 -0.20089278
0.8284583 0.7128559 0.33743262
0.3862673 1.311377 -0.112036645
0.22263944 0.82018614 -0.9735956
-0.7697463 -0.25371677 -0.5266439
-0.30241078 1.3196576 -0.5903202
0.2480051 -0.3990738 -0.28545892
-0.58947957 0.52922213 0.12345043
-0.6416962 0.93446803 -0.38144097
0.47084936 1.0971606 0.4591449
0.100669116 -0.23424888 -0.7612982
0.24871719 -0.03463362 0.32875603
-0.095818266 0.9426731 0.22820212
-0.5485953 0.87205946 -0.07161768
-0.89331955 -0.41078097 0.31221193
-0.8632909 -0.40270996 0.9044409
-0.6938202 1.3335271 0.25345084
0.33272326 -0.41611692 0.7697586
0.7073802 0.72183204 0.51131475
-0.5736749 -0.25041467 -0.79005784
0.23250148 -0.22612295 -0.20157182
-0.89385486 -0.40518105 -0.73258257
-0.38256273 1.212925 -0.8138348
-0.16120318 0.77794456 0.2740944
0.6492006 1.5980254 0.0001641603
0.59351635 1.071521 -0.2605219
-0.5918083 -0.24369922 -0.009568
0.7727382 1.0495486 0.04090876
-0.8950475 -0.4086549 -0.32536364
0.8557918 0.82251143 -0.48796195
0.35175183 0.16215469 0.33456028
-0.6216999 1.5333549 -0.027323406
-0.7268218 -0.4148616 0.2025722
-0.35613173 0.75945425 0.71602404
-0.7433268 -0.08459028 -0.611189
-0.21502149 -0.4115352 0.90045094
-0.63519925 1.2591705 0.44293267
0.92144626 1.1638169 -0.0025895082
-0.75511324 -0.24034378 0.09475304
0.046668462 0.49041858 0.2714797
-0.4308136 1.4904697 -0.19363077
-0.49740446 0.4421001 -0.22467472
0.26316428 0.5943111 -0.7423359
0.23940842 0.7758088 -0.7917671
0.3327686 1.1506145 -0.9174326
-0.54163975 -0.41490412 -0.52969646
-0.39215362 0.9999462 0.51598907
-0.25281665 -0.012830798 0.2956471
-0.901348 -0.09429176 0.33626896
0.08054371 -0.08557124 0.6530572
-0.43298095 -0.22398493 -0.10585526
-0.6413839 1.2846582 -0.5418203
0.5025592 0.6014318 0.06607796
0.4084128 -0.025884312 0.01958922
0.19758226 0.24758928 0.5079372
0.775957 -0.2462196 0.12030506
0.5454793 0.67918277 -0.1285555
0.18694296 -0.07972696 -0.89052224
-0.37371045 1.3127193 -0.09491943
0.5955571 -0.24590892 0.42390022
0.35126162 0.7452009 0.3444574
0.50278974 1.5177639 0.06179805
0.10635838 -0.2405754 0.14260712
0.72100914 1.2368349 -0.009416552
0.5897126 1.1153631 0.11400573
0.051131696 0.9523994 -0.67874616
0.015175665 0.7356808 0.19391826
-0.39668453 -0.41285053 -0.39756125
-0.7166469 -0.086431846 0.61717296
0.5371748 -0.41329262 0.3280791
-0.89393353 -0.0907253 0.529101
-0.6031351 1.4920536 0.17561418
0.012495026 -0.4118628 0.18193287
-0.62308645 0.92452955 -0.702611
0.75442624 -0.2510237 -0.28844005
0.44620204 0.58224213 0.39932066
0.026865821 0.9304348 0.8347554
-0.9210141 -0.2662238 0.21158409
-0.2330252 -0.091444686 0.8990419
0.17012396 1.0907626 -0.61341226
-0.8506974 -0.40581793 -0.9145808
0.3718866 0.716931 -0.22833943
0.2780546 0.5158882 0.26901132
-0.55944616 -0.4118091 0.10316106
0.5309229 0.56543964 -0.48127615
0.23020864 1.617095 -0.16518709
-0.35853046 1.064322 -0.4036234
-0.9250307 -0.24698555 -0.6465926
0.89624196 -0.08660835 -0.28943065
0.67009187 0.5379602 -0.026700754
-0.66831046 1.0820384 -0.23045096
-0.24865273 0.9268893 0.37271672
0.27173924 0.582206 0.4971212
-0.47578603 1.3129747 0.5612999
-0.0059634224 -0.0584208 -0.37296793
0.5612315 0.79963243 0.022805624
-0.5033134 1.2753922 0.07325165
0.16440263 0.6597965 0.31605658
-0.7248162 -0.4171425 -0.4282518
0.3838883 -0.41011044 -0.3948245
-0.1004301 -0.08228747 0.7459613
0.18526635 1.134408 0.7909533
-0.47634047 -0.030280076 -0.0006834802
0.538749 -0.41963845 -0.6711308
-0.41424498 -0.09016983 0.5875895
0.014097054 1.4646497 -0.003313166
-0.6755614 0.35631806 -0.048557404
-0.42614147 -0.40555662 -0.008973993
0.2629427 0.43662113 -0.60776407
-0.6419849 0.3436942 -0.25512397
-0.08633661 1.6638099 -0.56988096
0.4845011 0.47773194 0.23889905
0.5956188 0.8629931 -0.1988439
-0.071502715 -0.24013267 0.08919689
0.57899606 -0.08433448 0.53474987
0.14333327 0.75344396 0.8032156
-0.70261633 -0.41251916 0.60050666
-0.1955606 0.85012794 0.7885958
0.55259955 1.2328441 -0.48863167
-0.8893682 -0.08781923 -0.7379063
0.9401166 0.948229 0.081145585
-0.5655539 1.1982336 0.25928062
0.2262347 1.2742008 -0.71607924
-0.08835802 -0.40397763 -0.3314271
-0.24823445 1.0631125 -0.7370099
-0.20301403 1.5357192 -0.6973454
0.6145662 0.94102824 0.43268865
-0.39597315 -0.044893466 -0.4316259
0.24482027 -0.10895255 0.9182832
-0.7671672 -0.24155352 -0.7445469
0.7245163 1.1920056 0.19945034
-0.42081478 1.1509595 -0.5968202
-0.31749183 0.966995 0.1609965
-0.29280236 1.4595437 0.29032427
-0.26944193 0.4501267 -0.80617404
0.11017728 0.734867 -0.4432556
0.12083265 0.99308264 0.67805755
-0.55797607 1.1117246 -0.41709468
-0.0037730164 1.5381123 0.56432974
-0.17754903 1.6035024 0.21671948
0.0400588 0.37075013 -0.06897701
-0.06408377 1.8020709 -0.25710315
-0.03693123 1.3083081 -0.15461443
0.05357866 0.5125874 -0.20586066
0.05236218 -0.07494156 0.030925665
-0.5006623 0.8750899 0.64017683
0.25619996 0.858134 0.6344756
0.7233956 -0.41798937 0.22507298
0.41991168 -0.21975921 0.07759145
-0.8438379 0.66908485 -0.08688958
-0.47960347 0.40879345 -0.02234725
0.23291826 0.4230836 -0.09297027
0.10514199 1.0915928 0.0005562394
-0.42105708 -0.08566946 0.8883691
0.30212492 1.1840589 -0.25063264
-0.3318293 1.7042065 0.20774364
-0.44548917 0.71859354 -0.82210994
-0.187546 0.4681729 -0.2730844
-0.92549515 -0.24984053 0.86483186
-0.27707922 0.67425746 0.5546195
0.35424906 -0.41567457 0.42448312
-0.20497403 1.1057568 0.16122517
0.032223836 -0.41676784 -0.014790598
0.39622998 0.27527592 0.48272187
-0.42574894 0.81292325 0.06440994
0.18746257 -0.4056742 -0.45417672
-0.4329576 0.54218864 0.2910952
0.21115994 1.440891 -0.05739286
0.04433035 0.64516884 0.4513687
0.9081284 0.6474592 -0.18620315
0.21761225 -0.060356714 -0.09514482
0.70847535 0.29611093 -0.058364082
0.23723924 0.9545065 -0.7553371
0.44648 0.3929422 -0.70497483
0.13599172 0.99048454 0.48674276
-0.15945894 -0.41233557 0.06595649
-0.1665867 -0.0334991 -0.23969963
-0.5007149 0.6786528 0.6084125
-0.50299656 1.3111272 -0.6934716
0.8975327 -0.40815616 0.12204711
0.8482704 1.2951238 0.1289906
0.5553142 -0.41437572 0.7405276
0.082375176 1.4086643 -0.8466115
-0.24045116 -0.24192706 -0.59327483
0.55365574 1.2525223 0.28896174
0.8942326 -0.40886655 0.5335375
0.2947201 1.6050088 0.03423851
0.35802668 -0.08784659 -0.9086461
-0.03332126 1.2591579 -0.9123527
0.09932022 -0.07526726 0.8507395
0.033558495 1.6451709 -0.15923977
-0.18173835 1.7742357 0.11263889
0.30348808 1.6530962 0.38167155
0.6441016 1.5461936 0.2005409
-0.52649283 0.96686053 -0.53508055
-0.25597486 -0.087444514 -0.752725
0.7206612 -0.081394374 0.8726115
-0.72439396 -0.08224495 -0.23126578
-0.4464045 -0.24062726 -0.63540614
-0.43646586 1.6641614 -0.28592765
0.67170995 1.0290818 -0.72770953
-0.5874798 0.85467386 0.18834835
-0.28612858 0.8561148 -0.73820364
0.4076226 0.58108085 -0.6155124
-0.07203506 0.6961552 0.6280425
-0.2700544 0.5114913 -0.62593234
0.45629525 0.11755246 -0.20707902
0.9068436 0.74059474 0.1446662
-0.3591305 -0.4139943 0.35491067
-0.30633178 1.3766255 -0.7847929
0.24668059 0.9368371 0.8137809
0.7390199 -0.083051264 0.43284535
0.40271485 1.5330569 -0.109741
-0.9236318 -0.25408614 -0.42939043
0.4511602 1.523349 0.44625872
-0.13156058 0.29178 0.55289865
-0.885944 -0.40971345 0.5179589
0.55728066 0.90378034 -0.60699797
0.541711 0.7516209 0.43757117
-0.3144734 0.24555969 0.42852724
0.52721775 0.73881966 0.6638124
-0.14952111 -0.25663096 -0.76587677
-0.71090716 -0.26156008 -0.92837334
0.4315698 1.2128377 0.08730616
-0.09515041 -0.2391071 0.6266607
-0.16456483 -0.09124631 -0.9190122
-0.8214073 0.9101577 0.19796921
0.13992265 0.3755423 -0.2906181
0.5752971 -0.08859755 0.7436994
0.04273495 0.773618 -0.6325086
0.19557545 1.7930126 0.09366861
0.2295246 -0.41870672 0.60023737
-0.43804324 0.38137293 -0.65010315
-0.26733655 0.48848012 0.030759413
-0.5557903 1.5270005 -0.37895793
0.040425844 -0.2084837 0.4663237
-0.60901034 0.9683616 0.5325748
-0.7467262 0.7491548 0.31016475
0.7437798 -0.25121567 -0.085716784
-0.22929224 1.1295594 -0.55146
-0.013071434 1.1035826 0.14923427
0.72193015 -0.08337152 -0.3920049
-0.63862014 1.1269486 -0.6308347
-0.77104837 0.52683026 0.033444673
0.57208335 -0.07591822 0.3266378
0.28242648 1.3976097 -0.5759258
-0.07751942 1.3790367 -0.336129
-0.25503266 1.6317353 0.38792342
0.43952113 1.4252095 -0.4292379
-0.4640004 0.99695945 0.3039883
0.3490255 0.2875225 0.031440724
-0.1655744 0.28097266 0.2078692
-0.3865954 0.8224626 0.4781304
-0.039491624 0.6232555 -0.32519144
0.3101489 -0.23941265 -0.77987814
-0.09228636 0.5990336 0.31690645
0.6100564 -0.26179233 0.06506095
0.63907063 -0.25004232 0.24404067
-0.36999255 1.4329607 -0.42191
-0.11859207 1.3997525 -0.8323639
0.101827666 -0.40574908 -0.61504847
-0.12730989 0.76246685 -0.9669296
0.6446028 -0.24416274 -0.91878057
-0.6081426 0.44480696 0.33344662
-0.5971459 -0.2526456 0.20582
0.5655979 -0.4151278 0.5213468
-0.110415116 0.99197376 -0.005180411
0.3419044 1.1179183 -0.7346884
0.054478295 0.82720214 0.5865122
-0.6528456 1.0244355 0.20989573
-0.13295293 0.5390619 0.50898457
0.8969847 -0.090637356 0.73392284
-0.5397341 1.4405246 -0.53813577
-0.5726228 -0.08786915 0.30983692
0.45705134 0.15634383 -0.380598
0.34851006 1.2060785 0.5603684
0.28843564 1.3123331 0.7042924
0.72892505 0.98768497 0.22963631
-0.1261279 0.60766935 -0.119300574
-0.113036245 0.61515176 0.104064494
-0.60888916 -0.25598598 0.40277332
0.1816026 0.6560887 -0.28178582
0.9172574 -0.25075418 0.64728796
0.19048516 1.0169084 -0.97502387
0.4096015 -0.23022643 -0.29340523
-0.5305687 0.23020062 0.080504745
-0.5376257 -0.25788546 0.5922329
-0.3073542 0.50265574 0.432537
0.92330134 -0.24903613 0.44015026
0.58917737 -0.25296885 0.6446435
-0.52670574 1.1578634 -0.094699316
0.5690378 0.92944586 0.15815666
0.8857485 0.89750564 0.26961154
0.19951507 0.32574022 0.31838384
-0.3424108 0.5372435 -0.35637522
-0.7455321 -0.24868816 0.52944255
0.24588227 1.7361042 -0.42828
0.0034023304 1.602272 0.19032702
0.5442769 -0.08678521 -0.9103677
0.2621547 0.3948245 0.6219087
0.104993105 -0.2459617 0.9266825
0.64865005 -0.081608295 -0.7340361
0.043338276 1.081979 -0.40508968
-0.059366398 0.08091751 0.023165708
0.5199262 1.0849972 -0.8401771
0.17910405 -0.07031876 -0.3066176
-0.7901797 -0.25117344 0.72438353
-0.73569036 -0.08299178 0.4136538
0.53948176 1.0371927 0.65943587
0.2361536 1.0771191 -0.40177727
0.12323507 1.2050682 0.20963022
-0.3397362 0.54519856 0.65552044
0.5785898 -0.23460448 -0.20797169
-0.18386616 1.0442073 0.7878133
0.8130263 1.0650995 0.38346386
-0.5485666 0.68096507 0.2428258
-0.15547895 1.661046 -0.17826226
-0.6265899 -0.40374023 0.90600896
0.25741774 -0.21152301 -0.41306746
-0.55080426 0.3432325 -0.46424896
-0.40732324 1.6086837 -0.46243727
0.77574956 -0.24920595 0.3400281
0.91589063 -0.24241382 -0.5951841
-0.13014577 -0.0797486 -0.046235517
0.06482923 1.1637123 0.42678598
0.36828023 -0.026224911 -0.37998265
0.6390023 0.887115 0.61017406
0.57913774 1.4015478 -0.06923962
-0.6663059 1.0433133 -0.039897434
-0.35952872 1.0297003 -0.8944712
0.8950137 -0.40806478 -0.08300896
0.7236849 0.5436719 0.4166968
-0.10557921 0.40092134 -0.58923185
-0.32884315 0.35449725 0.29092345
-0.33838823 0.41496962 -0.49369794
0.08041941 -0.25329942 -0.35509574
0.7658084 0.6546413 -0.58755934
-0.45491058 0.80080515 -0.6191465
-0.018568452 1.1235678 0.61275077
-0.64767873 1.1830384 0.0755326
0.2609926 -0.07776792 -0.7121558
-0.893932 -0.40720904 -0.5334936
0.07275213 0.48559183 -0.6946942
-0.23509282 0.8661029 0.5919789
-0.0053321077 0.59821343 -0.5385667
0.89005804 -0.40825456 0.7335163
0.23601781 -0.066263445 0.11013564
-0.1844132 0.56534564 -0.46257132
0.08772893 1.4522066 -0.2127217
-0.43097803 -0.23091239 -0.29615644
0.9006725 -0.08872622 0.5351989
0.8820263 -0.40196133 0.9057753
-0.02147745 1.1173512 -0.15616381
-0.46190745 0.67019844 0.42172578
0.60441315 1.5295339 -0.4814273
0.30387253 -0.40401977 -0.9161116
-0.26398832 1.3863785 -0.24838024
-0.508212 0.27712294 0.2697999
-0.32070205 0.7215744 -0.469229
-0.14209028 -0.40968576 -0.9100651
-0.14047833 1.4436576 0.14948218
0.5016778 0.7204342 0.21514428
0.30016726 1.5087599 0.56062925
-0.37987858 -0.41410148 0.5585887
0.6117987 0.45122838 -0.35628796
0.20299539 -0.41242242 -0.7533866
-0.11477973 1.6169615 0.012855621
-0.5279691 -0.052446783 -0.16670847
0.54772955 -0.10366385 0.91898906
0.7923145 0.41104317 0.08041492
0.55748445 -0.0061482787 -0.10902285
-0.21563077 -0.25319195 0.7592074
0.01537105 0.893503 -0.99443996
0.11365758 -0.41804296 0.7457032
0.26249295 -0.23071066 0.01030399
-0.34968722 -0.4080037 0.15473187
0.29982817 0.2654861 -0.23765408
0.064175725 0.68840206 -0.9633288
0.23048913 -0.24343972 -0.59972245
-0.09114131 1.3976903 0.66413486
-0.03971216 1.6577263 0.42380166
-0.180469 0.99460816 -0.9687542
-0.43582574 -0.25504738 0.4388517
-0.13783294 1.8086969 -0.06354875
-0.1255557 -0.2524835 0.45913565
-0.3003922 0.67799085 -0.6940526
0.13721281 0.59448767 0.12743348
0.21999484 -0.25252277 0.78013563
0.9308573 -0.24656755 -0.78283876
0.42339852 -0.25115222 -0.63515186
-0.27041155 -0.23446363 0.00906113
0.33008638 1.1700155 -0.5481662
0.7220844 -0.39962274 -0.9186312
-0.6841418 1.3722675 -0.37038216
0.10491605 1.6318543 0.016617175
-0.32893708 0.3067233 0.094371624
0.20512614 1.5202243 -0.7457979
-0.91790545 -0.25665894 0.42157292
0.44388452 -0.24539346 0.5226164
0.40094563 -0.24413306 0.35102436
-0.9124284 -0.10340363 0.15760179
-0.4473058 0.54279625 -0.7558961
0.48570654 0.15204605 0.15483838
0.4526298 0.3417617 -0.32142824
-0.27775294 -0.034764703 0.07776737
-0.011731392 0.05644086 -0.53484726
0.7440406 0.7215717 -0.069597945
-0.41502663 -0.24313197 0.7419083
-0.2181322 0.2515198 -0.22445986
-0.07126568 -0.22472045 0.28051007
-0.18758088 1.38989 -0.034487702
-0.37701547 0.8293654 -0.1797431
0.8237296 0.5081355 -0.31870705
0.902314 -0.08620412 -0.49282256
-0.28705472 1.1066744 0.36406592
0.16483393 0.68286955 0.6242504
-0.28850594 1.3656323 0.63683856
0.57676435 0.4069454 0.43932647
0.2995441 0.4848857 -0.26829225
-0.5976832 0.6925818 -0.6915146
-0.19306663 0.15072012 -0.5432633
0.3805347 -0.4111479 0.015661933
0.08753316 -0.4055148 -0.9104389
-0.11115691 1.1722672 -0.32995683
-0.69064236 0.72403836 -0.1139774
0.44315287 0.4393142 0.5723802
0.010873452 -0.40763724 0.905473
-0.007480956 1.1141533 0.8042043
0.5012483 1.6888545 0.10030451
0.41427642 -0.031870436 0.23443162
-0.39071882 1.1641651 0.20023313
0.11432779 0.30865324 -0.76281273
-0.43441436 0.6034949 0.056036953
-0.19971722 0.8231542 0.10751183
-0.037555203 0.20642716 -0.11954981
0.25628364 -0.08312388 0.7262932
-0.86463714 0.8694413 -0.019314079
0.5084719 1.2135496 0.64541507
-0.69784606 0.8840624 0.046769373
0.0074034706 1.8014989 0.11482878
-0.73185754 -0.08503245 -0.90092254
0.39665103 -0.41348836 -0.18350132
-0.049010783 0.3326248 -0.261236
0.12130763 -0.2600854 0.6087669
0.8964655 -0.08721053 -0.08808035
0.88412887 -0.081067234 -0.70663035
0.5524459 -0.41182095 -0.2887783
-0.13108185 1.2241387 0.5182982
-0.44371623 0.86731184 -0.39283848
0.37089372 0.8692292 0.14366964
-0.29854918 -0.24965288 0.57287014
-0.3646167 0.34175006 -0.31361696
-0.3822247 0.2302942 -0.5123537
0.44407317 0.560421 -0.82015073
-0.5982915 0.504262 -0.59504807
0.6239635 0.6118554 0.3092413
-0.61381924 1.5348312 -0.21565415
-0.04200601 1.292993 0.32826278
-0.59469306 -0.08503357 0.11806252
-0.73016167 -0.080832005 0.790655
0.4857661 -0.22607833 0.22047381
0.027037412 0.047148235 -0.18721446
0.24744391 0.29560336 -0.43335983
0.25562683 0.6130942 -0.92464143
-0.00025814818 1.5568842 -0.7291739
0.7657226 1.2493877 0.37244338
0.38947636 0.43576694 -0.46793985
-0.3628471 -0.035301857 -0.2707007
-0.8015953 1.241404 0.12433714
0.21093526 0.8014864 0.45414507
-0.05126077 0.22349516 -0.6693574
-0.4063394 0.1233868 -0.18254074
-0.79079217 0.8140049 -0.4090916
-0.5147232 0.52003896 -0.4152537
-0.38312626 1.4813108 0.47828054
-0.14248663 0.4205518 -0.09364419
-0.096024126 1.7461493 0.27986944
-0.9215045 -0.25692078 -0.22215587
0.5555885 -0.4018354 -0.07663763
-0.8286389 1.0053446 -0.33453354
0.8544544 -0.24965662 -0.9289001
0.5072237 1.0960398 -0.62530226
-0.19066417 0.3145994 -0.42665523
-0.3429066 0.5338732 -0.14724386
-0.3047109 0.66153276 0.16801193
-0.06607814 0.9688634 -0.26270658
0.10495019 0.21045451 -0.25106102
0.61381054 1.0929837 0.33562207
0.751213 -0.2519639 0.5433178
0.89142644 -0.40830612 -0.6868167
-0.009854857 0.90221643 -0.47596687
-0.34685647 0.3184412 -0.11205375
0.39188582 1.4491353 -0.74001443
0.40116197 -0.23997785 -0.104561046
0.43277568 1.6653055 -0.44609687
-0.1675385 0.1658911 0.37698978
-0.24403045 -0.07969945 0.5069939
0.21329251 -0.41035116 -0.09879116
0.14387164 0.09443795 -0.03253968
0.7021997 0.6806246 0.1268861
0.372507 1.7591822 -0.25300294
-0.8537543 0.8305763 -0.21979165
-0.04740049 -0.09704865 0.91399956
0.9480963 0.79115486 -0.058489475
0.0363827 0.54972637 -0.008216772
-0.2894471 -0.08201976 0.71277237
0.43656057 0.3203619 -0.12742528
-0.29265246 1.5551088 -0.09472812
0.4194731 0.5246252 -0.09944168
0.19420779 -0.24817477 -0.92720056
0.13246411 0.91533065 -0.3220485
-0.21200864 1.7350166 -0.38788393
0.5481393 -0.07467978 -0.5222281
-0.29797497 1.3126632 0.097718075
0.45685375 1.535549 -0.5930326
0.627983 1.0347395 -0.4766947
0.9015006 -0.08683522 0.11732902
0.6768501 0.80954975 0.2830742
0.64264905 0.49371827 0.1496829
-0.2986567 0.38414052 0.5702173
0.25060564 1.5245742 -0.45609885
-0.42948836 -0.40840527 0.8953185
0.158529 1.3227901 0.33760956
-0.7391772 -0.24711859 0.9187664
0.4165251 0.75085473 -0.89934516
0.5928432 -0.24042027 -0.39761627
0.74201536 0.95737886 -0.32010084
0.5845377 1.3981521 -0.6345273
0.3815565 1.3920918 0.05808404
-0.7939757 0.65076125 -0.3012057
-0.76188993 0.49713284 -0.17747374
0.3923414 -0.41267872 -0.76296055
-0.61090446 0.603351 -0.27192253
0.73381245 1.3938129 0.25422335
0.7206125 -0.416651 -0.18403599
0.7599826 1.4625332 0.054836944
0.73683596 -0.08341766 0.6483165
-0.61814404 -0.2549883 -0.6173447
0.050167613 0.91205823 -0.10189263
-0.25498617 -0.40140456 -0.27127373
-0.36241323 0.15889466 0.23637298
0.18877745 -0.022911958 -0.51941884
0.20476422 0.54236823 0.73689115
0.11823948 1.6548114 -0.58562505
0.48849863 0.9143058 -0.36032483
-0.6447979 -0.081073456 -0.74275583
0.18278961 1.5954298 0.2098063
-0.5444275 0.2261127 -0.117927134
0.3025179 -0.24677901 0.61590654
0.023036364 1.7503028 -0.42951655
-0.2745136 0.6717972 0.36407107
-0.3092876 1.5343642 0.097624466
0.8976078 -0.40853918 0.32722616
0.2520615 1.0556836 0.15960732
0.014043047 -0.24472481 0.76731336
-0.7445288 1.1653137 -0.43623462
-0.49051872 0.9920726 -0.24984787
-0.48676527 1.1336582 0.4243918
0.31922632 0.66927814 0.16265723
0.6868807 0.6410533 -0.41138893
0.5563861 -0.16414285 -0.053554825
-0.6579573 0.3741075 0.14876902
-0.56461513 0.72841334 -0.45985794
-0.2746377 0.7021029 -0.04092515
-0.25774202 1.6277579 -0.5411376
-0.8023728 1.2125852 -0.26004386
0.21649545 0.8160493 -0.1643785
0.71123314 1.5097489 -0.34242672
-0.9271288 -0.25138536 0.6213497
0.46473402 -0.41073972 0.90492415
0.7523047 1.0993483 -0.15596268
0.19944721 1.4200823 0.13788569
-0.3214581 -0.05404377 -0.097394615
0.058476333 1.2927536 0.73801017
-0.73662007 1.3866851 -0.1675995
0.09910375 1.0151945 0.29444665
-0.15616593 0.7359423 -0.5885836
0.07186538 -0.07579312 0.2501142
0.17105758 0.4595874 0.4408812
-0.12746441 -0.41504052 -0.6129681
0.29201898 1.4561508 0.34897763
0.8981314 -0.40721703 -0.48767018
0.22837108 1.3476361 0.50137174
-0.41881248 1.0023973 -0.083159715
0.41876706 1.3001907 0.41039315
-0.14524624 0.387784 0.36833704
0.15360354 0.4036014 0.11191527
0.4830858 1.2589896 -0.2788244
0.7261156 -0.4188593 0.02231665
0.06319608 0.52453244 0.5918977
0.09800024 1.5019004 0.372051
-0.2274886 1.2762654 0.28226528
-0.0038077487 1.0833812 -0.9740297
-0.2755236 0.63239807 -0.8862611
0.15450037 1.6155369 0.49060357
0.6216538 0.27828228 -0.41599917
0.8951857 -0.40855822 -0.28564614
-0.5707281 -0.41187447 -0.31901917
0.019723311 0.28847608 0.27887678
0.02855417 -0.09031865 -0.9162562
0.6116474 0.9867715 -0.050553255
0.11976341 1.7408974 0.30111232
-0.6980249 0.47680527 -0.38851792
-0.19232556 -0.41223764 0.6105528
0.5968821 1.3357784 0.1084114
0.26260638 1.1474192 0.3833054
-0.38410512 0.1323731 0.018976808
0.58642876 0.709538 -0.58560383
0.0632435 0.9233599 0.10853054
0.75621843 -0.24197213 -0.7347206
-0.10554753 1.4903665 -0.17223427
-0.3218583 -0.41595703 0.7420064
-0.08995572 -0.41516763 0.75328875
-0.62113696 -0.2501052 0.74640584
-0.10748081 0.7430817 -0.78248775
-0.25218937 -0.25786275 -0.92409474
0.7240462 -0.4126941 -0.581211
-0.5925882 -0.24836893 -0.42582962
0.82751805 0.55414546 0.21995112
-0.1287348 -0.05704762 -0.6040427
0.030389573 1.2556362 -0.7114405
0.7391744 0.46817994 -0.4936868
-0.32502434 1.1324962 -0.005201664
-0.12905309 0.7814357 -0.41281772
-0.55330956 -0.09107947 -0.9161129
0.29916686 0.95883906 0.36253744
-0.81637865 0.7191069 0.1175735
-0.26186767 -0.20470539 -0.38444036
0.52685726 -0.41114545 -0.8985441
0.426854 -0.22959784 -0.47041178
-0.70116675 -0.41821653 -0.80042136
-0.32457608 -0.2536062 0.9186337
0.37019905 -0.4076991 0.21449557
0.050699882 0.7004977 -0.12799643
0.09561943 0.3684727 -0.5556357
0.8353554 1.3677483 -0.08847106
0.6911851 -0.4171425 0.8790076
0.55544055 0.17006704 -0.021934632
-0.5557897 -0.07594441 -0.34615153
0.6880298 0.5885031 -0.21866938
0.56172264 1.6422971 -0.30650145
-0.061952926 1.0892036 -0.78833944
0.7000307 0.3922192 0.28468394
0.10276884 1.4197202 -0.6176411
0.89517474 -0.40607673 -0.8812079
0.6158242 0.53208774 -0.6732026
-0.73591584 0.568755 0.23161317
0.4757679 0.90714025 0.3175544
0.5453937 -0.25519028 -0.7751272
-0.35968393 -0.08869326 -0.9137013
-0.07991411 0.37404817 -0.80452216
0.012089401 0.39501217 0.4554823
-0.24388285 -0.2089699 0.18175882
-0.2177732 1.2235696 -0.17869267
0.015185781 0.5650778 0.76523155
0.20019534 0.8432056 0.22605702
0.36255243 0.40650293 0.39476705
-0.9258195 -0.24486369 -0.005002594
0.0058635045 0.25038576 -0.45102888
0.13673007 1.4448351 0.6484326
-0.7920184 1.2236477 -0.07005328
0.41190338 0.92995334 -0.72683144
-0.053081542 0.7760496 0.00918741
-0.600708 0.7919215 -0.27109098
0.61348194 1.4355414 0.39976922
0.010701616 0.19281417 0.4694643
-0.5249841 -0.41858816 0.7134907
0.75692344 0.8584549 0.077431664
-0.26558313 1.5632356 -0.31414154
-0.59955263 0.5425143 -0.07994804
-0.13532549 1.1837118 -0.015155533
0.5331213 0.7271769 -0.33764905
0.9028499 -0.08745164 0.32751745
0.24486953 -0.23329574 0.433419
0.2935947 0.82586217 -0.38553736
-0.4977086 0.5069655 0.5255157
0.1483095 1.797447 -0.2702133
0.06063699 0.35197428 0.6450046
0.13623467 0.17316705 -0.6013651
0.5441838 1.1890441 -0.07635628
0.3776273 0.71799093 0.55319613
0.6088133 -0.24336007 -0.5988153
