0.62745893 1.3628666 0.4627524
0.5218303 0.44715527 0.043041535
0.47672215 1.4940481 0.21072426
0.74264205 -0.251242 0.75550175
0.4467413 0.9834318 0.5025543
-0.5431268 0.91161823 0.39792717
0.107467815 0.11308677 -0.3659169
0.7002928 1.1829716 0.502198
0.25207815 1.6593513 -0.64932966
0.7670442 -0.24674976 0.93357325
0.45596668 -0.08436778 -0.7232274
-0.00062951894 -0.4069204 -0.4663744
0.039819583 1.3434943 0.006732873
-0.71769494 0.9460926 -0.14899439
0.32212806 1.3515294 0.20890495
0.08363981 -0.19846374 -0.5156807
0.3810755 0.3925463 0.20920536
-0.33280557 -0.081166565 -0.57356167
0.1489385 0.5496432 -0.40913802
-0.9039317 -0.09304018 0.7281827
0.48453796 1.6986703 0.24567333
-0.5992515 1.3785226 -0.09155363
-0.46731853 -0.2515064 -0.9229561
0.42091113 -0.08168494 0.63873243
0.26230955 0.2868191 -0.6360282
0.87575734 1.2795331 -0.24256727
0.89753556 1.1086881 -0.32540455
-0.26776052 0.9598551 -0.03650868
-0.228472 1.4958711 -0.494295
0.2586192 0.11102623 -0.2229974
-0.4227227 1.2168854 -0.24364978
-0.7323823 0.65346646 -0.4565029
0.016370274 -0.09273921 -0.13939759
-0.729613 1.4269605 0.057542253
-0.72322917 -0.08408968 -0.42403874
0.3323172 1.0105404 -0.5550486
-0.5852504 -0.41453832 -0.10650459
-0.31439757 1.2781057 0.52818245
0.09626062 1.2816398 -0.5344044
-0.24863327 0.7200035 -0.24977154
-0.06580465 1.1361187 -0.58994806
-0.19576007 1.1338569 0.57839835
-0.74219286 -0.07816897 0.21499527
0.24550861 0.44434434 -0.8001776
-0.06374903 -0.09046283 -0.7625667
0.76103926 -0.25108618 -0.4896884
-0.50435895 1.1848462 0.6268991
0.59319365 1.2654412 -0.74062186
-0.095836505 -0.21532503 -0.4543901
-0.15613018 0.9386835 -0.8178717
-0.09310512 -0.047050357 0.1745756
-0.7734766 1.0135555 -0.50447536
0.41141707 0.9397587 -0.122037314
0.14684138 1.3191766 -0.15375191
0.22519518 0.8295321 -0.61120987
0.9212916 -0.24681392 0.014539745
0.061126817 0.5048486 -0.86744875
0.85041445 0.72214544 -0.42054492
0.68760407 1.5890024 -0.21318874
-0.19024521 0.11727929 -0.07687886
-0.40295887 1.364946 0.370646
-0.110244304 -0.21956643 -0.26753378
0.89281106 1.1922524 0.15942729
-0.7225173 -0.42024672 0.7763287
0.38864952 1.1986582 0.72397023
-0.4985242 -0.4192466 -0.72840035
-0.725713 0.82958674 -0.54642653
0.20910594 0.2796746 0.17003801
0.3592275 0.82205874 0.7535459
-0.5671348 -0.086895 0.52012515
0.73891073 -0.085652374 -0.5798396
0.8428447 1.0636282 -0.49078184
-0.1396615 1.4331875 -0.6560709
0.35851964 0.14658192 -0.026992228
-0.021573339 -0.41422588 -0.75983095
0.7259058 -0.4184515 0.648491
-0.12585124 0.57172835 -0.88453436
-0.4534074 0.6279522 -0.5308132
0.04679635 0.90504277 0.35904562
0.5669586 -0.074531764 0.11758049
0.1973806 -0.4119096 0.28412122
-0.35149342 -0.41506904 -0.5893283
-0.32651755 1.2495799 0.70809585
0.09852542 1.2462132 -0.95420116
-0.8910485 -0.09865736 -0.9121525
-0.7308507 0.98165834 0.40132186
0.078052476 -0.42673668 -0.25045532
0.42471218 1.0857706 0.019264653
0.54766035 0.3429929 0.31349188
-0.06986411 -0.07840804 0.56077796
0.093789 1.6489558 -0.37248808
0.13794231 1.1093397 -0.20709528
-0.7612152 -0.24488139 0.31531876
-0.5054221 1.687687 0.09740771
0.4324138 1.1185305 -0.19837289
-0.43299198 0.42301166 0.4673912
-0.8554183 -0.07754429 0.021431077
-0.48264223 0.7233085 -0.08377105
0.75193 1.0090594 -0.6349653
-0.21479508 1.2636961 -0.7177757
-0.18880911 1.6069314 0.5284885
-0.35436958 1.7868992 -0.013895359
0.5609944 0.722701 -0.79179
0.34634566 1.6091168 0.1581808
0.6881543 0.856194 -0.7115395
-0.3971886 -0.084553584 0.40633756
-0.61769557 -0.08955328 0.9137019
0.40761876 -0.08117589 0.43048078
0.588497 -0.2657567 0.90027875
0.9203745 -0.24542454 -0.38583577
-0.89611435 -0.4055726 0.10581364
0.77418005 0.9713318 -0.15687533
0.9175963 -0.24627097 -0.18424134
0.55461097 0.4159329 -0.5659225
-0.5394721 -0.42332727 0.48960623
-0.09132013 0.14541233 -0.29484087
-0.71784914 -0.4168973 0.40316513
-0.059834123 0.47112906 0.13763815
-0.32608604 0.9463854 -0.5202831
-0.8729186 1.073705 -0.10749051
0.0013687201 -0.41418022 0.573471
0.18614882 0.279942 -0.037783477
-0.6802759 -0.08243887 -0.036076233
-0.7144197 -0.4178322 -0.622991
0.04490456 0.6888405 -0.7619075
-0.8988048 -0.40490425 0.7187569
-0.9028939 -0.09069005 -0.52686095
-0.6003619 -0.24471906 -0.2055698
-0.34421232 0.8431185 -0.9021772
0.4252965 -0.2539022 -0.92161083
-0.55613065 1.4865717 0.37978682
-0.008522522 -0.4112556 0.36811668
-0.16436869 0.7150909 0.7660447
0.33635616 0.97254384 -0.9405825
0.39142078 1.3376813 -0.6501375
-0.5119946 1.3929951 -0.2856232
-0.52286506 -0.24421802 0.91417795
-0.4382754 -0.22864097 0.09336822
0.63941944 0.8854679 -0.47941792
0.028761167 1.4800589 0.17922166
0.020887885 0.27809697 0.11164038
0.1747904 0.18445432 0.35648832
-0.25734764 -0.42143005 -0.75028634
0.38497835 -0.25849336 0.92377496
-0.21033481 1.4349246 0.4442544
0.36218584 -0.0768152 -0.5448116
-0.16273849 0.96009564 -0.6177277
0.8826517 0.66621995 -0.009112057
-0.45866686 1.4443362 0.20622432
0.3858903 -0.072198726 0.8646376
-0.0071327705 0.835924 0.8111004
0.27705032 1.3337016 -0.43530574
0.31908095 1.809614 0.15574646
-0.35678905 -0.26187736 -0.7664838
0.7360023 -0.0832852 0.22126883
0.3042046 1.0141044 -0.26672524
0.4597268 0.9953077 0.7149609
-0.46041647 1.638102 0.2934183
0.5460228 -0.4196291 0.12896603
-0.6639985 1.1491847 0.44953322
-0.09761855 1.1801276 0.34377128
-0.03940232 -0.24357258 -0.6279042
-0.5355377 -0.08020468 0.7311519
0.78327155 1.423 -0.34821704
0.22386985 0.65927637 -0.078174956
0.9397596 1.067642 -0.15217707
0.5810569 0.48500803 -0.16121924
0.5815098 1.4074972 -0.41681677
-0.10584303 1.6366267 -0.37236315
0.4191845 0.28716373 -0.5278993
-0.095831335 -0.41487533 -0.14206757
-0.7414129 -0.416349 -0.21265921
-0.26717365 -0.41075575 -0.07145332
-0.216223 0.5473674 0.2420376
0.90313673 -0.08839063 -0.89550066
-0.37082154 -0.4112795 -0.90078163
0.1206021 -0.23999602 0.31481224
-0.895094 -0.090642616 -0.33024845
0.0032674617 0.8404355 -0.2743119
-0.099951476 0.52950096 0.6963564
-0.61884 0.7458525 0.09224683
0.018335396 1.8832902 -0.1107668
-0.10229638 1.3152902 -0.512341
0.9244599 -0.24640629 0.22804385
0.1521798 -0.41031438 0.4549388
-0.03304396 -0.25611216 -0.9136932
-0.9158353 -0.25936937 -0.8702699
-0.17443371 -0.40701568 0.25238135
-0.6272373 0.66497445 0.45625526
0.033031374 0.8940803 -0.8364879
-0.26145932 1.2100922 -0.9133649
0.73082125 0.82435083 -0.29750305
-0.28788197 0.14980307 -0.31555808
0.6477455 1.3538992 -0.23779377
0.43907818 -0.24028713 0.75537103
0.027343053 1.429379 0.4937117
-0.43081793 1.5171204 -0.64380944
-0.10760866 -0.24176013 -0.07936933
0.7983669 0.9798777 0.41836423
-0.1893954 0.13475016 0.17015654
-0.18893933 -0.41883713 0.44038475
0.24501142 -0.083355665 0.5331092
-0.2628485 1.0882134 -0.19510719
-0.2971171 1.2930956 -0.3985995
-0.49786687 1.2986809 -0.45062917
-0.34152457 1.0530732 0.7363764
0.4219276 0.65976006 0.67327625
-0.5475699 -0.08434637 -0.54648346
0.080596544 -0.07265976 -0.6656581
0.23654665 0.9938235 -0.019810967
-0.77344525 1.1778736 0.30022526
0.3919716 0.7801063 -0.71552646
-0.6257766 0.8389993 0.533708
-0.44455692 1.0120338 -0.66569734
-0.05563485 1.0411422 0.4615762
0.05242638 -0.2689978 -0.18527904
-0.76330185 -0.24789998 -0.103347115
-0.033727325 1.553599 -0.52098006
-0.28671288 0.92625207 -0.30531323
0.3215435 1.1158762 0.561314
-0.2559976 -0.23256525 0.3657438
-0.42962164 0.4733887 0.19096662
-0.50380915 1.0764062 0.10492854
0.32024246 0.1310978 0.17162281
-0.10133888 1.3403999 0.12513238
-0.89932287 -0.40436304 -0.10367464
-0.5797998 -0.4049826 -0.91496193
0.60191727 0.66517746 0.54857683
0.08482832 1.1276553 -0.8172585
0.23001586 1.3725979 -0.8885586
0.42061308 1.3067344 -0.8388315
0.07215494 1.2878127 -0.3250594
0.37473518 -0.05124545 -0.18109435
-0.53001213 -0.41595727 0.292107
0.09247112 -0.05470521 0.4321354
0.124759816 0.10760915 0.17961484
0.9146693 0.90718365 -0.3163237
0.7288603 0.4052754 -0.2748993
0.73493844 -0.08520061 -0.89908415
-0.41504645 -0.24597561 -0.4725675
0.19887921 1.8612192 -0.14254028
0.10076374 -0.23156697 -0.032363653
-0.21557444 -0.4047294 -0.45211172
0.4608459 0.6017994 -0.28698784
0.42438155 1.1648636 0.227711
0.33212355 -0.41701704 -0.5766425
-0.26052332 0.3114445 -0.6292442
-0.5078939 1.7035728 -0.10676637
0.41919744 -0.4128934 0.6158008
0.5106554 1.7348846 -0.17841546
-0.083898306 -0.056719113 0.3703545
0.40629673 0.8195449 -0.5190054
-0.3295414 1.80408 -0.21697837
0.23120993 -0.39522603 0.91538596
-0.19837335 -0.026004083 -0.41154557
-0.020230481 0.13557123 0.29249385
0.16806355 0.65589154 -0.5704987
0.41213366 1.1464792 -0.42087835
-0.6320014 1.2694604 -0.25605744
-0.26865438 -0.22166349 -0.17637743
0.8315759 1.2600571 -0.4504105
0.5402658 -0.41177952 -0.48920846
-0.3784629 0.8671297 0.27968112
0.14072795 0.9695843 -0.52554333
-0.39729765 -0.23897229 0.25478733
-0.4188514 -0.06496425 0.20832649
-0.18653257 1.0509067 -0.41831097
0.8927505 -0.09389016 0.9080662
-0.033111602 0.48118043 -0.382538
0.92658854 -0.24933004 0.85995173
0.08582334 1.4422091 -0.42720684
0.20360935 -0.4089954 0.09673472
-0.05115697 1.0065174 0.66523284
0.3611281 1.821382 -0.07968934
0.2731518 0.16103317 -0.44481105
0.6794251 1.2267767 -0.3953876
-0.44448352 0.7131948 -0.27549416
0.46464893 1.4747604 0.5422883
0.7271038 -0.41692996 0.42909655
-0.5661689 1.1134704 -0.76267254
0.5305653 -0.07116683 -0.31204504
-0.52635795 0.90079665 -0.801094
0.72126985 -0.41738462 -0.38568738
-0.8962072 -0.091784656 -0.14131352
0.82297784 0.5251608 -0.13853493
-0.8679563 -0.09213458 0.91063654
-0.8447009 1.095789 0.09733665
-0.15272978 0.86198044 -0.15970907
0.33285862 0.5520725 0.077075794
-0.1643214 0.29430187 0.029922038
0.3238175 1.6271343 -0.34259468
0.28208745 -0.22654921 0.21307328
0.15510412 0.81949335 0.03645474
-0.10991218 0.842355 0.46964726
-0.11411117 -0.2579579 0.9192543
0.52847457 0.91167176 -0.84867483
0.7270417 1.2029139 -0.6169337
-0.09785317 1.5515839 0.34287792
0.23152138 1.3108113 0.029120281
-0.1392575 1.3167398 0.73435926
0.2929665 1.1732578 -0.08404789
-0.13601638 0.59415597 -0.6884675
-0.48260832 0.24456169 -0.2754503
-0.7367259 -0.4152804 0.0037393877
0.17318924 1.2719173 0.5790726
0.7135903 -0.08452316 -0.18934101
0.7264996 -0.08347592 0.013002882
0.4880975 1.5145568 -0.28261852
0.70024085 -0.41546175 -0.75986826
0.35788438 0.78991437 -0.02229446
0.25438333 1.4589183 -0.28897977
0.59615016 0.27406627 -0.21549982
-0.45668864 -0.08267447 -0.7349405
0.650074 0.34294266 0.13665539
0.31134915 0.67663634 -0.42450106
0.69697523 1.3945768 -0.55674005
-0.4702214 1.5069165 0.008091694
-0.7571361 -0.25142893 -0.3174345
-0.41995054 -0.40954113 -0.19536646
0.8374175 0.79816717 0.30816382
0.36607373 1.3718373 -0.1428216
0.1789234 0.8379406 -0.97873104
-0.7701012 -0.2534529 -0.5231124
-0.34102586 1.3493543 -0.5944837
0.2469022 -0.39979953 -0.2799658
-0.57766473 0.5737953 0.15563904
-0.6628088 0.9622574 -0.35659245
0.47864994 1.182224 0.43177554
0.09941457 -0.23851347 -0.75512266
0.24642256 -0.044623673 0.31767946
-0.09213771 1.0101285 0.23124704
-0.55561733 0.9138478 -0.04827593
-0.89328384 -0.4101354 0.31968778
-0.8612932 -0.40291584 0.9061394
-0.69559777 1.382966 0.2647552
0.33751464 -0.41645956 0.77622044
0.72561336 0.81169385 0.48697582
-0.5744338 -0.25037187 -0.7866417
0.23482311 -0.22087717 -0.19703056
-0.89422965 -0.40444034 -0.7308135
-0.4261337 1.2291954 -0.8084239
-0.15723625 0.849547 0.28971195
0.62904423 1.6674204 -0.05163843
0.57186186 1.1291301 -0.29228
-0.5934487 -0.24877097 -0.002773888
0.76512945 1.1232786 0.0037591239
-0.8962879 -0.40789825 -0.32276714
0.82671547 0.8713325 -0.520455
0.36327848 0.23818316 0.3412029
-0.6451843 1.575985 -0.022741575
-0.7267512 -0.41484925 0.20908651
-0.33101013 0.83299243 0.73538345
-0.7427695 -0.08384001 -0.6057223
-0.21432406 -0.41032392 0.90233195
-0.62422585 1.3197315 0.45113453
0.9098592 1.2390977 -0.0510977
-0.7510209 -0.24138013 0.105302274
0.0584729 0.55188936 0.28552765
-0.4585988 1.5321658 -0.19771567
-0.49291044 0.47437224 -0.19010922
0.23286873 0.6256545 -0.73636794
0.20569037 0.8069037 -0.79708683
0.28309464 1.1728511 -0.93899214
-0.5425582 -0.41600573 -0.5252289
-0.37865728 1.0677092 0.5277313
-0.24082386 -0.03813913 0.2898065
-0.90030396 -0.09326102 0.34416282
0.08694353 -0.08560908 0.65766335
-0.43269944 -0.2271335 -0.09830531
-0.6794245 1.3095627 -0.5292108
0.500581 0.6682279 0.05704124
0.40347576 -0.026814956 0.02422453
0.22249855 0.32161814 0.5153985
0.77876127 -0.24851844 0.122273
0.53533137 0.74080986 -0.14146644
0.18552896 -0.078836784 -0.8830677
-0.3938694 1.3578935 -0.0963825
0.59537053 -0.24789026 0.4251024
0.35987443 0.820796 0.3340592
0.485493 1.5884664 0.018251423
0.11057614 -0.23487714 0.14472461
0.7078322 1.307909 -0.051262513
0.5841123 1.1894495 0.08189355
0.020219646 0.97630674 -0.6808357
0.016157605 0.8026699 0.19824788
-0.39633608 -0.4142945 -0.39209226
-0.71860695 -0.08458618 0.6231837
0.53942436 -0.4149814 0.3305264
-0.8954541 -0.09046422 0.5357182
-0.61785924 1.5432761 0.17939946
0.018082168 -0.41153124 0.18122454
-0.6573672 0.9412147 -0.6763206
0.7537102 -0.25261444 -0.28608745
0.46180725 0.6609938 0.39320773
0.054794405 1.0174422 0.8304788
-0.9204463 -0.26443613 0.21894696
-0.2262553 -0.09012796 0.8992329
0.13546115 1.1254529 -0.627015
-0.8506863 -0.40575114 -0.9133574
0.359747 0.77248263 -0.23481491
0.29099634 0.5888633 0.26981276
-0.56260693 -0.41294777 0.10730906
0.50800025 0.60850716 -0.4868153
0.20041096 1.6743522 -0.20146991
-0.38418764 1.1000149 -0.3945894
-0.9251143 -0.24519828 -0.6434141
0.89369786 -0.085007064 -0.28694588
0.66594464 0.60628885 -0.041166767
-0.6878434 1.1155422 -0.21123436
-0.24405217 1.0012712 0.37753302
0.29091775 0.66180813 0.4959173
-0.46579954 1.3823887 0.5648235
-0.010111688 -0.06072824 -0.3337571
0.55570215 0.86681294 0.0063326424
-0.51279426 1.3233078 0.0796264
0.17312834 0.73098046 0.3157379
-0.726493 -0.41753295 -0.42507195
0.38394952 -0.41126627 -0.39056757
-0.088908695 -0.081846505 0.74795115
0.2081683 1.2274884 0.77472186
-0.4601946 -0.052268438 0.010992676
0.53861344 -0.42055848 -0.6699691
-0.4074861 -0.087078765 0.6007595
-0.005820006 1.5240102 -0.024564803
-0.65950394 0.39076427 -0.0043400954
-0.42702454 -0.4079671 -0.006212372
0.23962355 0.47077516 -0.59333736
-0.6355895 0.36901867 -0.20934245
-0.132539 1.7019968 -0.5969536
0.4935766 0.54913104 0.23369065
0.5775375 0.9225778 -0.22171557
-0.061919294 -0.2359747 0.08988947
0.5790412 -0.084101394 0.53360367
0.17297685 0.84168637 0.7990117
-0.69731504 -0.41164374 0.60146725
-0.1700425 0.92972356 0.79930675
0.5189066 1.2784487 -0.52432376
-0.88882095 -0.08682206 -0.73473346
0.93663746 1.0263863 0.03938517
-0.5660844 1.2507676 0.26871365
0.18180053 1.3064392 -0.73709047
-0.08527735 -0.40377438 -0.3242419
-0.2866711 1.0862646 -0.72992396
-0.25162292 1.5631886 -0.71656907
0.6243471 1.026082 0.40467393
-0.392968 -0.06503132 -0.41597384
0.2495583 -0.14078644 0.9261929
-0.7672342 -0.24090323 -0.7414966
0.7225467 1.27158 0.15833327
-0.45358709 1.1753594 -0.5884794
-0.31650478 1.0229502 0.16480939
-0.2999692 1.5268357 0.28385326
-0.29177207 0.46337146 -0.7670373
0.09221637 0.7752105 -0.43724293
0.14049533 1.0781631 0.66844815
-0.58651006 1.1418833 -0.40212822
-0.0006676663 1.621084 0.5438673
-0.18909949 1.6682484 0.20048144
0.04792188 0.4083523 -0.047745667
-0.10094799 1.8534259 -0.28981602
-0.057723895 1.3622631 -0.16702275
0.04902024 0.55498356 -0.19081977
0.057287272 -0.0613482 0.046269592
-0.4792845 0.94476813 0.6593877
0.27612695 0.94359076 0.62257904
0.72561395 -0.4190101 0.22808485
0.42366815 -0.23249832 0.07725466
-0.8430648 0.7002195 -0.04535284
-0.46622866 0.44910908 0.012158815
0.23279418 0.46724907 -0.07812914
0.09503515 1.151979 -0.008798111
-0.41434866 -0.08326107 0.8863028
0.27998284 1.2366027 -0.27271128
-0.3455738 1.763202 0.1956017
-0.47903675 0.72893226 -0.7932352
-0.18998487 0.50301516 -0.24676172
-0.9258498 -0.2513923 0.8695005
-0.25558352 0.74337023 0.57298636
0.35717696 -0.41768235 0.4285086
-0.20780775 1.1677997 0.16670115
0.03632558 -0.41233772 -0.015782345
0.41891634 0.35613284 0.48420498
-0.422503 0.8611493 0.082180716
0.18529394 -0.40766406 -0.4472947
-0.4138488 0.59969723 0.3145531
0.18988281 1.5020987 -0.08601484
0.060466234 0.7181405 0.45599142
0.8939686 0.7115674 -0.21528631
0.21671236 -0.051429927 -0.08882789
0.7038311 0.3633227 -0.063942514
0.20056482 0.9876041 -0.768389
0.41551265 0.42100656 -0.6946504
0.14620641 1.0696667 0.47682703
-0.15158167 -0.41123652 0.06678361
-0.16612974 -0.028527444 -0.21418703
-0.47592294 0.74582076 0.6319602
-0.5456141 1.3294227 -0.685765
0.8990002 -0.40789917 0.12448645
0.8441043 1.3759251 0.07858221
0.5593302 -0.412883 0.74252963
0.031351272 1.4324617 -0.8676476
-0.2430643 -0.24541631 -0.58463037
0.55301654 1.3334378 0.25298503
0.8948958 -0.40807933 0.5337078
0.27455407 1.6719718 -0.0038341465
0.35508007 -0.08662192 -0.9050871
-0.08597752 1.2787758 -0.92598283
0.119955465 -0.071779594 0.8601173
0.003498375 1.6993897 -0.18960342
-0.20266083 1.8327401 0.08908486
0.29748875 1.7338307 0.34193474
0.63345814 1.6249374 0.15074933
-0.554929 0.9926361 -0.51468307
-0.26026946 -0.089688376 -0.7463924
0.7186239 -0.08154997 0.87475824
-0.7212795 -0.08256605 -0.22391629
-0.44661784 -0.24334814 -0.6314078
-0.46964216 1.7040654 -0.2979816
0.63235414 1.0670753 -0.7622465
-0.5832406 0.9040455 0.2110929
-0.3193302 0.8783764 -0.7200248
0.3805889 0.6172456 -0.6160177
-0.049444765 0.7724515 0.6353608
-0.29085863 0.53994644 -0.59301376
0.4490535 0.15808085 -0.18137936
0.9079778 0.82049 0.11020811
-0.35368007 -0.4156953 0.3543982
-0.35407743 1.3971541 -0.7918548
0.27160546 1.0294791 0.7984556
0.73659384 -0.08264114 0.42955452
0.37707204 1.5943052 -0.15014881
-0.92383116 -0.25196654 -0.42577726
0.4511122 1.6098682 0.40553966
-0.1010925 0.36196065 0.5728574
-0.8843797 -0.4100343 0.52352107
0.52421474 0.94427097 -0.628106
0.5548358 0.83470964 0.41992
-0.28282246 0.30979604 0.45615047
0.5543152 0.827906 0.64857477
-0.15389779 -0.2596864 -0.7625166
-0.71124256 -0.26091883 -0.9262868
0.42285106 1.2841316 0.05890374
-0.09346379 -0.23954853 0.6286927
-0.16536343 -0.08994047 -0.9153082
-0.8208879 0.95249563 0.23000902
0.13571574 0.4135325 -0.26481444
0.5742866 -0.0865674 0.74492604
0.0078880815 0.80339825 -0.6187658
0.174384 1.8631525 0.053969726
0.23183244 -0.41923434 0.606387
-0.4485292 0.3981059 -0.6035571
-0.2581233 0.5363076 0.05387687
-0.5903547 1.560688 -0.37943625
0.04001306 -0.22239348 0.46535158
-0.59594536 1.0307361 0.55291605
-0.7358081 0.7979784 0.34255618
0.7442175 -0.2540657 -0.08399761
-0.25878042 1.1627052 -0.5491184
-0.018396279 1.1717994 0.14524809
0.7166934 -0.08350099 -0.38751656
-0.6742003 1.1477611 -0.6137464
-0.76037943 0.56331074 0.07497935
0.568972 -0.082831874 0.325599
0.24123122 1.4375807 -0.60591054
-0.108853355 1.4239459 -0.3510989
-0.2620038 1.7031121 0.37599528
0.40280414 1.472604 -0.46739665
-0.46076876 1.0546504 0.31953827
0.35253215 0.33457893 0.0391756
-0.1481965 0.32041314 0.23307905
-0.36818838 0.88817406 0.49203223
-0.050367862 0.6653303 -0.3096468
0.30899656 -0.2386148 -0.77706754
-0.07977832 0.66693157 0.32517788
0.6152955 -0.2669525 0.06918347
0.64191043 -0.25389543 0.24785769
-0.4052208 1.4693049 -0.42860508
-0.17022556 1.4248424 -0.8504562
0.10005243 -0.40652305 -0.6116669
-0.16937 0.773286 -0.95363164
0.64313024 -0.2431302 -0.9170126
-0.5852722 0.49981868 0.37020904
-0.5890375 -0.25632578 0.22608969
0.5672451 -0.41547814 0.52389383
-0.1188657 1.0500915 -0.0023507094
0.30198222 1.1531324 -0.75583214
0.07331606 0.9063647 0.5845979
-0.6532089 1.0723066 0.2267243
-0.1091965 0.6087475 0.5216724
0.89599013 -0.08898805 0.7333653
-0.5803759 1.467596 -0.5361998
-0.57009774 -0.09073931 0.32380486
0.4330128 0.20034784 -0.35433608
0.35818535 1.293638 0.5351343
0.30433068 1.4034194 0.67936015
0.7300965 1.0671892 0.1965786
-0.12868956 0.65000796 -0.103578195
-0.10372062 0.6686363 0.11519508
-0.61751366 -0.25782225 0.42632526
0.17107546 0.70153433 -0.27572292
0.91656446 -0.2491401 0.64666635
0.14137785 1.0342357 -0.9853908
0.40903825 -0.23383552 -0.28713486
-0.50580066 0.2736196 0.120766334
-0.5192771 -0.26120478 0.5937592
-0.28491038 0.5665878 0.45544773
0.9235232 -0.24729872 0.44112515
0.58991694 -0.25214154 0.6457957
-0.53939044 1.1958241 -0.08355752
0.567355 1.004539 0.1336666
0.8904725 0.9817912 0.23092115
0.21510696 0.39247984 0.32814842
-0.3494822 0.5697061 -0.32954857
-0.75132203 -0.24796295 0.54066503
0.20212474 1.7814928 -0.47232324
-0.009967374 1.6695015 0.16502437
0.54181683 -0.08597487 -0.90734386
0.29027975 0.4766098 0.6246029
0.095150135 -0.24887303 0.9267528
0.64747155 -0.080839045 -0.7313991
0.016986426 1.1264476 -0.41006702
-0.03806276 0.1027444 0.052516654
0.4745357 1.1149244 -0.8695542
0.16869122 -0.06259914 -0.28496534
-0.791084 -0.2505307 0.7335106
-0.73405623 -0.081643775 0.4235078
0.5565715 1.1296923 0.6290065
0.21014199 1.1231608 -0.41657326
0.1206703 1.2756435 0.19338799
-0.31139314 0.61495936 0.68021417
0.57868016 -0.23834246 -0.20585778
-0.15980454 1.1244702 0.78980005
0.82060826 1.1530819 0.34231275
-0.5383885 0.7316334 0.2700041
-0.18609636 1.7118078 -0.20251785
-0.62394446 -0.40281487 0.907024
0.25351265 -0.21693262 -0.4001742
-0.54829746 0.3634537 -0.41627842
-0.44853175 1.6457154 -0.47518873
0.7775586 -0.25048026 0.34189826
0.91503936 -0.24127218 -0.5928068
-0.1364783 -0.063791946 -0.015550708
0.071088 1.2417517 0.41521615
0.35024446 -0.027812932 -0.36292022
0.6573689 0.9784927 0.58254135
0.5582361 1.4664726 -0.11057663
-0.67702246 1.0822845 -0.019077014
-0.4024002 1.0412526 -0.88121295
0.8960807 -0.40763247 -0.08176784
0.74277866 0.63117695 0.39734566
-0.12081516 0.433596 -0.5590887
-0.30689824 0.4125077 0.3180259
-0.3401305 0.4403563 -0.45559493
0.07749653 -0.2481215 -0.35024297
0.73562944 0.6934711 -0.607858
-0.48193642 0.8238884 -0.593922
-0.0040551554 1.1999187 0.60407543
-0.6548771 1.2282443 0.087046415
0.25917834 -0.080982275 -0.70147437
-0.89461356 -0.40624318 -0.5319822
0.049405303 0.5171579 -0.6744375
-0.21770164 0.9400145 0.6017373
-0.023382057 0.6306569 -0.5202751
0.89038074 -0.40785158 0.733613
0.23661363 -0.052875385 0.11271076
-0.19628376 0.60037065 -0.4380341
0.06002926 1.5056331 -0.23765579
-0.43266088 -0.23719403 -0.2887676
0.8993285 -0.08710236 0.5340837
0.8846209 -0.40085262 0.90701365
-0.037575155 1.1710808 -0.16212693
-0.44404608 0.7299492 0.44558597
0.56116337 1.5763367 -0.52875787
0.30150282 -0.4038102 -0.9141649
-0.29289174 1.432502 -0.2569918
-0.4828545 0.33027667 0.3078469
-0.33995494 0.754624 -0.44661462
-0.14422783 -0.40931535 -0.9083924
-0.15386175 1.5082066 0.13515294
0.50186753 0.7900995 0.2015003
0.305415 1.5946156 0.5292046
-0.37360686 -0.41506916 0.555228
0.5923358 0.50036633 -0.36041635
0.20212066 -0.41295922 -0.7505722
-0.13678679 1.6748799 -0.009608123
-0.51948845 -0.07056267 -0.15732151
0.54179704 -0.101252906 0.91769576
0.79435897 0.4846379 0.06431382
0.53279257 -0.03468146 -0.109533526
-0.21335432 -0.25487417 0.7606565
-0.030919854 0.90591824 -0.99720407
0.11575222 -0.41872084 0.75073576
0.26475054 -0.2256676 0.012441799
-0.34633783 -0.4108776 0.15519583
0.29394752 0.3008777 -0.20952278
0.022902071 0.70378494 -0.95304096
0.23772623 -0.24716201 -0.59443545
-0.079257786 1.4825919 0.65376484
-0.045399405 1.7348788 0.40111202
-0.22612116 1.0056636 -0.96261114
-0.4434765 -0.25847268 0.42467293
-0.16894248 1.861992 -0.09285334
-0.12420258 -0.2559871 0.4621426
-0.32824695 0.70048517 -0.67269087
0.13596773 0.653132 0.13531625
0.22119112 -0.256061 0.779083
0.93061364 -0.24578127 -0.78091824
0.42717874 -0.25369757 -0.63138247
-0.27262533 -0.23678115 0.017199013
0.29551178 1.2115517 -0.5708859
0.7207339 -0.3990533 -0.9170952
-0.7173723 1.404016 -0.36056328
0.08318101 1.6941797 -0.015264609
-0.30807933 0.3535024 0.12479271
0.15400982 1.5524111 -0.7770008
-0.91902643 -0.25621086 0.42840117
0.44503403 -0.2483264 0.5239754
0.3985181 -0.24972795 0.35079774
-0.9113333 -0.10161324 0.16552693
-0.4728089 0.5554179 -0.71934104
0.48714685 0.22061184 0.16000637
0.43504432 0.38694972 -0.31297413
-0.2848196 -0.0345619 0.101344146
-0.011746607 0.018731583 -0.48806965
0.73419636 0.7904482 -0.09410997
-0.41056314 -0.24015556 0.74804413
-0.20434973 0.28300288 -0.18580821
-0.06293413 -0.23083957 0.27994606
-0.20879439 1.446353 -0.046412967
-0.38864696 0.86665595 -0.1620099
0.8100451 0.5622119 -0.33854187
0.9013565 -0.084790014 -0.4891572
-0.28109798 1.1823285 0.37142342
0.18744978 0.7650433 0.62292373
-0.27757603 1.4429402 0.632697
0.59706736 0.49124777 0.43199682
0.2892045 0.53048277 -0.257968
-0.62395877 0.70770586 -0.6563205
-0.16723675 0.17824808 -0.48766595
0.37933305 -0.41341242 0.016637836
0.08465162 -0.40557456 -0.90839255
-0.13587779 1.2164353 -0.33506268
-0.69346863 0.7569922 -0.08147575
0.46860033 0.52386355 0.5690942
0.010162372 -0.408251 0.90776587
0.017341463 1.1998353 0.7961724
0.48267278 1.7599572 0.050500482
0.40428185 -0.0539488 0.2196185
-0.39251894 1.2190332 0.2075123
0.09010191 0.33420587 -0.73046243
-0.42500496 0.64982164 0.08600393
-0.19445093 0.88000995 0.11874345
-0.022868551 0.23588926 -0.0894861
0.26054844 -0.08412549 0.726936
-0.86999 0.9034562 0.014242534
0.52190566 1.3069885 0.61307085
-0.7018061 0.923077 0.07351565
-0.013241116 1.8631941 0.08239238
-0.7322656 -0.084524155 -0.898317
0.39607546 -0.4142923 -0.18006817
-0.04575658 0.36386153 -0.23238152
0.12309371 -0.25905785 0.6079775
0.89473176 -0.08567214 -0.08720663
0.88405985 -0.080073446 -0.7040929
0.5532398 -0.4132355 -0.28539652
-0.11960384 1.3035921 0.51761186
-0.4634917 0.89945614 -0.3719461
0.37087548 0.9393238 0.130451
-0.29992872 -0.2492606 0.57097197
-0.35783213 0.37091625 -0.27596527
-0.3729465 0.25149083 -0.4649114
0.40939844 0.58460176 -0.82048714
-0.61099756 0.5214269 -0.5514271
0.63376594 0.6914023 0.293445
-0.64359295 1.5684953 -0.21272689
-0.04483396 1.3613353 0.31425977
-0.5941109 -0.09185482 0.12729627
-0.7295655 -0.08001159 0.79755753
0.48779392 -0.23460293 0.22303659
0.03474712 0.07210015 -0.15977076
0.23151913 0.33359212 -0.4084957
0.21725644 0.6349982 -0.9173846
-0.05066803 1.588197 -0.7546568
0.7684784 1.3350172 0.32647353
0.36810568 0.47862363 -0.45896322
-0.3541292 -0.04142587 -0.2532036
-0.80639637 1.2763855 0.1423487
0.22444263 0.8794688 0.4472412
-0.06330563 0.2536788 -0.62669945
-0.37185347 0.15354729 -0.14056896
-0.80947554 0.8347517 -0.3746708
-0.52154535 0.5456492 -0.38055068
-0.38272998 1.5527523 0.47583443
-0.13430499 0.46008176 -0.0669862
-0.1110217 1.8153801 0.2553457
-0.9222023 -0.25469148 -0.21686101
0.55624545 -0.40290985 -0.07436913
-0.8487158 1.030205 -0.30691618
0.85443234 -0.24916604 -0.92726123
0.471329 1.1361165 -0.6535592
-0.1886057 0.34200194 -0.389906
-0.34252095 0.5754672 -0.12052786
-0.28955126 0.71880543 0.1865236
-0.08526424 1.0152212 -0.2570151
0.11201328 0.2385722 -0.2290492
0.6172923 1.1753924 0.3024849
0.7509656 -0.2509519 0.5433227
0.89192796 -0.4077655 -0.6848209
-0.033552095 0.94345665 -0.47013184
-0.33244437 0.35973084 -0.07824287
0.3432752 1.4823759 -0.77616
0.40046853 -0.23856166 -0.10349868
0.38961875 1.7096611 -0.49423525
-0.14108992 0.22117662 0.3980577
-0.23635404 -0.08409435 0.5049473
0.21311802 -0.4065264 -0.09592776
0.16255659 0.11098691 -0.011308182
0.70272195 0.7551932 0.10555087
0.33884218 1.8090128 -0.2985028
-0.86553055 0.8569127 -0.18449299
-0.03807421 -0.09451917 0.91248304
0.93716204 0.86387014 -0.09501506
0.03941506 0.5958173 0.0023088283
-0.27370554 -0.082162365 0.7106279
0.43333954 0.3757751 -0.120598495
-0.31831884 1.6068562 -0.108446896
0.41326421 0.5835568 -0.09967862
0.19137761 -0.24718428 -0.92438364
0.11410168 0.9653692 -0.32461554
-0.2520216 1.7779751 -0.41323254
0.5497713 -0.0816351 -0.5226403
-0.30989096 1.368233 0.092364624
0.4126242 1.5776254 -0.6375291
0.59881747 1.0828526 -0.5078037
0.90052533 -0.08538772 0.118063696
0.6802281 0.8890885 0.25662714
0.6465398 0.5683609 0.13642363
-0.26890224 0.45163625 0.5964068
0.2108584 1.5695736 -0.49135473
-0.42640162 -0.4071882 0.89733267
0.1555206 1.4002632 0.31583178
-0.7356795 -0.24656957 0.921278
0.37631994 0.7748165 -0.90778285
0.59116006 -0.24537127 -0.39636928
0.71872866 1.013607 -0.35218143
0.5417938 1.439693 -0.6797892
0.36651963 1.4611154 0.024409791
-0.80276895 0.6753699 -0.26057503
-0.7578238 0.5242996 -0.13444671
0.39071068 -0.41239536 -0.7602807
-0.6163405 0.63243747 -0.23789304
0.7317355 1.475793 0.20453544
0.72191805 -0.41773665 -0.18188569
0.74427724 1.5329845 0.0031908823
0.73565733 -0.08202535 0.6474613
-0.61794806 -0.2560264 -0.6132353
0.039260745 0.9665357 -0.10337536
-0.25230423 -0.40422785 -0.26420572
-0.33128113 0.21113157 0.26892865
0.182269 -0.036963113 -0.48875606
0.23670325 0.627917 0.7381895
0.07095404 1.6964531 -0.62246215
0.46574762 0.9644437 -0.3820476
-0.64515376 -0.08007282 -0.738214
0.17088747 1.6684837 0.1764481
-0.5217463 0.26140994 -0.07544775
0.30602443 -0.24934962 0.6187711
-0.019976348 1.7970343 -0.46590406
-0.2597502 0.7331443 0.3807052
-0.32633188 1.5912418 0.08746718
0.89862096 -0.40792912 0.3294552
0.24909936 1.1255744 0.14437142
0.017303385 -0.2448206 0.767439
-0.77814615 1.1910453 -0.41862184
-0.5067839 1.0291085 -0.23180068
-0.47714984 1.1975449 0.43430644
0.31600523 0.7392576 0.15349066
0.6659566 0.6895405 -0.4286483
0.5573439 -0.17547578 -0.04960329
-0.6396557 0.4172129 0.1911866
-0.5831891 0.7547574 -0.42847365
-0.27421695 0.7485647 -0.023529062
-0.30247754 1.6627396 -0.56114936
-0.82752144 1.2427545 -0.24245048
0.20498183 0.8691243 -0.16755825
0.6707275 1.5608476 -0.39114296
-0.9287648 -0.2519588 0.62936985
0.47399062 -0.41157466 0.9068786
0.73425573 1.1640768 -0.19362134
0.18681581 1.4897602 0.11100369
-0.31649947 -0.043107763 -0.08041637
0.0741428 1.3780334 0.72160167
-0.76010704 1.4211916 -0.15568319
0.10203987 1.0878699 0.28629178
-0.18554823 0.7656348 -0.57257426
0.075237125 -0.060418926 0.24815863
0.19078052 0.5345033 0.44546112
-0.1277457 -0.41490418 -0.6081037
0.28859282 1.5356061 0.3180163
0.8985213 -0.4065355 -0.48544052
0.23249333 1.4310875 0.47596467
-0.423544 1.0421689 -0.0670714
0.42125612 1.3833501 0.3784097
-0.123300165 0.44992054 0.3860618
0.16148797 0.45645285 0.12585343
0.45628077 1.3125823 -0.31232518
0.7285017 -0.42040786 0.024571365
0.08826521 0.60203826 0.59856766
0.0939212 1.5809252 0.34559488
-0.23058403 1.3456247 0.27193534
-0.05323247 1.0985467 -0.9804192
-0.30865115 0.64207965 -0.8583572
0.15444824 1.6968687 0.4604174
0.59663045 0.32260215 -0.40977633
0.89585686 -0.40802893 -0.28397602
-0.57204807 -0.41362876 -0.31401867
0.03600257 0.34260875 0.29625937
0.028658051 -0.08933366 -0.91185695
0.60054994 1.0522522 -0.07818664
0.108565725 1.8150353 0.26727027
-0.7012697 0.49552023 -0.3439875
-0.18944086 -0.41188872 0.61162555
0.5866318 1.4098756 0.0684181
0.2664962 1.2268133 0.36360222
-0.3560799 0.16594504 0.052649833
0.5565263 0.7491194 -0.59972274
0.058690883 0.98737866 0.10502138
0.75645196 -0.24120995 -0.733821
-0.13282733 1.5418403 -0.19102094
-0.3210323 -0.41552803 0.74120045
-0.089234985 -0.41526422 0.7560618
-0.6200526 -0.24938928 0.73836386
-0.13947883 0.7661931 -0.76890177
-0.25459933 -0.25645667 -0.9220593
0.7253686 -0.41324347 -0.57906044
-0.5950239 -0.25157717 -0.42052156
0.8339144 0.63483316 0.19609435
-0.1364229 -0.071820945 -0.5926931
-0.013372108 1.2856855 -0.72616464
0.71375394 0.51225764 -0.5043044
-0.3342662 1.1817441 -0.0005465117
-0.14703107 0.820537 -0.40144897
-0.55470014 -0.09036526 -0.91285545
0.30576968 1.0364099 0.34767985
-0.8111617 0.7581793 0.15435515
-0.26325142 -0.21461566 -0.373449
0.5251781 -0.41090107 -0.89693785
0.42291436 -0.23193985 -0.4643595
-0.7021767 -0.4179502 -0.79809386
-0.322334 -0.2505964 0.9223684
0.37262592 -0.41129538 0.21686068
0.044083387 0.74844795 -0.12172327
0.078656554 0.39915293 -0.5303508
0.8189489 1.4369872 -0.14083445
0.6960515 -0.41678557 0.8795661
0.5526282 0.23121434 -0.017762046
-0.55672586 -0.08542303 -0.33862054
0.6750219 0.6473954 -0.23519848
0.52602875 1.6957352 -0.3563676
-0.103202954 1.1116235 -0.7910217
0.71139586 0.4732797 0.2724461
0.059290785 1.4558303 -0.6417366
0.8947256 -0.40601897 -0.8795445
0.5826776 0.5623548 -0.68240786
-0.72244257 0.6131368 0.2710898
0.4814163 0.9847491 0.29701123
0.54455876 -0.25516346 -0.77348065
-0.3616621 -0.08744669 -0.90984154
-0.10311449 0.3955127 -0.7708537
0.03604347 0.4625495 0.4701022
-0.22556266 -0.21873733 0.18179637
-0.23732907 1.2742138 -0.1827457
0.04751093 0.64834243 0.7716713
0.20223586 0.91421056 0.21860404
0.37922487 0.48397985 0.39506602
-0.92531 -0.24269098 0.0031563346
0.0038748013 0.27644306 -0.41279873
0.14585997 1.5309991 0.6255201
-0.8094251 1.2586472 -0.052102007
0.37576163 0.9647157 -0.744638
-0.057538535 0.83140135 0.011749883
-0.61257195 0.82352114 -0.24212891
0.613413 1.5228271 0.35421467
0.038561765 0.26233917 0.48382723
-0.52131414 -0.41842812 0.7153386
0.7531898 0.93310285 0.047550105
-0.2996294 1.6069412 -0.33038718
-0.59251285 0.57793856 -0.046107873
-0.14877313 1.2403266 -0.020161549
0.5143199 0.77759117 -0.35292196
0.9017751 -0.0859429 0.3273909
0.24583748 -0.2392042 0.43620777
0.27195746 0.87308013 -0.3930478
-0.47092915 0.57087183 0.55478436
0.109736994 1.8485937 -0.30962008
0.09144623 0.4309307 0.6574766
0.106906325 0.19666108 -0.5554794
0.5278888 1.2529671 -0.10906903
0.39729714 0.8021663 0.542871
0.61164296 -0.2467903 -0.59793067
