0.58272254 1.0759807 0.5990269
0.5044755 0.25945073 0.081034824
0.433908 1.2288582 0.35264868
0.74577916 -0.25076714 0.7551676
0.40350842 0.71628344 0.6080456
-0.5935663 0.6466606 0.4648592
0.055108532 0.024905963 -0.38149875
0.65656483 0.90618515 0.62518
0.24328735 1.486203 -0.4717006
0.7722697 -0.24973162 0.932686
0.46795762 -0.07696597 -0.72725344
0.004686038 -0.41635984 -0.4818464
0.010408232 1.1095829 0.12862541
-0.75124216 0.747475 -0.07724854
0.28078783 1.0990298 0.3362355
0.101027995 -0.23710203 -0.5409659
0.34498084 0.21737961 0.24382433
-0.33831096 -0.043664142 -0.58989763
0.11977072 0.40611053 -0.38043374
-0.9059241 -0.096496224 0.7324861
0.43495998 1.4200109 0.39682677
-0.6259726 1.166722 0.030922657
-0.46446845 -0.25151265 -0.922814
0.43166876 -0.059699427 0.64863217
0.24377626 0.14383599 -0.6501802
0.84086716 1.0765386 -0.10568027
0.86609936 0.92467445 -0.20959103
-0.29126373 0.74933803 0.030407187
-0.23791327 1.3020091 -0.3427421
0.2292158 0.020296384 -0.22807127
-0.4521011 1.0207539 -0.13696638
-0.7600442 0.49526998 -0.42447156
-0.008511654 -0.13937736 -0.122858986
-0.7558845 1.200629 0.17695421
-0.7275893 -0.068793654 -0.42723367
0.30990368 0.8494223 -0.46177626
-0.6007801 -0.41073126 -0.11348694
-0.3688678 1.0128964 0.6440233
0.0811442 1.1041712 -0.40743887
-0.296444 0.54238945 -0.21716842
-0.07291438 0.96895695 -0.48540673
-0.24729949 0.8649249 0.6737141
-0.7503369 -0.04648027 0.2143726
0.22624938 0.32498884 -0.77977693
-0.050891876 -0.058256224 -0.77114373
0.7579824 -0.2431331 -0.48490423
-0.56121004 0.9121295 0.71882373
0.5692107 1.1124026 -0.5997741
-0.10543583 -0.24633892 -0.4717653
-0.17547512 0.8106967 -0.73699665
-0.1105646 -0.117367215 0.1869234
-0.78692937 0.8551593 -0.42394155
0.38598186 0.7350721 -0.018570222
0.122470014 1.1075686 -0.029200153
0.19720823 0.6853645 -0.54065263
0.922248 -0.24572104 0.012796706
0.04310573 0.39551404 -0.849442
0.8326564 0.556376 -0.34936166
0.67704 1.3814878 -0.04533956
-0.21175209 0.02021129 -0.0891227
-0.44952136 1.1088834 0.48246008
-0.13168909 -0.2625531 -0.27334085
0.84779865 0.94245607 0.2813363
-0.7174673 -0.42067018 0.77126527
0.34081662 0.90373254 0.8338247
-0.49582663 -0.41539437 -0.73110807
-0.7478094 0.6862726 -0.49087846
0.17017663 0.15360421 0.18603325
0.30672905 0.5389241 0.8350797
-0.5664194 -0.0645346 0.53726983
0.75158316 -0.08515218 -0.5847633
0.8208153 0.89849627 -0.37656975
-0.14565575 1.2598963 -0.5082122
0.31552106 0.04226605 -0.023484865
-0.020319581 -0.4105975 -0.7672434
0.7275872 -0.41700143 0.6464795
-0.14239709 0.4698637 -0.8476118
-0.5013951 0.49150425 -0.5088769
-0.0017307942 0.66384065 0.44506162
0.5766269 -0.06747578 0.11778292
0.20889816 -0.42032364 0.29771745
-0.35582533 -0.41059494 -0.595669
-0.37833065 0.9723547 0.8096162
0.09230016 1.1250365 -0.8371049
-0.8911249 -0.0996207 -0.91223574
-0.7676028 0.7343528 0.46735966
0.08984451 -0.42857882 -0.26165643
0.39082506 0.86590046 0.12750348
0.5357194 0.11447929 0.36973482
-0.06395009 -0.060337108 0.5811346
0.08619216 1.4523023 -0.21125793
0.110124 0.91789967 -0.10288425
-0.7659083 -0.23456034 0.3223851
-0.53795856 1.4602709 0.24159959
0.41081583 0.9096714 -0.09115537
-0.494143 0.16455606 0.5067891
-0.871329 -0.07563725 0.020024117
-0.5312011 0.5179579 -0.025416102
0.73041344 0.8633272 -0.5254009
-0.22535044 1.1092229 -0.5950705
-0.22587478 1.3186082 0.6606188
-0.383668 1.5676079 0.15304765
0.5486359 0.5931508 -0.7221912
0.30502534 1.3438923 0.305093
0.6766022 0.71652365 -0.6223819
-0.41381434 -0.06601407 0.43396145
-0.6210569 -0.09203957 0.9162276
0.42341593 -0.06326403 0.43247926
0.59514964 -0.26505375 0.8994828
0.9202115 -0.24624893 -0.3869578
-0.8983165 -0.40539443 0.10428986
0.7468244 0.76975584 -0.054728374
0.91769266 -0.24484688 -0.18737824
0.53589296 0.2761026 -0.53146785
-0.53622425 -0.4168831 0.47633907
-0.1296241 0.052047893 -0.29433653
-0.70801497 -0.4121859 0.39637893
-0.10549508 0.31250274 0.16710456
-0.3541497 0.7952096 -0.44491333
-0.90369296 0.8694169 -0.02603827
0.003918349 -0.41125935 0.58668965
0.15075661 0.15511835 -0.027507622
-0.7054906 -0.03240844 -0.021306138
-0.7140146 -0.4158734 -0.62585104
0.028467832 0.5783845 -0.70159113
-0.8954866 -0.40820462 0.71786594
-0.90489745 -0.092646584 -0.5324495
-0.61775947 -0.23686278 -0.21933585
-0.36819893 0.73154336 -0.84649056
0.43245044 -0.25434864 -0.92309093
-0.5958904 1.227934 0.50263137
-0.0050030686 -0.41987768 0.38293275
-0.22466582 0.44556582 0.81892425
0.32339308 0.8490618 -0.84574115
0.3844402 1.1796277 -0.5077912
-0.53728795 1.1970028 -0.16134782
-0.52534497 -0.2449485 0.9109719
-0.49328214 -0.25115258 0.10790664
0.6211871 0.7219701 -0.39057145
-0.012376485 1.224194 0.311311
-0.020167144 0.16050565 0.11462118
0.13096637 0.043065324 0.34811622
-0.2574395 -0.4154045 -0.7523719
0.39771432 -0.26626456 0.9223557
-0.25530776 1.1601417 0.5623317
0.3925249 -0.045183685 -0.5456549
-0.18247908 0.81558275 -0.5357978
0.85653186 0.45647502 0.055075727
-0.49428818 1.1998305 0.32777828
0.37960905 -0.073370084 0.8767208
-0.061836526 0.55155414 0.8914232
0.25548393 1.1515982 -0.2974282
0.28082907 1.5409597 0.31651577
-0.3519838 -0.24624741 -0.77011067
0.74276185 -0.05275441 0.22078872
0.27557138 0.82223964 -0.15785748
0.41525704 0.7097488 0.8230121
-0.49121866 1.3769553 0.4275826
0.56067944 -0.42024878 0.13082105
-0.70521957 0.89644456 0.5374333
-0.13913563 0.92404467 0.4574134
-0.032769043 -0.23545443 -0.644445
-0.55025285 -0.0817995 0.7412967
0.76725435 1.243952 -0.19163585
0.19005029 0.48549253 -0.023151033
0.90510166 0.86523557 -0.041075807
0.57014453 0.31020507 -0.11538701
0.5726541 1.2316139 -0.27207035
-0.11458433 1.4281609 -0.20859458
0.40565482 0.14239994 -0.5344664
-0.09813963 -0.42597747 -0.14847445
-0.74794877 -0.41168833 -0.22018428
-0.28292978 -0.42201424 -0.06987478
-0.27036193 0.35431832 0.28069168
0.90400016 -0.089628235 -0.8947784
-0.36812723 -0.409955 -0.9004106
0.122281924 -0.26708245 0.32815984
-0.8974713 -0.090740904 -0.3364129
-0.023353837 0.6676586 -0.19938064
-0.16083427 0.25970083 0.7445725
-0.6659254 0.52530384 0.14172542
-0.009022126 1.6582063 0.05709985
-0.114246204 1.1332076 -0.38196754
0.92458576 -0.2460944 0.22636731
0.15857723 -0.41292503 0.47099113
-0.029391121 -0.25300375 -0.9142829
-0.91498417 -0.26147372 -0.8727705
-0.1759342 -0.4191925 0.26222044
-0.6788509 0.4131483 0.4987682
0.017926985 0.78066427 -0.7676027
-0.26932475 1.0879107 -0.7966833
0.7109208 0.6432091 -0.21424544
-0.31986254 0.0601876 -0.34062296
0.62320614 1.1536286 -0.09974411
0.44388968 -0.23189056 0.75664604
-0.017851964 1.1547568 0.61588085
-0.434542 1.3424096 -0.4867012
-0.12611023 -0.2785355 -0.07093789
0.76155996 0.71522593 0.52371776
-0.21145616 0.025319014 0.14300919
-0.1859509 -0.4194206 0.44966638
0.2649626 -0.059029445 0.5388149
-0.29550377 0.9003183 -0.09684636
-0.31790826 1.1072841 -0.27663517
-0.5147205 1.1188698 -0.33458638
-0.3924676 0.7718227 0.81059873
0.36923802 0.38382468 0.7482226
-0.5542799 -0.05674784 -0.55372846
0.09884989 -0.04203584 -0.6931107
0.20674917 0.7719339 0.086393684
-0.81165314 0.93794703 0.39138365
0.37307894 0.64999866 -0.6401328
-0.6783459 0.5809757 0.59411037
-0.47049552 0.8738704 -0.5899596
-0.1137187 0.77543974 0.55526793
0.04242579 -0.28465027 -0.19275591
-0.7708099 -0.22963822 -0.108452454
-0.04222741 1.3642329 -0.36323035
-0.32715803 0.7534293 -0.22260612
0.27144134 0.8386546 0.6708681
-0.2691396 -0.24827978 0.38538486
-0.49606794 0.25660598 0.22599164
-0.5396755 0.8455374 0.19470102
0.28074962 0.032046907 0.16983493
-0.14014313 1.1074178 0.23319341
-0.9025074 -0.40255833 -0.1119529
-0.5767019 -0.40518007 -0.9148755
0.5571048 0.4051968 0.61846733
0.07166691 0.99348724 -0.70661616
0.22546092 1.2344701 -0.7506709
0.40423658 1.1682526 -0.6953254
0.04939609 1.0948846 -0.19993722
0.369461 -0.100195765 -0.18633449
-0.52879906 -0.417539 0.268475
0.10277724 -0.085351154 0.46659905
0.0924357 0.01543512 0.14674363
0.8889432 0.72529554 -0.22541174
0.7208693 0.21816033 -0.25073364
0.7389482 -0.086837575 -0.90336156
-0.43014103 -0.24285999 -0.48532498
0.17143539 1.624902 0.029328069
0.09975022 -0.271522 -0.033371106
-0.22048913 -0.41186494 -0.46492457
0.44108903 0.43462116 -0.23848335
0.38532782 0.91925776 0.34467688
0.34169772 -0.41553396 -0.5886117
-0.30009097 0.16585377 -0.6525092
-0.5334602 1.4853271 0.050692294
0.42416555 -0.40792024 0.61857575
0.48667502 1.5000846 -0.006436919
-0.079933584 -0.09677417 0.39075184
0.38569164 0.66174626 -0.441018
-0.34212527 1.571106 -0.039147027
0.23433766 -0.39791512 0.9127772
-0.21026497 -0.085675724 -0.41984546
-0.051991932 0.031051707 0.2651012
0.15030009 0.51200986 -0.52446914
0.38764426 0.9641446 -0.30614096
-0.6558418 1.0776528 -0.14089593
-0.29348058 -0.2606847 -0.1768371
0.8128583 1.0941088 -0.31590033
0.54870385 -0.4076767 -0.49793547
-0.43723235 0.63198996 0.34589532
0.1124821 0.8107384 -0.43297866
-0.38919866 -0.25636864 0.24288107
-0.46162653 -0.08304785 0.23649624
-0.21024346 0.8723684 -0.32015455
0.894029 -0.09576154 0.9078133
-0.07494627 0.3460796 -0.3710172
0.9273397 -0.2510411 0.8576085
0.069203086 1.2529383 -0.28311452
0.2157987 -0.4226047 0.10133664
-0.10264194 0.7255722 0.7570709
0.3337772 1.5774283 0.08908232
0.2342293 0.063860685 -0.43759418
0.6653114 1.0485657 -0.265421
-0.4911248 0.5306868 -0.2311694
0.42595965 1.1873139 0.6809287
0.7307828 -0.41327357 0.4286847
-0.58606434 0.9932811 -0.6824204
0.5338695 -0.058384486 -0.32989544
-0.5479001 0.7831762 -0.73895663
0.7240152 -0.41274136 -0.3882193
-0.8994467 -0.0908981 -0.14805463
0.805763 0.3316769 -0.09109075
-0.86914134 -0.09571162 0.9122627
-0.8805946 0.87621605 0.1748686
-0.19724798 0.6563732 -0.11609993
0.3095905 0.38147452 0.13244101
-0.20430285 0.16502307 0.028374301
0.3068506 1.4280369 -0.18949851
0.29343283 -0.25886378 0.21986386
0.09616798 0.615789 0.10656755
-0.1644907 0.5863098 0.54721797
-0.11195797 -0.25633252 0.9171619
0.5150081 0.77923393 -0.75610626
0.70010746 1.0575571 -0.48160046
-0.13456048 1.2789474 0.4751025
0.20093744 1.0775492 0.15040028
-0.18855724 1.032089 0.84982216
0.26354238 0.95280397 0.027368203
-0.16777197 0.46901935 -0.6552651
-0.5396054 0.093814865 -0.28393543
-0.7541282 -0.40975535 -0.0070327874
0.12160657 0.99126315 0.69421136
0.7255292 -0.04338123 -0.1941762
0.73011506 -0.04096243 0.010819817
0.47135293 1.3120863 -0.13293481
0.7049955 -0.41501623 -0.7602329
0.32879013 0.58465725 0.058239736
0.23492587 1.257946 -0.14574277
0.58702695 0.1127938 -0.21303593
-0.45697564 -0.0701372 -0.73916364
0.65134233 0.12654233 0.17266977
0.2900506 0.52344275 -0.36963654
0.6972255 1.2488873 -0.40447456
-0.50080323 1.2809613 0.14084372
-0.76344115 -0.23815976 -0.32260758
-0.43530747 -0.41529214 -0.19851947
0.79493237 0.5605503 0.389903
0.3400314 1.1561555 -0.010306716
0.16307986 0.72955495 -0.9054846
-0.772007 -0.24955544 -0.5281
-0.35066956 1.1774673 -0.46308368
0.26522303 -0.41352367 -0.2889103
-0.6375533 0.34978038 0.1755813
-0.68794703 0.7885112 -0.28022867
0.4359101 0.9112639 0.5528108
0.10674797 -0.22901645 -0.7649284
0.2500729 -0.09971851 0.32854185
-0.13338016 0.78174496 0.32748646
-0.5945915 0.7063143 0.023019332
-0.89161325 -0.41072646 0.3214239
-0.8574445 -0.4061371 0.9048228
-0.7385152 1.1411947 0.38160074
0.34387136 -0.41398847 0.77770126
0.68614125 0.55015266 0.5758297
-0.5732024 -0.24712998 -0.78959066
0.23652259 -0.2567687 -0.20167746
-0.8930323 -0.40567482 -0.7342886
-0.43750697 1.0968862 -0.69746447
-0.22421889 0.6398035 0.3836093
0.6078879 1.4327557 0.123501755
0.5473017 0.94458354 -0.18203783
-0.6212643 -0.22995195 -0.017646149
0.7228646 0.8938359 0.124853
-0.8968979 -0.40666798 -0.32882786
0.80603325 0.7124518 -0.43584323
0.32531005 0.070608914 0.36535832
-0.6772891 1.3634585 0.11440112
-0.73740363 -0.41177303 0.20959976
-0.39151788 0.55832946 0.7987418
-0.7453183 -0.08290765 -0.6097058
-0.21556884 -0.409922 0.9004483
-0.6759503 1.0678979 0.560887
0.8662325 1.0133108 0.07755008
-0.7507392 -0.23111743 0.11060144
0.006531254 0.36529374 0.3380451
-0.48367637 1.3192118 -0.053343713
-0.5405313 0.302126 -0.190498
0.21439984 0.5015347 -0.6916212
0.19289798 0.6866999 -0.7314606
0.27081308 1.0457097 -0.81740695
-0.5477187 -0.4124562 -0.53167593
-0.43066037 0.8065648 0.6160964
-0.26168203 -0.08750289 0.3082481
-0.9038816 -0.09478088 0.34673688
0.098275155 -0.03718391 0.6792195
-0.46059954 -0.2483702 -0.0984118
-0.6906644 1.14353 -0.40643698
0.48616147 0.45415056 0.11110325
0.40627503 -0.08940023 0.017132027
0.18122414 0.10450405 0.5511989
0.7834103 -0.22905289 0.11974564
0.51455176 0.5487237 -0.06939927
0.19437897 -0.073287286 -0.88317144
-0.42595 1.1367149 0.024343515
0.60165226 -0.23159239 0.42674947
0.3222785 0.5839779 0.42231268
0.45460188 1.342097 0.17125067
0.12026513 -0.27513903 0.15119845
0.67057705 1.0821278 0.08249393
0.54560906 0.95718455 0.199592
0.0064933132 0.8087484 -0.5987148
-0.022789642 0.58564985 0.27853912
-0.4056124 -0.4149608 -0.4001316
-0.72743225 -0.08842299 0.6250272
0.5523321 -0.41147238 0.33438635
-0.9015919 -0.09367582 0.5403294
-0.6481168 1.3044469 0.30852845
0.02333374 -0.4247027 0.19100025
-0.6776144 0.8099633 -0.6081023
0.7519282 -0.23787242 -0.2918664
0.4195122 0.41221175 0.4721005
0.003381766 0.7237915 0.9351326
-0.9193599 -0.26619536 0.2185243
-0.22293374 -0.09063774 0.90305
0.123162195 0.9647337 -0.52042854
-0.8479655 -0.4071691 -0.91359913
0.34048742 0.60283303 -0.1668971
0.2668818 0.3863412 0.3277897
-0.60251164 -0.40835065 0.096013
0.4928586 0.45400488 -0.4340645
0.18064691 1.4526582 -0.042990558
-0.40776545 0.925387 -0.29853016
-0.9252968 -0.24715053 -0.64799666
0.89734906 -0.08551632 -0.28989187
0.6586173 0.40396374 0.019709704
-0.71343637 0.92060286 -0.11752601
-0.311674 0.77980244 0.45567393
0.24807242 0.40611953 0.5774131
-0.52165514 1.1098244 0.6776959
-0.044685666 -0.117141075 -0.32350677
0.5244533 0.64775974 0.10607454
-0.54569435 1.0906262 0.19735412
0.14080715 0.50295955 0.39515972
-0.72957957 -0.4139613 -0.42952237
0.40036124 -0.4148733 -0.40077806
-0.07607101 -0.046037085 0.75934756
0.15988743 0.9386163 0.8810509
-0.49743533 -0.076096274 0.022819703
0.54488814 -0.4183445 -0.6753143
-0.40504605 -0.047482915 0.63542193
-0.03778588 1.2907345 0.11702986
-0.72141653 0.18478313 0.018125914
-0.45410568 -0.41636705 0.0054463055
0.21203226 0.33154243 -0.58096826
-0.6915927 0.18832952 -0.1992081
-0.13660869 1.5019403 -0.41581923
0.47480136 0.3138417 0.29719478
0.55114293 0.7309741 -0.12983602
-0.056239814 -0.27871686 0.10142685
0.5832124 -0.052118674 0.53130627
0.117867514 0.56014043 0.88608694
-0.69145393 -0.41137868 0.5948721
-0.22666982 0.6448264 0.8757881
0.5055474 1.1114879 -0.3862481
-0.88942456 -0.08854096 -0.73770654
0.8904859 0.8005456 0.14122382
-0.60938454 1.0068057 0.37039787
0.16652295 1.1547794 -0.60401237
-0.084204614 -0.41782683 -0.33550194
-0.30433065 0.9460888 -0.63261163
-0.2539724 1.385308 -0.547356
0.584156 0.75832105 0.517931
-0.4109159 -0.067118675 -0.43039232
0.2565392 -0.1733602 0.9274001
-0.76714706 -0.24135377 -0.74445593
0.68034756 1.016565 0.28854632
-0.46477565 1.0150226 -0.48533085
-0.35063952 0.7837482 0.23919512
-0.3359122 1.2727339 0.4136067
-0.32090485 0.34000373 -0.751683
0.07121284 0.6172975 -0.3718539
0.08918668 0.7940985 0.7738216
-0.60751534 0.9665587 -0.30165488
-0.04145748 1.3301792 0.6811023
-0.21719903 1.4160244 0.3459793
0.015021188 0.26748443 -0.036704794
-0.11158924 1.6293011 -0.11085373
-0.08469102 1.1511918 -0.034630515
0.014348197 0.40530223 -0.1641241
0.039381698 -0.13510402 0.05817025
-0.536435 0.67339265 0.73301375
0.22625387 0.66911376 0.71980846
0.7317642 -0.41301265 0.22718257
0.44040772 -0.2563079 0.08234765
-0.8893813 0.50021994 -0.0033991355
-0.5158725 0.2724257 0.028149797
0.20196058 0.31788486 -0.04828021
0.06648728 0.9293661 0.10198456
-0.4139708 -0.08281274 0.88705266
0.26148313 1.0373914 -0.15044627
-0.3710499 1.509074 0.3478497
-0.5060251 0.60938466 -0.7540636
-0.23444921 0.35818338 -0.2369411
-0.9241294 -0.25701225 0.8702421
-0.3142733 0.4794305 0.63454604
0.36803168 -0.41597497 0.43661186
-0.24763471 0.93567455 0.27683532
0.041014306 -0.42596543 -0.019791264
0.4005952 0.10141036 0.55408764
-0.46361384 0.6450836 0.14563708
0.19764222 -0.413813 -0.46196893
-0.46840033 0.36729085 0.36251092
0.16107868 1.2753663 0.055807695
0.009445533 0.47610343 0.52293193
0.87596345 0.5218068 -0.14602494
0.20523168 -0.12328344 -0.0922597
0.703099 0.16584751 -0.04000631
0.18830743 0.8560779 -0.676906
0.39156726 0.2951769 -0.66747236
0.09479422 0.8054532 0.5777559
-0.15206301 -0.42324662 0.06615004
-0.19168529 -0.106479794 -0.20564005
-0.536899 0.47745538 0.6932521
-0.5535394 1.1740928 -0.5625844
0.8995441 -0.40605596 0.12304269
0.79914564 1.127903 0.22359815
0.56387305 -0.41023648 0.7402647
0.024576388 1.2864153 -0.7187042
-0.2506631 -0.23443067 -0.59375185
0.51293194 1.0730897 0.38443252
0.89494056 -0.40831748 0.533298
0.24491104 1.4267225 0.14989513
0.36306694 -0.08671911 -0.9090035
-0.09480358 1.1548071 -0.80741376
0.14130206 -0.06817277 0.87500775
-0.013338061 1.4786798 -0.029017735
-0.2294649 1.6035722 0.25770286
0.2577923 1.4499874 0.49423084
0.5843922 1.3586664 0.31083536
-0.5767055 0.8379364 -0.43576425
-0.2523263 -0.058442578 -0.75083816
0.7206307 -0.08409806 0.8780761
-0.7229346 -0.048464324 -0.22119388
-0.44772446 -0.22948897 -0.64018846
-0.48357934 1.4869351 -0.13345128
0.60981154 0.9244562 -0.6443951
-0.6326692 0.6689048 0.2760005
-0.34403613 0.74690527 -0.65788233
0.3632831 0.48012015 -0.5688889
-0.10471378 0.5032495 0.7043338
-0.3410775 0.40607357 -0.5684633
0.41451168 0.06377611 -0.17291835
0.86910355 0.5938549 0.19318838
-0.35974115 -0.41800547 0.35649276
-0.35855785 1.2486457 -0.647712
0.22256973 0.73804307 0.9030619
0.73731893 -0.06716332 0.42651552
0.3525432 1.3710796 0.0013205963
-0.9243295 -0.25247794 -0.4306991
0.41148245 1.3274554 0.553498
-0.15569441 0.1158713 0.62061965
-0.88120675 -0.41392353 0.5217347
0.50575733 0.79289937 -0.52932453
0.5112337 0.575943 0.5112933
-0.33038908 0.08713908 0.49196392
0.50660497 0.5516927 0.73579544
-0.1510948 -0.24263012 -0.7665168
-0.7092813 -0.26243484 -0.9263203
0.38796604 1.0512033 0.1833489
-0.08862403 -0.22650018 0.64347935
-0.16001734 -0.08879252 -0.91808724
-0.8585694 0.7192104 0.29261845
0.106722146 0.28649753 -0.24947762
0.5799072 -0.08384298 0.7489989
-0.033648133 0.6480856 -0.53192186
0.1429545 1.6001276 0.22237313
0.23799866 -0.41246876 0.6157971
-0.4880981 0.25803506 -0.59908247
-0.3006791 0.37123883 0.08349849
-0.6100044 1.3736033 -0.23111817
0.033132363 -0.24456073 0.47798485
-0.6438673 0.7639492 0.6263381
-0.7859194 0.55343485 0.39491203
0.75232196 -0.23694772 -0.087092325
-0.2678938 0.99687755 -0.43950272
-0.05846333 0.94310963 0.2534194
0.71549904 -0.059576735 -0.3881933
-0.68632835 1.0023236 -0.5169672
-0.8231192 0.3447325 0.10220024
0.5786342 -0.050108075 0.3191833
0.23053843 1.2644024 -0.45655686
-0.12886304 1.2230537 -0.20998351
-0.28911218 1.4272339 0.5179327
0.39180988 1.2915318 -0.31926495
-0.52190334 0.805557 0.40877002
0.32336226 0.19786835 0.05304219
-0.19531128 0.17203595 0.24150115
-0.4185569 0.6343588 0.55863696
-0.08238116 0.5113443 -0.27478534
0.32214534 -0.227861 -0.7792505
-0.14082359 0.46146464 0.37886977
0.6315628 -0.26423824 0.0783869
0.6544969 -0.23394194 0.25192204
-0.42024913 1.2801424 -0.28465763
-0.17222564 1.2806671 -0.70020056
0.1064182 -0.4104499 -0.62871015
-0.19310924 0.67258024 -0.89533603
0.6478638 -0.24518685 -0.9169265
-0.64598286 0.25736904 0.40475014
-0.6039896 -0.25086755 0.26116514
0.57163835 -0.4102896 0.5245911
-0.15434864 0.8451265 0.09655383
0.28769624 1.0155896 -0.63320994
0.02092026 0.63899815 0.6695426
-0.69900495 0.839063 0.2994653
-0.16357203 0.3602873 0.57556593
0.8972641 -0.09065335 0.7332579
-0.5855064 1.2910976 -0.39099872
-0.59977466 -0.06953693 0.3467317
0.41104794 0.07330829 -0.3603511
0.31159008 1.0115883 0.6566806
0.25999624 1.1081759 0.7984971
0.68763554 0.8114855 0.3174268
-0.16962856 0.4760286 -0.068706945
-0.13296612 0.48662385 0.1549099
-0.62658966 -0.23995519 0.47298163
0.14873934 0.5386135 -0.21889734
0.91724175 -0.25020212 0.6454874
0.1310218 0.9210276 -0.8925153
0.42019832 -0.24864608 -0.29438186
-0.5630727 0.08999097 0.12772566
-0.48852587 -0.24772179 0.59046197
-0.34359157 0.31682688 0.51246816
0.9239609 -0.24817723 0.44018137
0.5952569 -0.2425566 0.6460947
-0.56691897 0.97963065 0.019934442
0.5313438 0.7783891 0.23535165
0.8478261 0.7349551 0.33374995
0.16971347 0.21732369 0.3629574
-0.3975832 0.41012442 -0.3317567
-0.775352 -0.2535873 0.5378398
0.19339687 1.6118038 -0.30338
-0.043273278 1.412849 0.3092273
0.5479529 -0.08703499 -0.90931165
0.2463962 0.20161489 0.69419724
0.09499402 -0.2532484 0.92459357
0.6592721 -0.08103593 -0.73845994
-0.009585408 0.94626474 -0.29725695
-0.058457207 0.008293103 0.028848678
0.45019585 0.97923815 -0.74587774
0.1453896 -0.11349149 -0.29919547
-0.78835243 -0.2538504 0.73122424
-0.746416 -0.07857594 0.43414629
0.5162896 0.8454348 0.7478949
0.18869261 0.9434636 -0.3069839
0.084860355 1.030361 0.30910277
-0.37915242 0.34782028 0.73396695
0.5908792 -0.22952342 -0.21734358
-0.2090824 0.8382809 0.8722505
0.7753522 0.8919877 0.4594922
-0.59311384 0.4895513 0.3210405
-0.19855288 1.4947567 -0.03473923
-0.6206022 -0.40450448 0.9032234
0.2364141 -0.2469797 -0.39423552
-0.6048658 0.19830288 -0.42125773
-0.45749044 1.4544461 -0.31213284
0.78201246 -0.24099773 0.34240988
0.9133864 -0.24329275 -0.59172606
-0.16985594 -0.13404031 0.004246323
0.02568356 0.9796597 0.52892995
0.3355273 -0.0870436 -0.36484665
0.6156885 0.69958967 0.6943568
0.53056914 1.2457684 0.03395576
-0.70974517 0.86683 0.06771207
-0.42153472 0.9272827 -0.7913315
0.89763665 -0.40627787 -0.084153526
0.70464176 0.38674843 0.4643618
-0.15893969 0.30189285 -0.5656556
-0.36127305 0.2066818 0.35139292
-0.35797918 0.2851261 -0.4570511
0.0590616 -0.2688065 -0.36856544
0.7250347 0.542537 -0.5440303
-0.5101032 0.6853304 -0.54095805
-0.054824397 0.9153095 0.7081463
-0.6881263 1.0038712 0.18386886
0.2817489 -0.04945749 -0.7045822
-0.89406145 -0.40667272 -0.5365032
0.023255225 0.389318 -0.66631514
-0.27210003 0.67171896 0.676553
-0.044061217 0.478054 -0.4901168
0.8900087 -0.40871108 0.73277426
0.22907194 -0.11860402 0.11328319
-0.22657156 0.46401113 -0.41953266
0.037974924 1.2949033 -0.09281417
-0.4560482 -0.24275053 -0.29699045
0.9005832 -0.08872342 0.5332346
0.88581973 -0.4021489 0.9062282
-0.06568293 0.969139 -0.051004447
-0.4987656 0.47413784 0.5073757
0.5608992 1.414444 -0.3719874
0.30801716 -0.40292707 -0.91525805
-0.3195395 1.2293019 -0.12004824
-0.5478295 0.09775401 0.3328839
-0.38119787 0.600847 -0.3986104
-0.14305303 -0.40781426 -0.9082453
-0.19222517 1.2664175 0.26622745
0.44748485 0.5361029 0.2776054
0.26649964 1.2974243 0.67369956
-0.3699578 -0.40988827 0.55025613
0.5821843 0.3320995 -0.31681067
0.20941395 -0.40956947 -0.760198
-0.16552797 1.4463005 0.14547467
-0.543839 -0.07071774 -0.15703614
0.5416777 -0.10174002 0.91700125
0.78211534 0.26878542 0.116015926
0.55183077 -0.05032607 -0.12598753
-0.21364239 -0.24310043 0.76407206
-0.048316214 0.8013388 -0.9198197
0.11735311 -0.41357625 0.7524563
0.2755056 -0.26308596 0.011111705
-0.34747538 -0.4208637 0.15298964
0.26679528 0.18393745 -0.20403437
0.0046977582 0.5966697 -0.8955378
0.25131628 -0.24280837 -0.61714256
-0.12472608 1.1941303 0.7827245
-0.07980135 1.4506018 0.54351753
-0.23818369 0.8977476 -0.8626517
-0.4587437 -0.24583225 0.40604308
-0.18922958 1.643723 0.089994006
-0.13376394 -0.25295344 0.4848197
-0.35790023 0.56776536 -0.6346191
0.09846964 0.45713645 0.1932711
0.22743836 -0.24798883 0.77525014
0.9320948 -0.24890973 -0.77964675
0.44782352 -0.23956054 -0.6242976
-0.31080368 -0.26906744 0.025889289
0.2814743 1.0505563 -0.4441861
0.7234225 -0.40037268 -0.91736686
-0.7396172 1.2220471 -0.23576117
0.052816696 1.4552588 0.1374543
-0.35272533 0.20801707 0.1340535
0.14566961 1.3897985 -0.6089351
-0.92442614 -0.25987706 0.42766786
0.45464784 -0.23288491 0.53115547
0.41107488 -0.24651869 0.36183524
-0.9116355 -0.10372422 0.16878682
-0.50604856 0.43000975 -0.6999805
0.461909 0.07835607 0.17868015
0.4231102 0.24162892 -0.3064522
-0.3258304 -0.10751188 0.11815031
0.004882603 -0.08240136 -0.4991581
0.7052906 0.59222794 -0.011033431
-0.40927517 -0.23073463 0.7541784
-0.23898506 0.16897213 -0.1899544
-0.06992291 -0.26379114 0.29885548
-0.24705467 1.2263944 0.08439329
-0.43070793 0.6623455 -0.09674443
0.78484917 0.39461565 -0.28784847
0.9038549 -0.08692439 -0.48905498
-0.31593293 0.9536543 0.48740733
0.13195238 0.49874794 0.7020549
-0.32377762 1.160462 0.7554549
0.5678359 0.2367979 0.4986617
0.2655817 0.3795135 -0.22700088
-0.65414 0.57611406 -0.6216356
-0.1727154 0.067899 -0.50215375
0.3951143 -0.42171296 0.015829157
0.08888166 -0.403468 -0.91048354
-0.16139004 1.0237958 -0.21926832
-0.7366084 0.5526515 -0.032604013
0.42753816 0.25743833 0.63938224
0.010263283 -0.40861088 0.9072666
-0.030884054 0.9101844 0.90261286
0.44462335 1.5066915 0.20913842
0.40697283 -0.088177316 0.22374019
-0.43022338 0.96560913 0.3197983
0.07005857 0.19846079 -0.75294447
-0.46867222 0.44336027 0.1480687
-0.20724332 0.6638266 0.19657594
-0.05518248 0.12670177 -0.09715631
0.26993448 -0.053456858 0.7289562
-0.91315186 0.69680536 0.07287103
0.47490144 1.021735 0.7440518
-0.7460519 0.7003485 0.1355113
-0.042167485 1.6150073 0.25436538
-0.7317232 -0.0860153 -0.9011195
0.4143188 -0.41897365 -0.1841477
-0.080238834 0.24374849 -0.22566684
0.12804043 -0.2340919 0.6157856
0.8978394 -0.08367255 -0.08838333
0.889441 -0.082749575 -0.7056426
0.56618255 -0.4099027 -0.29255778
-0.16268672 1.0364978 0.6405813
-0.49413395 0.7289994 -0.30200672
0.3447895 0.7147782 0.23122181
-0.3018337 -0.23124059 0.58132744
-0.40086165 0.22844921 -0.2870483
-0.43030733 0.10800095 -0.49544203
0.39377296 0.46304333 -0.76873904
-0.6532016 0.37820956 -0.5397657
0.59256995 0.44609857 0.37132227
-0.66913533 1.3686409 -0.07196532
-0.092330866 1.0952132 0.4286024
-0.6175426 -0.080275565 0.14435118
-0.73459053 -0.08356321 0.8002392
0.5041125 -0.24063921 0.23125061
0.014694623 -0.0038399177 -0.18271077
0.2120926 0.22051668 -0.4104478
0.19684556 0.5272819 -0.8651351
-0.05471353 1.4240379 -0.588642
0.72395396 1.067184 0.45951313
0.34639698 0.3387331 -0.44024372
-0.37061363 -0.089111134 -0.2594857
-0.84049237 1.0527891 0.24907713
0.1790775 0.6264559 0.53793526
-0.09696535 0.12713683 -0.6634545
-0.39425898 0.059266206 -0.1544603
-0.83686936 0.6711412 -0.32010317
-0.5674044 0.38434368 -0.37463647
-0.4200853 1.2721914 0.60292256
-0.17548859 0.31137395 -0.04838779
-0.14104716 1.5536087 0.4136184
-0.9231591 -0.25331947 -0.22150913
0.5718478 -0.4024887 -0.07616264
-0.8667048 0.85079074 -0.22737989
0.8584725 -0.25104332 -0.92753553
0.4535827 0.9812408 -0.52777237
-0.21150042 0.20861113 -0.40113813
-0.38938302 0.40828592 -0.09682231
-0.32493627 0.5223198 0.24251223
-0.12226439 0.82213235 -0.14964464
0.089212716 0.13306162 -0.23635405
0.5746273 0.91467965 0.4237092
0.7530831 -0.2450317 0.54239124
0.8931546 -0.4085508 -0.6835574
-0.05871334 0.7797352 -0.38113108
-0.3773701 0.22486338 -0.078386106
0.33212247 1.3208945 -0.61359954
0.41696984 -0.25614434 -0.10755086
0.3784481 1.5350233 -0.33051947
-0.17832553 0.06404402 0.3987229
-0.23553348 -0.06857012 0.5195843
0.22411342 -0.41863376 -0.100146726
0.12881842 0.0069316253 -0.035488244
0.670057 0.5284519 0.18804169
0.3150772 1.5985262 -0.12459925
-0.8996207 0.67310464 -0.13079163
-0.028720357 -0.094424024 0.9149385
0.909573 0.65744185 -0.009975491
0.0038658138 0.41666642 0.040068723
-0.25532174 -0.054499373 0.71619666
0.4140447 0.23495236 -0.10618083
-0.3440548 1.3909402 0.041682314
0.38183096 0.41202378 -0.053555794
0.2005247 -0.2438359 -0.925614
0.0867531 0.7879957 -0.23173882
-0.25756365 1.5614235 -0.23266092
0.56813174 -0.054439254 -0.53345
-0.34946945 1.1315527 0.21015522
0.40771478 1.4055083 -0.47077838
0.5800644 0.91754353 -0.39197266
0.9042491 -0.0840033 0.11595754
0.6227975 0.6373499 0.34772816
0.6237372 0.34181353 0.19655268
-0.33572608 0.18394656 0.6552115
0.19713917 1.3856404 -0.33505145
-0.42682916 -0.4073499 0.89474285
0.10856335 1.1382153 0.442558
-0.73326284 -0.2510807 0.91791004
0.36520138 0.65691453 -0.8331872
0.57698214 -0.2318036 -0.41730726
0.69333637 0.8315393 -0.24569176
0.54525185 1.2845256 -0.5265796
0.3315975 1.2235866 0.160866
-0.8375629 0.50024664 -0.22476026
-0.8195586 0.33746248 -0.11383119
0.39734948 -0.40796292 -0.762588
-0.6644995 0.4512608 -0.21124512
0.6875263 1.2131433 0.34954894
0.7286073 -0.41207597 -0.18453315
0.70854604 1.2951543 0.1579
0.7387405 -0.081235915 0.6491146
-0.6175105 -0.24712366 -0.6172508
0.017971233 0.7756194 -0.015815493
-0.262048 -0.4173689 -0.27133995
-0.3683679 0.056582525 0.26081288
0.20191345 -0.07799408 -0.5170655
0.17864361 0.34592512 0.7972661
0.06292135 1.5177331 -0.44964334
0.4428601 0.78743994 -0.28725904
-0.6481621 -0.07992399 -0.7433723
0.13546252 1.406382 0.31982476
-0.5685092 0.10233485 -0.07715412
0.3147694 -0.23405677 0.62317383
-0.025406145 1.5924509 -0.28512847
-0.3197903 0.49034286 0.44056422
-0.35920325 1.3573346 0.22740074
0.8991507 -0.40739328 0.3285455
0.21449277 0.89084095 0.25392205
0.024803815 -0.2275342 0.76993394
-0.7919781 1.0223752 -0.31537825
-0.53750265 0.83657086 -0.1452861
-0.51857525 0.94260037 0.53008485
0.25190789 0.5511519 0.22222579
0.6519724 0.5253024 -0.36725134
0.5782544 -0.18827859 -0.044636298
-0.7118722 0.1869322 0.21658644
-0.6173153 0.60151184 -0.37866497
-0.31498832 0.55722475 0.033308268
-0.3083388 1.464268 -0.38597095
-0.8424939 1.0534234 -0.1368494
0.17671472 0.678072 -0.08349632
0.6645427 1.3905004 -0.22634357
-0.93183756 -0.2573775 0.63457894
0.48212922 -0.4139787 0.90500975
0.7003174 0.95836145 -0.0700794
0.14740238 1.2402507 0.24709707
-0.3463707 -0.10333109 -0.07454424
0.021726273 1.0837963 0.84001076
-0.78477144 1.2213452 -0.029653914
0.05959657 0.84665686 0.38864237
-0.22712004 0.62977284 -0.5213653
0.07003437 -0.12150957 0.259342
0.14712508 0.31050903 0.5015598
-0.12719017 -0.41076306 -0.6197514
0.2479913 1.261822 0.45978498
0.89844495 -0.4063561 -0.4837711
0.18493733 1.1507678 0.60474575
-0.45070678 0.825659 0.017003007
0.37803102 1.1096592 0.51079667
-0.1753098 0.24959798 0.42585808
0.12556763 0.29942065 0.15862796
0.43494427 1.1204152 -0.18353608
0.73742783 -0.41530266 0.022121452
0.037127286 0.34166366 0.6590353
0.054908525 1.31123 0.4761281
-0.27477705 1.1024266 0.37802064
-0.05994258 0.98294866 -0.8687277
-0.33084047 0.531211 -0.81977963
0.11763103 1.3949293 0.6077299
0.5979222 0.14557183 -0.40933996
0.89538765 -0.40688992 -0.284815
-0.5808614 -0.41073352 -0.32305026
-0.009556163 0.19013871 0.31640238
0.036742106 -0.08764684 -0.9177456
0.56946653 0.83381355 0.028632767
0.07397711 1.5333191 0.42334005
-0.75341153 0.32144713 -0.33165324
-0.18974306 -0.40693584 0.6197766
0.5502848 1.1661612 0.20725138
0.22208366 0.96687526 0.4806968
-0.3839879 0.058614936 0.041791536
0.5414366 0.6025601 -0.52917403
0.015263431 0.765774 0.1985564
0.7625886 -0.24109134 -0.7397811
-0.155931 1.3261625 -0.042074133
-0.32301092 -0.4114486 0.7390168
-0.08805953 -0.40994585 0.7599437
-0.61771166 -0.2500272 0.7211996
-0.15633002 0.6435747 -0.71139246
-0.2512039 -0.25425333 -0.9225269
0.7303297 -0.41150677 -0.5796709
-0.60475147 -0.23619564 -0.42830598
0.7945955 0.40852568 0.26279193
-0.1327278 -0.06304491 -0.60928226
-0.026554402 1.1313295 -0.60026544
0.7009251 0.3527345 -0.46277973
-0.37114793 0.9576942 0.10679334
-0.18367419 0.66215754 -0.33904758
-0.5525584 -0.09096837 -0.914528
0.26620665 0.786963 0.45473176
-0.85398436 0.5330503 0.20223375
-0.28417355 -0.24336734 -0.3829299
0.5299816 -0.4112782 -0.8970417
0.39138824 -0.23610532 -0.47509623
-0.69862294 -0.4179998 -0.79842293
-0.32275325 -0.25067922 0.92302376
0.38864183 -0.4174671 0.22481254
0.006212306 0.5633874 -0.06258073
0.043373145 0.27044648 -0.53585196
0.7832573 1.2178228 0.01155404
0.6992791 -0.4174645 0.8781471
0.53353643 0.08327025 -0.0062587736
-0.57081366 -0.055329125 -0.3506917
0.65817964 0.46734953 -0.17345977
0.5028254 1.4930582 -0.18928087
-0.11547675 0.9728446 -0.6847826
0.69209 0.23109604 0.33036482
0.049129896 1.2831639 -0.4908837
0.8952981 -0.40720335 -0.87911034
0.56574696 0.43031377 -0.62992847
-0.7746719 0.37592664 0.30465937
0.44526386 0.73575914 0.39842498
0.5476064 -0.2512648 -0.77591705
-0.35799074 -0.086971745 -0.9120414
-0.12959245 0.26842245 -0.7748195
-0.01303131 0.24085411 0.5189899
-0.22153902 -0.2606326 0.18311685
-0.2650407 1.07428 -0.068294905
-0.010186976 0.37658086 0.8298323
0.16110313 0.69323725 0.31211567
0.34203327 0.24663526 0.45736971
-0.9238463 -0.24570954 0.0021753497
-0.011500941 0.17417529 -0.40857553
0.09767459 1.2394338 0.7634227
-0.8307936 1.0449189 0.050236598
0.36238223 0.830963 -0.65030193
-0.10401922 0.6514745 0.053268194
-0.6474047 0.6385485 -0.18067661
0.56482816 1.2408535 0.50034994
-0.0008630762 0.07274498 0.49523938
-0.5181303 -0.41615695 0.70583135
0.71642643 0.7064117 0.15031952
-0.31194615 1.398426 -0.1724955
-0.65057755 0.37210724 -0.029598156
-0.18969862 1.022017 0.08934271
0.5012306 0.6033911 -0.28142154
0.90509474 -0.08726928 0.32661128
0.25401962 -0.24573405 0.45129701
0.24817938 0.7133376 -0.31446528
-0.53587675 0.30395064 0.6086664
0.097403035 1.6454234 -0.13203177
0.03703148 0.16382359 0.7175695
0.07101859 0.08275059 -0.57013834
0.49541658 1.0358086 0.012439357
0.34990442 0.53832114 0.63052106
0.6271854 -0.24164647 -0.6084293
