0.6201317 1.2853367 0.49540895
0.51986074 0.38546315 0.050827824
0.48206192 1.4237971 0.23996416
0.7428061 -0.25249904 0.75686747
0.43234658 0.9096881 0.5207911
-0.5547206 0.86659545 0.37853086
0.11949724 0.09993358 -0.3851577
0.688547 1.1041291 0.5355376
0.29538333 1.6124846 -0.62151366
0.76339704 -0.24742457 0.9327719
0.4578731 -0.08407937 -0.72479415
0.0003541314 -0.40522105 -0.46984106
0.050125338 1.2873656 0.016880143
-0.70783603 0.91419566 -0.17363283
0.32570928 1.2838655 0.22874564
0.08097206 -0.18067044 -0.51477015
0.37113395 0.33352074 0.21159616
-0.3277517 -0.07095854 -0.58077866
0.16150501 0.5095841 -0.41797584
-0.90370417 -0.09350474 0.7240745
0.49204063 1.6270156 0.27864212
-0.581558 1.3412445 -0.103612155
-0.46524397 -0.25203556 -0.92227674
0.41997254 -0.08188908 0.6399531
0.2897104 0.2543294 -0.6570138
0.89428735 1.2139212 -0.1996282
0.9174653 1.0449412 -0.2859485
-0.2695102 0.91777253 -0.038441956
-0.19320966 1.4545841 -0.48801905
0.25502944 0.08916244 -0.23989677
-0.4028638 1.1763332 -0.25182205
-0.7215593 0.63146615 -0.48992848
0.026409693 -0.11826059 -0.164438
-0.716054 1.3889916 0.041520745
-0.7246314 -0.084003374 -0.43022975
0.36031693 0.964857 -0.5392418
-0.5842589 -0.41300887 -0.10950193
-0.32286596 1.2183006 0.51952296
0.12782453 1.2377787 -0.5222718
-0.24015586 0.68179196 -0.26283956
-0.03770826 1.0983325 -0.5872661
-0.20988846 1.0717349 0.574813
-0.74486655 -0.07820607 0.20652556
0.2729994 0.41167036 -0.81079507
-0.06095747 -0.087020755 -0.76463294
0.7626515 -0.25059032 -0.49188644
-0.51933277 1.1309928 0.6146445
0.63129914 1.2182643 -0.70663434
-0.09723888 -0.21459493 -0.4608202
-0.12072431 0.90943074 -0.82410705
-0.09874378 -0.05727413 0.1711127
-0.7479775 0.9899529 -0.52818775
0.42113405 0.88090235 -0.109882884
0.16362822 1.2642791 -0.13975239
0.2551421 0.7865602 -0.60376346
0.9227321 -0.24744526 0.015214076
0.08946663 0.47361502 -0.88260853
0.8686312 0.66538763 -0.3932297
0.71465796 1.5292057 -0.1725239
-0.20960733 0.100722 -0.101640314
-0.40439576 1.3091797 0.36405858
-0.10733041 -0.2207903 -0.27478394
0.8919411 1.1169045 0.20003521
-0.7250528 -0.42041016 0.7764632
0.36827356 1.1206771 0.74293923
-0.49719524 -0.41840047 -0.7300417
-0.7038809 0.80755615 -0.5746858
0.19796261 0.2331478 0.15963373
0.3325836 0.7471014 0.7655903
-0.57063293 -0.08587896 0.5117065
0.7395332 -0.085927 -0.58123696
0.8696979 1.0078498 -0.45482326
-0.09911027 1.3950219 -0.6474473
0.33737487 0.12252409 -0.043411136
-0.020011034 -0.41404223 -0.7606646
0.7254888 -0.41850966 0.64978033
-0.09831871 0.5472714 -0.9019115
-0.43832502 0.5980253 -0.5563843
0.03667026 0.84339607 0.36016524
0.57218146 -0.056085177 0.1207887
0.19575515 -0.4105208 0.28522742
-0.35111895 -0.41408902 -0.59208214
-0.34393695 1.189481 0.7015817
0.14693555 1.2128011 -0.9439298
-0.8909294 -0.09826082 -0.9121248
-0.7406974 0.93732166 0.37646496
0.07874708 -0.43314087 -0.25840646
0.430839 1.021533 0.03755013
0.5333116 0.27131718 0.3211425
-0.075816706 -0.07286948 0.5645933
0.12752154 1.5981424 -0.35134017
0.15270287 1.0567111 -0.199422
-0.7628094 -0.24438323 0.30783463
-0.48689055 1.6422429 0.093765326
0.44675028 1.0619134 -0.17761429
-0.46065485 0.37009656 0.44337153
-0.85903627 -0.078325845 0.012701957
-0.4817887 0.6856384 -0.107338175
0.7844168 0.95803195 -0.6034341
-0.17677577 1.2303771 -0.71594304
-0.18986842 1.5427604 0.53069556
-0.3305838 1.7391223 -0.009645309
0.5926165 0.68357825 -0.7766123
0.35675016 1.5421956 0.18414722
0.7203096 0.8108209 -0.68771875
-0.40107992 -0.07889174 0.39892608
-0.6219516 -0.089957744 0.9125092
0.40822744 -0.07133387 0.4332142
0.582939 -0.268565 0.89945436
0.9221845 -0.24647936 -0.38822585
-0.89537066 -0.40585393 0.09969254
0.7857642 0.9062024 -0.1257985
0.9199117 -0.24712309 -0.18537256
0.57933474 0.37285092 -0.56333077
-0.5438416 -0.42152262 0.48961854
-0.097759664 0.12972388 -0.32250527
-0.72008735 -0.41603556 0.4007038
-0.071256414 0.42637354 0.12406398
-0.30223757 0.910125 -0.53292865
-0.86124456 1.0444167 -0.13306676
-0.0011137878 -0.41293818 0.5718838
0.17797549 0.25142837 -0.056475103
-0.68452644 -0.08045548 -0.041509137
-0.7136999 -0.41759253 -0.6250385
0.07053757 0.6509405 -0.77109563
-0.8996104 -0.4039681 0.71611714
-0.9034444 -0.09199189 -0.53153783
-0.5999948 -0.24177706 -0.2105631
-0.30952168 0.824022 -0.9198568
0.4266017 -0.2544748 -0.9206927
-0.5530962 1.4347892 0.36997896
-0.012729621 -0.40949583 0.36932176
-0.19206148 0.65196395 0.7546897
0.3763174 0.9382467 -0.9247255
0.42776594 1.2909119 -0.6255158
-0.48544782 1.3550569 -0.2919865
-0.5246998 -0.24569735 0.9144504
-0.43516064 -0.22193886 0.08998027
0.6619849 0.8339293 -0.4560681
0.037790522 1.4194555 0.19028032
0.008833388 0.24246766 0.096224144
0.15571517 0.13135329 0.35508305
-0.2559721 -0.41992354 -0.751227
0.3718338 -0.2542541 0.9239832
-0.21219876 1.3766241 0.44656402
0.36279643 -0.06579484 -0.55262184
-0.13617206 0.9247256 -0.62497544
0.88443387 0.5953688 0.01990522
-0.45195523 1.3951331 0.19986549
0.3974044 -0.07584738 0.8611218
-0.034877107 0.76681626 0.81159914
0.30620414 1.2837737 -0.41561815
0.3327813 1.7416029 0.1848906
-0.35398954 -0.25889003 -0.7670336
0.74050224 -0.081581816 0.22511075
0.31939846 0.96194863 -0.25500813
0.4381262 0.91736066 0.7357379
-0.45125318 1.5868188 0.28787988
0.5453766 -0.4175138 0.12982465
-0.67402595 1.1019883 0.43160674
-0.10165928 1.119542 0.34033978
-0.032573067 -0.24612369 -0.6298454
-0.5349504 -0.08048769 0.7284291
0.81177586 1.363764 -0.3069516
0.22617015 0.60885006 -0.07892052
0.9515468 1.0000788 -0.11123955
0.5867932 0.4265626 -0.1519566
0.6123247 1.3539393 -0.3825025
-0.07232769 1.5894233 -0.35910642
0.44318965 0.24709198 -0.53859246
-0.09923165 -0.42031148 -0.14522888
-0.7394798 -0.41564536 -0.21622452
-0.27038762 -0.40890324 -0.07508212
-0.23108512 0.4982394 0.22845152
0.9037042 -0.08832537 -0.89525306
-0.3694771 -0.4113516 -0.9006306
0.11682794 -0.23901176 0.3191465
-0.8960451 -0.09202841 -0.33795908
0.011055833 0.7937547 -0.27574366
-0.12859342 0.4657644 0.6846161
-0.62465745 0.70712876 0.067149304
0.04779593 1.8278687 -0.090006836
-0.07110849 1.2736756 -0.50618327
0.9261474 -0.24698678 0.22941454
0.14944246 -0.40776256 0.45441765
-0.031672064 -0.25664574 -0.913833
-0.9157363 -0.25967526 -0.871344
-0.17925456 -0.40361995 0.2540182
-0.6450429 0.61738175 0.42872757
0.067541555 0.86042804 -0.83516574
-0.21704106 1.1842648 -0.91289395
0.74619853 0.76545596 -0.27201548
-0.3103614 0.1281239 -0.35398304
0.66951466 1.2939703 -0.20367095
0.43820018 -0.24245596 0.7548238
0.02232663 1.360209 0.50438154
-0.38898754 1.4847128 -0.6438527
-0.10723832 -0.25453314 -0.08434586
0.78636277 0.9000175 0.45063496
-0.20466512 0.11581242 0.15018426
-0.19467238 -0.4168082 0.4418298
0.24049321 -0.07666358 0.53455496
-0.24809852 1.0411227 -0.20071346
-0.27040997 1.2525067 -0.40062565
-0.46865165 1.265393 -0.45883426
-0.36193806 0.9928646 0.72399807
0.39390105 0.5849369 0.6821813
-0.54751253 -0.08277202 -0.55257547
0.0816109 -0.059623044 -0.66973037
0.24331874 0.93712366 -0.0119263325
-0.77638924 1.1411815 0.27995154
0.42164433 0.7386956 -0.7055312
-0.6430661 0.78805995 0.5089383
-0.4126364 0.9846404 -0.67974424
-0.06549998 0.9812721 0.46197653
0.052706443 -0.29445654 -0.18474545
-0.76287913 -0.24683702 -0.10909659
0.0036743362 1.5089934 -0.5065098
-0.27134025 0.88497376 -0.31840783
0.3081782 1.0424641 0.5770775
-0.25963408 -0.22467184 0.36458737
-0.44471636 0.43058023 0.16718867
-0.5011606 1.0326061 0.09009856
0.30324322 0.09528395 0.16080362
-0.09380415 1.2814188 0.13343143
-0.89780354 -0.40522748 -0.108122125
-0.57874864 -0.40514916 -0.91510856
0.57816684 0.58789825 0.5645083
0.12480003 1.0919561 -0.8094913
0.2758568 1.3378673 -0.87172663
0.46322942 1.2632257 -0.8123218
0.0953226 1.237865 -0.31455255
0.37913126 -0.063156575 -0.18150711
-0.5342889 -0.4146319 0.29134482
0.08368695 -0.029475944 0.4399911
0.10413021 0.07784906 0.16429174
0.93127096 0.8438165 -0.28012097
0.73977137 0.34738153 -0.26065648
0.7355689 -0.08521944 -0.89893275
-0.41292602 -0.24376786 -0.47690976
0.22820073 1.8020309 -0.11597461
0.09920172 -0.2402901 -0.033246
-0.21608725 -0.4030108 -0.4552937
0.47303328 0.5509056 -0.28112668
0.42337763 1.0960255 0.24784195
0.33295226 -0.4153943 -0.57853264
-0.25396657 0.28651196 -0.6652231
-0.48276442 1.6619337 -0.109728396
0.41766384 -0.41229028 0.6140199
0.53611946 1.6757299 -0.14123732
-0.09433389 -0.042846795 0.38648415
0.43154734 0.77331126 -0.5062231
-0.297364 1.7574012 -0.20913789
0.22884077 -0.39803892 0.9128772
-0.20022172 -0.019309627 -0.4275627
-0.03791787 0.10042005 0.2776138
0.18668169 0.6155114 -0.57578003
0.43693417 1.0958726 -0.39937752
-0.6096521 1.2353675 -0.2712723
-0.2675571 -0.2185474 -0.18566859
0.85896504 1.2010775 -0.40676776
0.5405692 -0.41078717 -0.48979726
-0.38618875 0.8169543 0.26649615
0.16605842 0.9251555 -0.5219302
-0.41356117 -0.24088654 0.260691
-0.41575542 -0.045055326 0.19907266
-0.16482314 1.0104864 -0.4239292
0.893134 -0.09476946 0.9088652
-0.02606716 0.44543263 -0.39965904
0.9267893 -0.25073522 0.8616517
0.11747147 1.3942592 -0.41140985
0.20397684 -0.40937787 0.098358944
-0.07011933 0.9422074 0.6647117
0.38594145 1.7592814 -0.047734376
0.29862574 0.12552527 -0.47864145
0.70314455 1.1702313 -0.36182332
-0.43631494 0.6801456 -0.29711646
0.45657736 1.3989257 0.5700829
0.7271569 -0.4163111 0.42902833
-0.52992356 1.0911124 -0.7780554
0.54149914 -0.05635089 -0.31074345
-0.49449039 0.88115406 -0.8237641
0.72185034 -0.4164729 -0.3864894
-0.89807653 -0.093132526 -0.15061477
0.82796 0.46131295 -0.11650207
-0.86781216 -0.091705665 0.9093997
-0.8391229 1.0621297 0.07193719
-0.14761074 0.82250345 -0.16169068
0.32859123 0.49594614 0.07854983
-0.1797092 0.26187825 0.0098169735
0.35616183 1.5745066 -0.314081
0.28154445 -0.21995053 0.21947847
0.15944585 0.764768 0.039791636
-0.12378994 0.7825239 0.46362308
-0.11459834 -0.2604782 0.91849154
0.56452537 0.87197053 -0.82953095
0.75899845 1.1509153 -0.57932496
-0.0942016 1.4900823 0.34927273
0.24064429 1.2501292 0.045754425
-0.15668106 1.2507837 0.7365503
0.30439872 1.11572 -0.0681186
-0.11441316 0.5615381 -0.70585185
-0.49993518 0.21534029 -0.31247562
-0.7342319 -0.41431773 -0.00013961736
0.1620248 1.2008026 0.59053874
0.7201115 -0.08158457 -0.19155586
0.7309112 -0.07946272 0.014099875
0.5161521 1.4592233 -0.2514537
0.7005335 -0.41519699 -0.760081
0.3613195 0.73154294 -0.012512676
0.28091675 1.4054239 -0.26739815
0.6049685 0.21832669 -0.2130747
-0.4547701 -0.08259125 -0.73880744
0.64412653 0.27246022 0.14714512
0.32761472 0.62968946 -0.42295462
0.732144 1.3414464 -0.5171817
-0.4537732 1.4626155 0.0029940759
-0.75627834 -0.24991916 -0.32199198
-0.4216445 -0.40869817 -0.19945732
0.82747495 0.7212683 0.33783212
0.3842244 1.3133597 -0.11953473
0.21790111 0.80800176 -0.97348845
-0.77010506 -0.2535016 -0.526132
-0.30544007 1.3146178 -0.59593606
0.24860555 -0.39923164 -0.28228012
-0.5901668 0.53360593 0.13039207
-0.6447034 0.932578 -0.3794486
0.470564 1.1084 0.45488775
0.10032911 -0.23481435 -0.75789416
0.25042728 -0.03259123 0.33152926
-0.09648056 0.95108724 0.22863525
-0.55074257 0.8748009 -0.06873645
-0.893297 -0.41034135 0.3136304
-0.86311495 -0.40234798 0.90527856
-0.6942422 1.340544 0.24958166
0.33406544 -0.4159731 0.7728702
0.7076012 0.7327946 0.512272
-0.57343733 -0.2501613 -0.78821504
0.23407912 -0.22573757 -0.19785874
-0.8939861 -0.40483636 -0.7324322
-0.38627672 1.2045265 -0.8167777
-0.16247493 0.7875611 0.27809447
0.6480533 1.6011486 -0.011548042
0.59105605 1.0711566 -0.26471937
-0.5924673 -0.24437055 -0.007687503
0.7712668 1.0538411 0.036755066
-0.8952932 -0.40828305 -0.32546023
0.8517597 0.81776196 -0.48899192
0.3477103 0.17133288 0.34102145
-0.6244494 1.5369279 -0.03410538
-0.726859 -0.41430673 0.20404759
-0.35485524 0.77334154 0.7194556
-0.7433726 -0.08450514 -0.6102133
-0.21506205 -0.41115516 0.90121293
-0.63378143 1.2697889 0.4394648
0.91999805 1.1675279 -0.008560961
-0.7541121 -0.23987032 0.09706426
0.045024693 0.4960005 0.27738932
-0.43321955 1.491507 -0.20138846
-0.4992409 0.44173223 -0.2175479
0.2593303 0.5876746 -0.7383251
0.23563828 0.7685015 -0.7911913
0.32798043 1.1382004 -0.9224365
-0.5420553 -0.41499424 -0.5284307
-0.39183673 1.0114001 0.51616573
-0.25015467 -0.018244535 0.29779598
-0.90131676 -0.09401025 0.33754978
0.08207354 -0.08487109 0.65576154
-0.43225065 -0.22593653 -0.103909105
-0.64513755 1.2815077 -0.5452213
0.50017613 0.6060393 0.06914407
0.4131551 -0.022829551 0.024678549
0.1971212 0.2554843 0.51429
0.7786056 -0.24583508 0.12291439
0.543351 0.6812632 -0.12671258
0.18612498 -0.07926399 -0.8862411
-0.37618414 1.3146315 -0.100319624
0.5967513 -0.24596727 0.42682704
0.35021994 0.7535665 0.34578907
0.5012891 1.5224836 0.05062083
0.10857995 -0.23926647 0.14486149
0.7195789 1.2406015 -0.01610433
0.58849084 1.1209602 0.10939817
0.04824788 0.94425094 -0.6795723
0.013282215 0.7433656 0.1964809
-0.3964203 -0.41312027 -0.39572835
-0.71736795 -0.08602542 0.61915743
0.53860253 -0.41327536 0.33064127
-0.8945002 -0.090612434 0.53034186
-0.6047953 1.4985011 0.16884713
0.014355307 -0.41181028 0.18347013
-0.62754416 0.9182173 -0.70052654
0.7558781 -0.25057122 -0.28727224
0.44566536 0.59128046 0.40310323
0.029126156 0.9476886 0.8345138
-0.920897 -0.26562706 0.21279177
-0.23224139 -0.091514066 0.9000527
0.16679531 1.0846395 -0.61682034
-0.8505319 -0.40599847 -0.9132632
0.36979336 0.71818346 -0.22641078
0.27697265 0.523814 0.27371588
-0.56056494 -0.41170043 0.10482197
0.5279574 0.56170666 -0.47804964
0.22812095 1.618254 -0.17783001
-0.3616957 1.0625026 -0.40455428
-0.9251151 -0.24670646 -0.6461748
0.89674366 -0.08624325 -0.28907493
0.66800547 0.5412688 -0.02363187
-0.6710845 1.082556 -0.2308015
-0.24978334 0.93824816 0.37259096
0.27155954 0.59274566 0.50134695
-0.47456336 1.3258278 0.55696213
-0.0072183725 -0.061840855 -0.36254466
0.5593239 0.80351645 0.023505144
-0.5044745 1.2799968 0.0694573
0.16283847 0.66791785 0.31878114
-0.72542924 -0.41695595 -0.42788348
0.38449362 -0.41004068 -0.39224356
-0.09850958 -0.0820307 0.7478298
0.18732187 1.1517916 0.7858851
-0.4698633 -0.037032686 0.0033562263
0.5391532 -0.41949302 -0.66970646
-0.4133281 -0.08949843 0.5925093
0.012143094 1.4686797 -0.01239521
-0.67550755 0.35749775 -0.03922285
-0.4269203 -0.4065149 -0.0078874435
0.2600301 0.4317368 -0.6020385
-0.6439457 0.3417002 -0.24520805
-0.08915507 1.6592386 -0.582386
0.48307496 0.48425996 0.24345233
0.59247756 0.86373925 -0.19984046
-0.0684687 -0.23977524 0.09070337
0.5805361 -0.083835796 0.5377203
0.1449838 0.76941264 0.8049189
-0.70156336 -0.4120177 0.601179
-0.19418097 0.86624706 0.7909371
0.54944265 1.2279396 -0.49548468
-0.8894682 -0.087913856 -0.7366415
0.9387661 0.9532683 0.07783046
-0.56634426 1.2050875 0.25650513
0.2220116 1.2660611 -0.72215766
-0.08733824 -0.40403706 -0.32813108
-0.25196418 1.0558732 -0.7380142
-0.2061622 1.5284929 -0.7068068
0.61410964 0.9511621 0.43038124
-0.39643276 -0.049480554 -0.42764527
0.24613869 -0.11395897 0.92056966
-0.7670952 -0.24124877 -0.74340934
0.72389364 1.1988847 0.19293019
-0.42364293 1.145555 -0.59873843
-0.31803665 0.97330475 0.15972535
-0.29394394 1.4693545 0.2826538
-0.273319 0.44223344 -0.79723525
0.107858144 0.7325305 -0.44031632
0.12170123 1.0077441 0.6760311
-0.5616928 1.109762 -0.41815144
-0.0033907807 1.5516124 0.5541476
-0.1784436 1.6113704 0.20615783
0.039110713 0.37051308 -0.06076234
-0.06571624 1.8017576 -0.27242684
-0.0389735 1.3104486 -0.16060713
0.05149879 0.5125762 -0.19988874
0.054520093 -0.073790744 0.03593021
-0.49922132 0.8883576 0.6418475
0.2565779 0.8714582 0.63410556
0.7254488 -0.417638 0.22682084
0.42284846 -0.221719 0.07952309
-0.8449402 0.6701735 -0.080218635
-0.4799729 0.41172418 -0.014461463
0.23092175 0.42340645 -0.08548124
0.1033622 1.0956986 -0.0019570412
-0.42035407 -0.08540395 0.88894457
0.29981688 1.1837254 -0.25558364
-0.33289033 1.7125256 0.19618693
-0.45025885 0.71004176 -0.81739545
-0.1892345 0.46766418 -0.26508123
-0.9253788 -0.24994381 0.8658643
-0.27648076 0.68521595 0.55915713
0.3555236 -0.41568464 0.42767584
-0.20583043 1.1130376 0.16035974
0.03367322 -0.41661823 -0.013600141
0.3958635 0.2843877 0.48919427
-0.4263249 0.8172871 0.067048
0.18765733 -0.40581578 -0.4507488
-0.43225592 0.5495665 0.29654703
0.20919767 1.4440572 -0.06677655
0.04398863 0.65516925 0.45498538
0.9056747 0.6478435 -0.185267
0.21864405 -0.060301278 -0.089807525
0.70558995 0.2979743 -0.052021004
0.23364986 0.94735503 -0.75736326
0.44252944 0.38466394 -0.6983801
0.13576078 1.0020347 0.4849304
-0.15768376 -0.41182262 0.067680016
-0.16737735 -0.034421593 -0.2323151
-0.49982297 0.6910033 0.6129047
-0.5066165 1.3042923 -0.6973344
0.899619 -0.40743384 0.12449096
0.84780204 1.3010895 0.12156266
0.55703676 -0.4139349 0.742138
0.07921298 1.3975818 -0.85462654
-0.24065992 -0.24295682 -0.59019154
0.5530758 1.2611251 0.2820891
0.895751 -0.40827554 0.5351591
0.293163 1.6097841 0.021594025
0.35589987 -0.08750383 -0.90551853
-0.037929304 1.2476108 -0.9179679
0.102423966 -0.07467471 0.85346055
0.03149343 1.6461902 -0.17192036
-0.18280208 1.7803075 0.09882264
0.30263042 1.6634493 0.3676598
0.64318764 1.5532346 0.18930471
-0.53014386 0.96302557 -0.5338713
-0.25559834 -0.087162174 -0.74965
0.7208122 -0.081865095 0.87469876
-0.7244986 -0.081622064 -0.23008259
-0.44662625 -0.2409857 -0.63380957
-0.43801093 1.6641077 -0.29670206
0.66799074 1.0208793 -0.7319196
-0.58834475 0.8606839 0.19100524
-0.2902304 0.84956515 -0.7356936
0.40420347 0.57536316 -0.6120322
-0.0716295 0.70833397 0.63106036
-0.27426827 0.50795686 -0.61854064
0.45396483 0.114381835 -0.19403726
0.9056413 0.74636376 0.14410569
-0.3582539 -0.41444674 0.35664082
-0.30983037 1.3685715 -0.7914495
0.24782151 0.9539479 0.8121439
0.7402887 -0.08252448 0.4359793
0.40075058 1.535337 -0.121329874
-0.9237777 -0.25394964 -0.42941284
0.45047718 1.5350227 0.4347309
-0.13105409 0.3007043 0.56005085
-0.88547385 -0.40956777 0.5191405
0.5536189 0.8978151 -0.6083417
0.541409 0.7615664 0.43851188
-0.31265765 0.25439578 0.43781716
0.53004205 0.750812 0.6658093
-0.14977646 -0.25679433 -0.7633419
-0.710364 -0.2611668 -0.9258025
0.43036664 1.2184894 0.08158025
-0.09558304 -0.23884109 0.629177
-0.1634719 -0.09063094 -0.9160906
-0.8228897 0.91570187 0.20102745
0.1385168 0.37475473 -0.28107208
0.5763157 -0.08836263 0.7461341
0.037387542 0.76755166 -0.62884855
0.19422019 1.7994306 0.07817785
0.23045132 -0.41830456 0.60350734
-0.44132286 0.37567747 -0.64056003
-0.26800558 0.49224538 0.03708478
-0.5577127 1.5258951 -0.3864951
0.039929852 -0.21322462 0.46958438
-0.6095296 0.9796751 0.53387165
-0.7474046 0.7562139 0.31507027
0.74632 -0.25150675 -0.08416639
-0.23171747 1.1255505 -0.5537654
-0.014495377 1.11114 0.14727598
0.72160816 -0.08280824 -0.3908428
-0.6417521 1.1221387 -0.63180614
-0.7715874 0.52941966 0.04141954
0.5733894 -0.07720557 0.33048296
0.27908903 1.3917177 -0.5848062
-0.08036271 1.3780707 -0.3435839
-0.25534967 1.6426797 0.3775469
0.43618983 1.4212177 -0.43904072
-0.46488628 1.0051188 0.3045929
0.34620184 0.2887336 0.037761338
-0.16589233 0.2818593 0.21456373
-0.38563573 0.83290255 0.47987604
-0.041753672 0.6230893 -0.31978697
0.30957228 -0.2389296 -0.7768357
-0.09269037 0.6078901 0.32075524
0.6141067 -0.2641815 0.06898597
0.64180136 -0.25035638 0.24761575
-0.3727134 1.4312816 -0.42941144
-0.121969715 1.3910115 -0.8407788
0.10176112 -0.40569082 -0.61227775
-0.13260391 0.75137144 -0.96427953
0.64393973 -0.24331301 -0.91605663
-0.6077063 0.45232248 0.3418191
-0.595411 -0.25205302 0.21137995
0.5667241 -0.4149412 0.52359575
-0.11230373 0.996572 -0.0054087797
0.33830166 1.1105151 -0.7388984
0.054786574 0.8396845 0.58760417
-0.6542568 1.0306656 0.20970966
-0.13216938 0.54859185 0.5136328
0.8974343 -0.090411544 0.73629725
-0.5427506 1.4369893 -0.54458797
-0.57177025 -0.08748783 0.31424004
0.45209506 0.15651757 -0.36742175
0.34842157 1.2192861 0.55449903
0.28985047 1.3279514 0.6971293
0.72793293 0.9947378 0.22661409
-0.12818414 0.6082331 -0.11419937
-0.11248356 0.6189773 0.10837008
-0.6117047 -0.25586566 0.40855414
0.17970362 0.65556514 -0.27783522
0.91860944 -0.25025225 0.6492877
0.18536767 1.00403 -0.97691476
0.41035748 -0.23033768 -0.28981712
-0.5295906 0.23432398 0.09054178
-0.5342518 -0.25823218 0.5939227
-0.3065005 0.51132804 0.4385715
0.9250909 -0.248208 0.44361708
0.59050214 -0.25257295 0.6468769
-0.5283109 1.1588242 -0.09677285
0.56766546 0.9357184 0.15641338
0.88475484 0.90487146 0.26701152
0.19710821 0.33255792 0.32496113
-0.3450032 0.5357069 -0.3500259
-0.7468674 -0.24816918 0.53269315
0.24287415 1.7317959 -0.44360211
0.0021432822 1.6097963 0.17870736
0.5422053 -0.08623102 -0.90741223
0.26213938 0.4058777 0.6275016
0.10250322 -0.24625212 0.9275732
0.64819634 -0.08137506 -0.73199147
0.040431954 1.0802262 -0.4072433
-0.058975954 0.08162817 0.03291411
0.51518863 1.0744832 -0.8442414
0.17827171 -0.071174175 -0.29917598
-0.79066217 -0.25096023 0.7270074
-0.73561615 -0.08261144 0.41609144
0.540167 1.0516443 0.65510666
0.23347142 1.074808 -0.40471038
0.12263119 1.212899 0.20464087
-0.33866695 0.5574391 0.6615311
0.5805449 -0.23578483 -0.2060096
-0.18257248 1.0604804 0.7870934
0.8127259 1.0744832 0.37860715
-0.5493676 0.6873008 0.2480028
-0.15749279 1.6621485 -0.19109961
-0.62686336 -0.4033109 0.90695465
0.25748158 -0.21157192 -0.40807873
-0.5525014 0.33906388 -0.45449477
-0.40974057 1.6076316 -0.47270304
0.77787924 -0.24842498 0.3430941
0.9174015 -0.24196827 -0.5942645
-0.12999424 -0.07862531 -0.037186906
0.06473283 1.1750815 0.4226911
0.36792833 -0.02473265 -0.3747345
0.6393215 0.89974505 0.6086495
0.57703316 1.4040079 -0.07822876
-0.66863227 1.0458694 -0.03951413
-0.3639353 1.0200682 -0.89491254
0.8968547 -0.40742296 -0.08253801
0.7236761 0.55345255 0.41933182
-0.10905333 0.39814666 -0.58109426
-0.32825166 0.36129522 0.29810226
-0.33986887 0.41156393 -0.48531914
0.08053121 -0.25319135 -0.35195464
0.76152086 0.64788914 -0.585951
-0.45892757 0.795915 -0.6156719
-0.017995808 1.1362448 0.6088639
-0.64874756 1.1877596 0.072646275
0.2599414 -0.077252254 -0.7075077
-0.8941275 -0.40692848 -0.5339216
0.06960915 0.48037827 -0.68831956
-0.23483667 0.8787377 0.5938183
-0.0081146695 0.59448254 -0.53283
0.8910228 -0.40797865 0.7345216
0.23816434 -0.06342271 0.11280054
-0.18681063 0.56336486 -0.45586962
0.085434176 1.4529579 -0.22205734
-0.43164152 -0.2320427 -0.29435062
0.90162945 -0.08820917 0.53866684
0.8830357 -0.40168008 0.9064182
-0.023452174 1.1195457 -0.15901105
-0.46182364 0.67921054 0.4262409
0.6002774 1.5250245 -0.4921692
0.302697 -0.4042574 -0.91398036
-0.26685834 1.387128 -0.2553977
-0.50771093 0.2828141 0.27993855
-0.3241992 0.7191822 -0.46494853
-0.1432834 -0.40972126 -0.9077637
-0.14218801 1.4508339 0.14119594
0.49959612 0.726498 0.21668908
0.3002408 1.5226486 0.55028486
-0.379015 -0.41402984 0.5592631
0.6082951 0.4492945 -0.35173845
0.20272666 -0.41235352 -0.75091517
-0.116523445 1.6212518 0.0011902979
-0.52670527 -0.057456832 -0.16353685
0.5471227 -0.10360185 0.91975677
0.7904997 0.4149444 0.084587336
0.55514085 -0.014814755 -0.10657692
-0.21574056 -0.25336605 0.7608083
0.010559704 0.87984717 -0.995468
0.114572495 -0.41788357 0.74839556
0.264907 -0.2284216 0.013206145
-0.34874082 -0.40887016 0.15575226
0.29774955 0.26325697 -0.22622249
0.059392363 0.6772386 -0.9596511
0.23198795 -0.24382311 -0.59625244
-0.08954346 1.4131794 0.6576262
-0.040099077 1.6691453 0.4119389
-0.18504292 0.983425 -0.9691018
-0.43879613 -0.25537598 0.4370649
-0.13969496 1.8106315 -0.079058394
-0.12572572 -0.25320113 0.46194172
-0.3049352 0.6722436 -0.6902503
0.13383484 0.59859794 0.1319908
0.22073552 -0.2527135 0.7819679
0.9322578 -0.24612175 -0.781546
0.4245696 -0.25139505 -0.63239366
-0.27137908 -0.23249584 0.011572012
0.32695198 1.164907 -0.5530587
0.7219765 -0.39934075 -0.9167434
-0.68728006 1.3726492 -0.37538218
0.103269786 1.6363062 0.0040690126
-0.32786018 0.31068614 0.10186577
0.20165142 1.5115658 -0.75694335
-0.9179779 -0.2564716 0.42290542
0.445157 -0.24590579 0.5251944
0.40098774 -0.24496126 0.35337853
-0.9124452 -0.10285009 0.15856469
-0.45232284 0.53512937 -0.74905354
0.47984654 0.15697727 0.16176966
0.44843698 0.34188604 -0.31408376
-0.2774098 -0.031612534 0.08392033
-0.01263029 0.049684897 -0.522789
0.74165416 0.72457594 -0.06922342
-0.4146436 -0.24236879 0.74475336
-0.21776992 0.25099835 -0.2137042
-0.06923844 -0.22671944 0.2821983
-0.19007331 1.394105 -0.041993152
-0.37982592 0.8296571 -0.17727956
0.8213233 0.50600135 -0.3154965
0.90310895 -0.08583823 -0.4915716
-0.28740788 1.11848 0.36279953
0.1651603 0.69549346 0.6271242
-0.28715864 1.379701 0.6305438
0.5764649 0.41668907 0.44414824
0.29692155 0.48452917 -0.26192135
-0.6019625 0.6863797 -0.686131
-0.18954544 0.15151484 -0.53146374
0.38167888 -0.4109679 0.017664872
0.085750505 -0.40593654 -0.90815127
-0.11382498 1.1715715 -0.33368734
-0.6922897 0.7251681 -0.10904822
0.44312733 0.45023227 0.57734835
0.01077335 -0.40740845 0.9067426
-0.0056743287 1.1305084 0.8004489
0.5001072 1.6936917 0.086356185
0.41480488 -0.036028102 0.2346803
-0.3914591 1.1708279 0.19797853
0.11226596 0.30249187 -0.75401676
-0.4346801 0.6076858 0.06291656
-0.19956742 0.8285141 0.110035494
-0.03636778 0.20630023 -0.11012608
0.2576321 -0.08300048 0.72888714
-0.86643434 0.8719314 -0.016074931
0.5084233 1.228586 0.63977456
-0.69995165 0.8872831 0.049616642
0.006440716 1.8077891 0.0994945
-0.73155415 -0.084594384 -0.89843166
0.3979193 -0.4129672 -0.18077436
-0.049897842 0.3313277 -0.25205398
0.12236199 -0.25910196 0.61124134
0.89763546 -0.0868256 -0.087779805
0.8847702 -0.080802694 -0.7049659
0.553445 -0.4119926 -0.2872447
-0.13023883 1.2376069 0.51523703
-0.4468835 0.8655272 -0.39032394
0.36961734 0.875144 0.14345588
-0.3001622 -0.24951373 0.5740056
-0.36505038 0.3404972 -0.30442518
-0.38306034 0.22556731 -0.5023315
0.43954015 0.5509583 -0.8162139
-0.6016369 0.49916017 -0.58705
0.62283266 0.6195892 0.31160414
-0.61650276 1.5345771 -0.2228486
-0.043063093 1.3019314 0.3218804
-0.5942388 -0.08492979 0.12031356
-0.73035944 -0.08075686 0.79279137
0.48795342 -0.2290405 0.22410487
0.025819417 0.047013678 -0.17835364
0.24471383 0.2944656 -0.42451733
0.2509761 0.6029955 -0.9205584
-0.0030612182 1.5494502 -0.7402413
0.7650701 1.2584258 0.36508048
0.38665366 0.43299356 -0.46233296
-0.36484247 -0.034559354 -0.26643103
-0.8026664 1.2447153 0.12233396
0.21080288 0.81179655 0.45504552
-0.052150995 0.22122559 -0.660082
-0.40193945 0.12302827 -0.17163646
-0.794139 0.811424 -0.4051615
-0.5172348 0.51738083 -0.4086292
-0.38273323 1.493362 0.47047198
-0.14335366 0.42074275 -0.0850751
-0.097301796 1.755209 0.26632613
-0.9217218 -0.25641042 -0.22186634
0.55720425 -0.40196195 -0.07453202
-0.8311893 1.0040226 -0.333538
0.8546345 -0.24869612 -0.9264798
0.5039897 1.0895203 -0.62990236
-0.19189915 0.3134313 -0.41626698
-0.34503305 0.5356381 -0.14068143
-0.30325377 0.6677232 0.17265
-0.068896614 0.96910775 -0.26211065
0.105413064 0.20933919 -0.24397688
0.61311454 1.1018298 0.33094507
0.75245064 -0.25132716 0.54560435
0.8923353 -0.40798414 -0.68644893
-0.012721065 0.89985406 -0.47482526
-0.34696117 0.32041326 -0.10315941
0.38784516 1.4401525 -0.74974644
0.40306425 -0.23708317 -0.1022829
0.42921656 1.6599042 -0.46040767
-0.16714191 0.17076662 0.38185495
-0.24244356 -0.0807666 0.5103352
0.2147932 -0.40972817 -0.09591267
0.14365882 0.093338266 -0.024675656
0.7005156 0.6860635 0.12801778
0.3712923 1.758246 -0.26829165
-0.85616857 0.8305825 -0.21573085
-0.04641182 -0.09683508 0.9144887
0.9459362 0.79389536 -0.059563637
0.03511604 0.5503708 -0.0036198683
-0.286929 -0.081985034 0.7144625
0.43444085 0.32220155 -0.12046036
-0.29482335 1.5580509 -0.10476864
0.4171481 0.52740616 -0.09504199
0.19333345 -0.24789363 -0.92403305
0.13014613 0.91548353 -0.32187036
-0.2144258 1.7331476 -0.4010709
0.54893506 -0.07547066 -0.52152276
-0.29958987 1.3182596 0.09178162
0.45350683 1.5289841 -0.6051564
0.62495685 1.0307266 -0.48038095
0.90284216 -0.08647867 0.11865665
0.6755151 0.8170895 0.28238386
0.6407994 0.49920893 0.1529292
-0.29803666 0.3945737 0.57823396
0.24724329 1.5206838 -0.46776164
-0.42941582 -0.4080062 0.89652705
0.15748523 1.332983 0.33046222
-0.7389743 -0.24688007 0.92026997
0.41206557 0.74043524 -0.89789
0.5939372 -0.24148339 -0.39642632
0.73906714 0.9558817 -0.32272935
0.5810894 1.3909533 -0.64410686
0.37986064 1.3972259 0.049206726
-0.796618 0.6494788 -0.29452917
-0.7634408 0.4962286 -0.1691189
0.39224297 -0.41243738 -0.76090205
-0.61344445 0.6024599 -0.26579815
0.7337116 1.4016429 0.24487677
0.722281 -0.4164064 -0.1827725
0.7587162 1.4657247 0.045178562
0.737746 -0.083171144 0.6513101
-0.61819303 -0.25473383 -0.6161022
0.047969244 0.91448265 -0.10159722
-0.25471273 -0.40168643 -0.26854885
-0.36019254 0.16423026 0.2446119
0.18754005 -0.024247572 -0.5116588
0.20616168 0.5561589 0.74127436
0.11507363 1.6500254 -0.5996988
0.48562697 0.91236633 -0.36229262
-0.6440766 -0.08094997 -0.74069494
0.18164009 1.6035199 0.1972581
-0.5428925 0.22693928 -0.108242415
0.30411133 -0.24706092 0.61881006
0.020872734 1.7474251 -0.44439584
-0.27454573 0.67998457 0.3684691
-0.31102604 1.540338 0.08848494
0.8993149 -0.40760562 0.3302307
0.25083458 1.0622547 0.15694967
0.014625725 -0.2442986 0.7684617
-0.7485379 1.1635761 -0.43832695
-0.49296296 0.99233854 -0.24880102
-0.4863056 1.1440024 0.42298102
0.31623155 0.6754378 0.16427642
0.68400514 0.637972 -0.40939233
0.56067044 -0.16918926 -0.048789896
-0.6580689 0.3781857 0.15829292
-0.5683199 0.7259027 -0.4551281
-0.27577442 0.7047595 -0.036877755
-0.26044706 1.6235301 -0.55246735
-0.80494595 1.2126106 -0.26256692
0.21413597 0.81729794 -0.16307631
0.7074465 1.5070913 -0.35245374
-0.92730844 -0.2514336 0.6229087
0.4672836 -0.41060132 0.9059935
0.7501322 1.1007844 -0.16060369
0.19794503 1.426733 0.12897429
-0.31875345 -0.051732183 -0.09379901
0.059678 1.3081563 0.7326671
-0.73915714 1.387589 -0.17218055
0.09828784 1.0241452 0.29271626
-0.1609909 0.7311883 -0.5851909
0.07299912 -0.074189536 0.2512641
0.17072137 0.4689989 0.4460994
-0.12723798 -0.41512716 -0.6102573
0.29122886 1.4661804 0.33930856
0.89953274 -0.40659708 -0.4872567
0.22794026 1.3603454 0.49357212
-0.41922462 1.0035408 -0.08197364
0.418213 1.310815 0.40265098
-0.14462468 0.39478123 0.37381145
0.15200451 0.40574402 0.11924425
0.48041314 1.2577965 -0.28569406
0.72868085 -0.4188724 0.023628414
0.063702494 0.53561985 0.5968028
0.09723091 1.512827 0.36141762
-0.22834346 1.2861286 0.27599022
-0.008453017 1.0708635 -0.9766655
-0.28017357 0.62276065 -0.8805248
0.15455385 1.6273148 0.4784401
0.61647975 0.27510023 -0.40892792
0.8967206 -0.40796492 -0.28544074
-0.57118744 -0.41196018 -0.318183
0.018327624 0.29139125 0.28552312
0.029303096 -0.08998299 -0.9131322
0.6097663 0.9894953 -0.05319693
0.118990615 1.7500113 0.2870243
-0.70020854 0.47363347 -0.37984687
-0.19195747 -0.41159296 0.6123693
0.5955986 1.3413033 0.10053537
0.26204014 1.157751 0.37884808
-0.38451004 0.1321123 0.02827571
0.5826544 0.7038558 -0.5840625
0.061234675 0.9292413 0.10834122
0.7569386 -0.24129461 -0.73338866
-0.107828274 1.4918232 -0.1817444
-0.32210314 -0.41577247 0.74294066
-0.0895458 -0.41485927 0.754973
-0.62154996 -0.24998298 0.7457681
-0.1115337 0.73560756 -0.77965844
-0.25255263 -0.25699478 -0.92113745
0.72517264 -0.41245675 -0.5796467
-0.5936338 -0.24896754 -0.42501512
0.8257419 0.5607593 0.22177908
-0.13017647 -0.058958225 -0.5992733
0.026470799 1.2479465 -0.71716994
0.7354505 0.46362567 -0.48959178
-0.32625303 1.1358738 -0.0073421267
-0.13161658 0.7797526 -0.4100925
-0.552634 -0.09061925 -0.9134195
0.29855698 0.9683076 0.3610463
-0.8175658 0.72315985 0.12318644
-0.26203054 -0.20618737 -0.3817516
0.5265199 -0.41107014 -0.8967335
0.42696893 -0.22977793 -0.46689916
-0.7012943 -0.4180513 -0.79922915
-0.32457125 -0.2532646 0.9204284
0.37148365 -0.40820533 0.21709327
0.048552312 0.7013722 -0.12453319
0.09268163 0.36556765 -0.54780424
0.83445597 1.3698769 -0.097263664
0.69300884 -0.41696388 0.87963104
0.5517153 0.17124414 -0.015594338
-0.5584591 -0.0783772 -0.34483045
0.68580997 0.5886611 -0.21637413
0.55942935 1.641686 -0.31955904
-0.065914184 1.0802696 -0.7907311
0.69863844 0.39932835 0.28913975
0.09936601 1.413612 -0.6264061
0.8960849 -0.4054097 -0.88058805
0.6108458 0.5241083 -0.6694083
-0.7366061 0.5742928 0.23925242
0.4748411 0.9154145 0.31624377
0.5448843 -0.25455308 -0.7730398
-0.3588835 -0.088147424 -0.9107772
-0.0836474 0.36744726 -0.7962701
0.012347552 0.40308857 0.46197778
-0.23980948 -0.2108967 0.18233137
-0.21985382 1.2257111 -0.18301786
0.01665317 0.5792157 0.76987606
0.19891602 0.8507595 0.22641239
0.36137354 0.4152883 0.40026975
-0.9258293 -0.24410802 -0.003792079
0.0056848386 0.24795505 -0.4403934
0.13714182 1.4593639 0.63992774
-0.7944972 1.2256949 -0.072476044
0.4081846 0.9223182 -0.72856104
-0.055091567 0.77958554 0.010500519
-0.6033556 0.79142416 -0.2670638
0.6129818 1.4460521 0.38952953
0.010904357 0.20043801 0.47565097
-0.5246341 -0.41834703 0.7150079
0.7554291 0.86332667 0.07610547
-0.26788315 1.5626708 -0.32447475
-0.60046494 0.54406935 -0.07317541
-0.13714215 1.1879547 -0.018870126
0.5304537 0.72571677 -0.33701286
0.90419805 -0.086819366 0.33030838
0.24555373 -0.2333399 0.43636414
0.2906509 0.82422256 -0.38514078
-0.49670267 0.5173164 0.53212935
0.14660403 1.796362 -0.28577584
0.061006702 0.36286998 0.65175474
0.13235569 0.16910563 -0.5903391
0.54228723 1.1914052 -0.08204877
0.37831756 0.7296176 0.5554932
0.6101781 -0.2439477 -0.5974604
