0.5799968 2.71811 0.6298715
0.4547599 1.8903015 0.07326178
0.44594714 2.9049025 0.3902353
0.74980676 -0.25035065 0.7536673
0.372755 2.358717 0.6091085
-0.61287427 2.3388014 0.43702143
0.017818637 1.6157677 -0.38214278
0.64167833 2.533385 0.6457869
0.28106278 3.1832962 -0.47121343
0.7819133 -0.24869946 0.93242455
0.45738435 -0.08410196 -0.7297318
0.005205554 -0.4161589 -0.46579117
0.02050112 2.800636 0.13734657
-0.75019777 2.4616947 -0.095661014
0.28310403 2.7801795 0.35847673
0.09579611 -0.24561179 -0.5284379
0.29877555 1.8235052 0.22045684
-0.34154788 -0.08374649 -0.5811945
0.11106871 2.0650518 -0.36899513
-0.90557206 -0.0950823 0.73269516
0.4502437 3.119348 0.4355882
-0.6133941 2.884416 0.028718602
-0.482433 -0.25380188 -0.9255197
0.4285084 -0.080384284 0.6427623
0.21966451 1.822499 -0.61884415
0.8571389 2.738127 -0.07015529
0.8734081 2.586273 -0.18362097
-0.28923297 2.4336088 0.022912055
-0.21747461 3.0376606 -0.34561
0.19622816 1.590232 -0.23170936
-0.4439332 2.7371023 -0.14330883
-0.7561821 2.2186322 -0.44947863
0.0015059771 -0.084145606 -0.12553543
-0.7526529 2.9216206 0.16986199
-0.7229167 -0.083009064 -0.41263884
0.31944412 2.5314913 -0.45372933
-0.5887902 -0.41516066 -0.09753837
-0.40095222 2.7067323 0.684847
0.09350195 2.8042917 -0.40404284
-0.2955006 2.2173862 -0.23201105
-0.056013145 2.6742134 -0.48536327
-0.26373023 2.5383542 0.67080015
-0.7607887 -0.07530311 0.21943313
0.21862274 2.0085974 -0.7681466
-0.065146625 -0.087369144 -0.7639382
0.7544577 -0.24941492 -0.4993006
-0.5677617 2.5972836 0.71267754
0.59307885 2.7890558 -0.60203326
-0.10806508 -0.24671707 -0.46062654
-0.16305818 2.5210056 -0.7406455
-0.11315976 -0.079726666 0.190519
-0.787097 2.590222 -0.439916
0.3764593 2.3918672 0.00029582978
0.13288027 2.7994914 -0.018164942
0.20061395 2.3668272 -0.5281379
0.92277277 -0.24735892 0.00278674
0.040466677 2.0908532 -0.8345583
0.82377386 2.2206168 -0.33225054
0.68323684 3.0457048 -0.0019354114
-0.24530521 1.5789602 -0.110985816
-0.4474452 2.8107984 0.48285258
-0.13164496 -0.24348155 -0.25918335
0.8494912 2.593399 0.31279093
-0.71998507 -0.41955245 0.77728355
0.32339653 2.5372248 0.84835774
-0.50318706 -0.4191597 -0.7229444
-0.74457407 2.4111521 -0.50813735
0.12871903 1.7255336 0.1715323
0.2614687 2.1713128 0.8269652
-0.5596884 -0.08367047 0.55867505
0.7495435 -0.0869751 -0.5939015
0.823977 2.5684018 -0.35744008
-0.13132995 2.9872303 -0.5118972
0.30104262 1.5980079 -0.024029039
-0.03692051 -0.41420352 -0.76656973
0.7338656 -0.41714573 0.64036787
-0.14306659 2.1667807 -0.8482039
-0.49506563 2.2086806 -0.51822937
-0.024006546 2.3303971 0.42599016
0.56394863 -0.08303179 0.10493192
0.21249995 -0.41561058 0.29375648
-0.35623115 -0.41727358 -0.577128
-0.37685698 2.6227815 0.8198416
0.113651544 2.8264866 -0.8217928
-0.89313304 -0.09888036 -0.90949166
-0.78849316 2.4355202 0.4476663
0.09289402 -0.41935778 -0.25257504
0.38464147 2.5329933 0.1423792
0.46480754 1.7505233 0.33496103
-0.0614421 -0.08072615 0.5728714
0.11197488 3.15238 -0.19994143
0.111181736 2.6096654 -0.0964355
-0.76131076 -0.23844628 0.32604828
-0.50987935 3.163189 0.25207007
0.4156356 2.57015 -0.073143475
-0.5229627 1.8565257 0.43934685
-0.8738061 -0.082951896 0.029786903
-0.5311415 2.2104616 -0.040692322
0.73801565 2.5411572 -0.5117553
-0.21433759 2.830214 -0.59403527
-0.22057194 3.0119433 0.6810107
-0.35113066 3.2726145 0.1602715
0.5449676 2.2659512 -0.7084446
0.3192119 3.0300226 0.34248763
0.6765202 2.3878298 -0.60646594
-0.39828452 -0.08734128 0.45376492
-0.6214869 -0.090720415 0.9167281
0.41233993 -0.08184472 0.43171304
0.60350984 -0.261981 0.8990382
0.9205866 -0.24531974 -0.3963647
-0.8961668 -0.40814126 0.11429949
0.7457813 2.4302979 -0.033805136
0.9175979 -0.24674885 -0.1982113
0.5124494 1.9360632 -0.52601326
-0.5319652 -0.41938043 0.47684056
-0.16519155 1.6223046 -0.3015573
-0.7038119 -0.41447192 0.40349442
-0.13368896 1.9244652 0.13940293
-0.3448121 2.5089977 -0.44539693
-0.8999891 2.5958323 -0.046291895
0.0112990355 -0.4155572 0.5816325
0.11936559 1.7223178 -0.032070793
-0.6941166 -0.07708274 -0.004574675
-0.7152202 -0.4161365 -0.6134935
0.032817222 2.2702763 -0.69072753
-0.8973581 -0.40629703 0.7220752
-0.9017518 -0.09087747 -0.5203345
-0.6119813 -0.2504906 -0.20321612
-0.34675264 2.4571006 -0.84289896
0.4224996 -0.25416148 -0.9253063
-0.5918915 2.9386728 0.4960572
0.0054272185 -0.4165657 0.37768137
-0.2639648 2.0916057 0.7957678
0.33994043 2.5361772 -0.836883
0.40641594 2.8672643 -0.5037856
-0.52130127 2.9220533 -0.1641661
-0.5217012 -0.2436739 0.9123653
-0.49914235 -0.2502514 0.12512964
0.61808705 2.3910766 -0.37617806
-0.0043418896 2.9170206 0.32593048
-0.056462266 1.7289298 0.09531963
0.087036386 1.61095 0.33551073
-0.27205092 -0.41750956 -0.7447393
0.4078732 -0.268732 0.92176044
-0.25863463 2.8501906 0.57302034
0.3927362 -0.08326453 -0.53693724
-0.17093705 2.52847 -0.5354183
0.8340943 2.1087298 0.06498409
-0.4778584 2.9127693 0.32850432
0.37833416 -0.074975826 0.8747339
-0.10158226 2.1949773 0.85932386
0.2602027 2.8397603 -0.28303254
0.301902 3.239147 0.35623872
-0.36886942 -0.25208613 -0.7725271
0.73573947 -0.080038846 0.2111716
0.26966417 2.496427 -0.1375204
0.38002482 2.3290067 0.81336856
-0.4784478 3.0898962 0.4427238
0.55733806 -0.42212304 0.1252457
-0.7154787 2.5941544 0.529804
-0.15674114 2.6122444 0.45969677
-0.039648674 -0.24829116 -0.63559157
-0.5463698 -0.08359363 0.7492917
0.7811408 2.9009519 -0.15026614
0.1693868 2.1228342 -0.03525056
0.90893483 2.5228667 -0.016748883
0.53095967 1.9690598 -0.10657652
0.5816747 2.892229 -0.23904267
-0.08859573 3.152256 -0.2062343
0.37233812 1.8025223 -0.50753045
-0.08753233 -0.41604087 -0.13521847
-0.7422623 -0.4148566 -0.20749247
-0.26762837 -0.41600496 -0.051975533
-0.2862832 2.0162907 0.24219948
0.9018532 -0.08854625 -0.8979857
-0.38425833 -0.411045 -0.90023106
0.12062149 -0.25378668 0.31636882
-0.8957586 -0.09013462 -0.3227867
-0.025790308 2.3459444 -0.19601806
-0.20828685 1.9147761 0.6948754
-0.67181677 2.2333794 0.11838163
0.026574917 3.3578517 0.08366495
-0.10032782 2.849843 -0.38300192
0.92449 -0.24571997 0.21880975
0.16589117 -0.41345587 0.466964
-0.048912585 -0.25654638 -0.9158067
-0.9164315 -0.25960454 -0.8664228
-0.15642038 -0.41405067 0.26301438
-0.70443356 2.1049035 0.45772815
0.030651167 2.4815512 -0.76326454
-0.25948462 2.816199 -0.79324305
0.70365804 2.3085203 -0.19889256
-0.33422744 1.6854041 -0.36366665
0.6320931 2.8185072 -0.06676119
0.44999385 -0.23800667 0.7555348
-0.023981057 2.831872 0.6312785
-0.41794872 3.0890584 -0.49546757
-0.117655605 -0.2504881 -0.056438077
0.73446405 2.352522 0.5336267
-0.2569716 1.5866311 0.11928742
-0.17501299 -0.42039922 0.451145
0.25533098 -0.08224174 0.5392538
-0.29018345 2.6057353 -0.096508496
-0.3063806 2.8318796 -0.28118488
-0.5045699 2.8510008 -0.34073794
-0.4156745 2.4334602 0.80712503
0.3071807 2.0153217 0.73618627
-0.54996026 -0.08307842 -0.53705883
0.084902085 -0.08152049 -0.66746473
0.19906566 2.4340358 0.09450756
-0.81599474 2.6431694 0.37555832
0.37237793 2.3419409 -0.6296302
-0.7027905 2.2681756 0.5619127
-0.4530043 2.593604 -0.59064543
-0.13083428 2.4491634 0.5438582
0.040499136 -0.2590834 -0.18586592
-0.7716596 -0.24109301 -0.097783655
-0.020350471 3.0885906 -0.3649784
-0.32604373 2.455613 -0.22230203
0.24967083 2.4912686 0.6785095
-0.2565346 -0.25274473 0.37999427
-0.509783 1.9405441 0.17870246
-0.5355512 2.5443244 0.18607526
0.23808041 1.5858479 0.15749508
-0.13505605 2.8056335 0.23104064
-0.9024146 -0.4036369 -0.10018392
-0.59290063 -0.407172 -0.9136381
0.5360007 2.0336752 0.59609896
0.08723217 2.686624 -0.69468063
0.25113147 2.9363914 -0.735013
0.43515915 2.8600352 -0.6914736
0.057567418 2.794154 -0.19302434
0.3537267 -0.08309358 -0.19002849
-0.51258767 -0.42171 0.2655871
0.0978124 -0.08141628 0.4515262
0.053555645 1.5550803 0.1402824
0.8864171 2.387971 -0.20433274
0.681164 1.8899336 -0.2334806
0.7330838 -0.08566124 -0.90601885
-0.43255264 -0.25479656 -0.4673815
0.20613474 3.3330033 0.05350259
0.094888985 -0.24058405 -0.032457277
-0.21507576 -0.41395956 -0.44700515
0.40639347 2.0962133 -0.22830069
0.37749916 2.5901093 0.36043286
0.33145887 -0.42086688 -0.5953485
-0.28717482 1.8709784 -0.6390387
-0.5057969 3.2076259 0.05473292
0.43474168 -0.41191053 0.61951447
0.52067494 3.1936069 0.03023499
-0.081656724 -0.08467182 0.3820857
0.38717455 2.3368287 -0.42561865
-0.31225955 3.3162975 -0.03976497
0.24375097 -0.40106565 0.9117304
-0.20400058 -0.08111969 -0.4079303
-0.0983458 1.5836179 0.24735306
0.15062705 2.191526 -0.5115705
0.3889137 2.6373472 -0.29094952
-0.6484711 2.8003163 -0.14608815
-0.2851464 -0.25019872 -0.15849334
0.82568884 2.7560859 -0.28562587
0.54356146 -0.41287768 -0.50985104
-0.44920504 2.329959 0.3233881
0.11846309 2.4972882 -0.42342496
-0.3772927 -0.25990665 0.23806527
-0.44179952 -0.08659452 0.25606585
-0.20259733 2.5745625 -0.31863338
0.8940625 -0.0944601 0.90663695
-0.08802065 2.00039 -0.36515814
0.92863023 -0.24897447 0.84770596
0.08176701 2.9580736 -0.27820542
0.22034732 -0.41501248 0.10025066
-0.1303326 2.3868668 0.74065566
0.36245644 3.2792203 0.119277984
0.20524356 1.6780934 -0.42686003
0.678221 2.7126286 -0.23996118
-0.48513132 2.22831 -0.24542442
0.4245978 2.8414803 0.7082216
0.7350428 -0.415609 0.42123365
-0.56868345 2.7128265 -0.6706812
0.5207887 -0.08098023 -0.3400786
-0.5344494 2.5022821 -0.7391101
0.7215141 -0.41585737 -0.40153885
-0.89606583 -0.091271386 -0.13488367
0.77606016 1.9852147 -0.08319047
-0.8678682 -0.09368679 0.91161877
-0.8819846 2.59102 0.16082269
-0.20590179 2.3298836 -0.12879172
0.27548173 2.007924 0.116665676
-0.23412831 1.754756 0.00018329947
0.3302814 3.1109915 -0.16877323
0.292148 -0.24806201 0.2153117
0.0693515 2.2685122 0.09018275
-0.18660724 2.2541218 0.52212673
-0.1040642 -0.2588138 0.9161881
0.5239724 2.459 -0.74581444
0.71716034 2.7359495 -0.46777993
-0.12312387 2.9718175 0.49590814
0.20744297 2.7623794 0.16569512
-0.1939874 2.694747 0.85122114
0.26482585 2.628931 0.041914206
-0.15993914 2.171144 -0.6488699
-0.52594435 1.7741616 -0.30956918
-0.75194776 -0.4128275 0.0012973682
0.10838376 2.654348 0.7024933
0.713302 -0.08368382 -0.20651932
0.72163165 -0.08154237 -0.0023036296
0.48347548 2.9872952 -0.104886204
0.7024888 -0.41449574 -0.7667232
0.30208507 2.2280927 0.061116714
0.24939424 2.947541 -0.12810114
0.5417772 1.75809 -0.19951734
-0.47511798 -0.08305529 -0.7290412
0.58205575 1.7745903 0.16178021
0.28180486 2.1951013 -0.35936838
0.70728457 2.9081633 -0.36150455
-0.47713456 2.9941902 0.13842456
-0.76521957 -0.24707785 -0.31003398
-0.4219861 -0.4160412 -0.17425768
0.7705058 2.2070136 0.38977158
0.35002017 2.8396292 0.012580072
0.17489246 2.4192338 -0.8989798
-0.77125895 -0.25240123 -0.5158789
-0.33566612 2.9127235 -0.4657778
0.26631683 -0.41131222 -0.2845697
-0.63828385 2.0583458 0.1183004
-0.6856934 2.51126 -0.29416028
0.42090636 2.5663033 0.5692039
0.09071505 -0.24087122 -0.76839054
0.2477594 -0.08473151 0.32653743
-0.14076039 2.4676502 0.32075176
-0.594713 2.4108565 0.007014119
-0.88895154 -0.41193074 0.3296614
-0.8588498 -0.4047534 0.9059664
-0.725368 2.853047 0.36309576
0.35647088 -0.4173354 0.77883095
0.6563276 2.183335 0.5652202
-0.5814973 -0.25215778 -0.78197646
0.23031229 -0.24049583 -0.1905505
-0.8951557 -0.4044571 -0.7242929
-0.42441326 2.8255353 -0.6947217
-0.24270512 2.3247764 0.36915255
0.619233 3.1060863 0.16772142
0.547835 2.6200595 -0.16500464
-0.6162895 -0.24167886 -0.00852959
0.7247462 2.5481074 0.15288371
-0.8970446 -0.40680236 -0.31136772
0.804182 2.381544 -0.4150957
0.27756965 1.6616883 0.3449638
-0.6528625 3.0768049 0.11768645
-0.73220265 -0.4146055 0.22019376
-0.4191712 2.220469 0.77152884
-0.7376226 -0.08403543 -0.5947875
-0.20710738 -0.41276467 0.89672244
-0.6744877 2.7641344 0.53838897
0.8772736 2.6711655 0.1157676
-0.7452742 -0.24279115 0.12174635
-0.023164885 1.998953 0.30348295
-0.45898628 3.0446777 -0.054807093
-0.5263187 1.9894991 -0.22565174
0.21580675 2.1868198 -0.6818521
0.195683 2.3745656 -0.72303325
0.29368484 2.740604 -0.8099606
-0.5477245 -0.41590515 -0.5168179
-0.44321847 2.4910958 0.60909534
-0.26101202 -0.08446868 0.31274334
-0.9018508 -0.09401542 0.3569314
0.09828485 -0.082088165 0.6685853
-0.4520263 -0.25042427 -0.07584143
-0.68228704 2.8853765 -0.41514435
0.4574238 2.096117 0.109093726
0.38984028 -0.0810095 0.0052976683
0.12900068 1.7196988 0.5126036
0.7829808 -0.24200818 0.10816691
0.48975492 2.2036214 -0.0563705
0.17553917 -0.07752459 -0.8784195
-0.41523278 2.84624 0.020276068
0.6045091 -0.24625142 0.4193493
0.3054452 2.2495806 0.4167742
0.47347224 3.0211983 0.21586072
0.1278845 -0.25075883 0.14253128
0.6798157 2.745012 0.11400819
0.54497635 2.6225924 0.21882525
0.015174514 2.4948618 -0.5916606
-0.017600097 2.232882 0.26736027
-0.39869374 -0.41762605 -0.3796891
-0.72570217 -0.088321045 0.6211177
0.55341136 -0.41542906 0.32863653
-0.89923847 -0.09172873 0.5431812
-0.6369655 3.0188453 0.30759406
0.03604178 -0.4160331 0.18706049
-0.6680615 2.53934 -0.6130888
0.74950206 -0.2511949 -0.307881
0.36893523 2.05878 0.4527237
-0.030942678 2.3691483 0.91120327
-0.91906893 -0.27102417 0.22592127
-0.2152729 -0.09111279 0.90123713
0.14026289 2.65491 -0.51042295
-0.8521675 -0.40617537 -0.91238725
0.33037478 2.2720065 -0.15771088
0.22414479 2.013362 0.29732203
-0.6031625 -0.40982783 0.10370431
0.47795784 2.11832 -0.42335325
0.20857862 3.1499727 -0.020106394
-0.3974793 2.6426494 -0.301473
-0.92561215 -0.24689686 -0.6338341
0.8926827 -0.08544244 -0.29640284
0.631616 2.0612273 0.025751969
-0.71103513 2.6420507 -0.13053027
-0.3244537 2.4766803 0.4422241
0.20158577 2.0464573 0.55727184
-0.52651656 2.8143058 0.66317993
-0.042736202 -0.08374768 -0.30733812
0.5034673 2.2968516 0.1263238
-0.53934133 2.8036761 0.19656868
0.13539107 2.1466918 0.38296837
-0.7283921 -0.4164272 -0.4153655
0.39774048 -0.41756678 -0.40584576
-0.06806375 -0.08303961 0.76123
0.14677167 2.5842466 0.8891886
-0.49117428 -0.08191261 0.048573982
0.5377035 -0.4208498 -0.68789285
-0.39405644 -0.08104293 0.65056765
-0.020862104 2.9901385 0.12914592
-0.7156617 1.8905833 -0.032997347
-0.44141 -0.41513675 0.034185383
0.19946653 2.0089931 -0.5670929
-0.68153024 1.8947005 -0.23423007
-0.10935852 3.2478874 -0.42394075
0.4270072 1.9492269 0.27836365
0.544646 2.392313 -0.11251717
-0.041071504 -0.24840122 0.108300336
0.58377707 -0.08325662 0.5307572
0.07689674 2.193982 0.8642048
-0.6952468 -0.4122011 0.59989285
-0.25821456 2.2980766 0.85960287
0.5166079 2.7838855 -0.36728245
-0.88971853 -0.08855863 -0.7279322
0.895095 2.4493675 0.16350576
-0.604591 2.7080116 0.3607878
0.17769122 2.850336 -0.5983956
-0.081064045 -0.41247874 -0.31741557
-0.288579 2.6630626 -0.63471305
-0.23050377 3.1313753 -0.560988
0.5599 2.398555 0.5307163
-0.39595026 -0.08395622 -0.4187704
0.26360255 -0.18468386 0.9264307
-0.77109337 -0.24305469 -0.73322004
0.6817513 2.6684837 0.31758243
-0.44858992 2.7426891 -0.48709068
-0.343832 2.4696755 0.22171497
-0.32222143 2.9772232 0.42795384
-0.31291056 2.0476456 -0.7523911
0.07678893 2.2972946 -0.35812598
0.062145486 2.4509778 0.7644048
-0.6005688 2.6941018 -0.30963057
-0.032423645 3.0155678 0.70647043
-0.19575165 3.1144342 0.36793634
-0.011464668 1.8651457 -0.045947444
-0.07870643 3.3600717 -0.101071134
-0.074204154 2.853397 -0.026859453
-0.00038051966 2.03897 -0.17105871
0.03918147 -0.07999118 0.05783624
-0.5574175 2.3509111 0.7079097
0.18974108 2.3138866 0.7106128
0.7330313 -0.4162286 0.22007886
0.43174484 -0.25314692 0.0776099
-0.8912651 2.2235153 -0.041400347
-0.51785326 1.9488163 -0.011287817
0.17190655 1.9270643 -0.054860864
0.068788916 2.6107106 0.1090025
-0.40656096 -0.0828754 0.88702184
0.27246696 2.7172103 -0.13330865
-0.3488723 3.2166557 0.3688623
-0.48759085 2.3289227 -0.7554563
-0.23979387 2.0136395 -0.24629828
-0.9235275 -0.2541413 0.8683264
-0.33929574 2.1460395 0.5986389
0.37228587 -0.41783375 0.43520918
-0.24924433 2.6303878 0.27485085
0.053775493 -0.4150232 -0.017942742
0.33477223 1.7583371 0.5097255
-0.46653932 2.335648 0.12490688
0.19481319 -0.41342703 -0.45684257
-0.48115113 2.0478206 0.3224331
0.179391 2.9692864 0.075866215
-0.016930614 2.131465 0.48767093
0.8531922 2.1797311 -0.12967761
0.19481307 -0.079488486 -0.082324535
0.64735186 1.8233697 -0.0320377
0.20621717 2.5439079 -0.66494405
0.3800572 1.9600931 -0.6582233
0.07539481 2.468893 0.5719384
-0.12846142 -0.41382492 0.069991544
-0.18492886 -0.08155704 -0.18536669
-0.56119275 2.1580453 0.6502592
-0.5406269 2.9159164 -0.5638652
0.9006132 -0.40714824 0.11510342
0.81147456 2.7886314 0.26326582
0.5756383 -0.41191006 0.7396562
0.04852982 2.997611 -0.7218803
-0.25385448 -0.25024295 -0.58358115
0.5137539 2.735643 0.41225937
0.8976239 -0.40799654 0.52538717
0.2719434 3.1215 0.18037592
0.34675285 -0.08653606 -0.9084996
-0.07842262 2.8543653 -0.80717206
0.1509967 -0.07544343 0.8767206
0.013777153 3.1859994 -0.01733344
-0.2019585 3.294772 0.2741887
0.27110416 3.1373315 0.53386945
0.6002456 3.0332053 0.3694973
-0.5687039 2.5639293 -0.4422115
-0.26777965 -0.085576445 -0.7481867
0.7203393 -0.08351002 0.87786186
-0.7200219 -0.080773786 -0.20943746
-0.44519293 -0.25119543 -0.63041854
-0.45460576 3.2311065 -0.1302492
0.62660277 2.5992775 -0.6392498
-0.64119226 2.3703256 0.25300127
-0.33102578 2.458818 -0.65692985
0.35889995 2.1580133 -0.5612515
-0.14208138 2.1559386 0.6740641
-0.33679974 2.1067688 -0.5678238
0.3837912 1.6490772 -0.17059276
0.86022973 2.2401814 0.20402902
-0.3461799 -0.41970503 0.3558032
-0.34331295 2.9860108 -0.6549559
0.18655917 2.3769336 0.89372206
0.73756313 -0.081496276 0.42438707
0.37979656 3.0619462 0.03197264
-0.9247929 -0.25220138 -0.4171923
0.42939284 3.0025725 0.5804979
-0.20560016 1.7643362 0.5511242
-0.8829125 -0.4131217 0.52713215
0.5121192 2.4701595 -0.51728094
0.47731626 2.2139823 0.5139923
-0.37613404 1.7376001 0.42067033
0.46369433 2.1549573 0.7266991
-0.16596101 -0.25488585 -0.76156473
-0.71779525 -0.26030308 -0.9242579
0.39079082 2.725266 0.20495684
-0.075607345 -0.24319969 0.6452364
-0.17714578 -0.090255365 -0.9157107
-0.87209415 2.4287925 0.27083385
0.084260896 1.9037085 -0.254879
0.5794148 -0.085164405 0.745304
-0.03225828 2.327579 -0.51289403
0.17540526 3.3116922 0.24768409
0.24818033 -0.4181065 0.61471653
-0.473032 1.9698845 -0.6027808
-0.3107431 2.0212708 0.055020895
-0.58275265 3.1091762 -0.22974491
0.041909225 -0.24476847 0.47535977
-0.6592207 2.4527085 0.60593355
-0.80144346 2.255065 0.35977358
0.75018144 -0.2530733 -0.10042566
-0.25176993 2.7136025 -0.43829507
-0.05984956 2.6316223 0.25395268
0.71201694 -0.083950594 -0.40038663
-0.6775692 2.7372103 -0.5213856
-0.8186111 2.0615592 0.055426084
0.56830007 -0.081835285 0.31841564
0.25213602 2.9569569 -0.45755076
-0.11408912 2.937889 -0.20846489
-0.27715877 3.134801 0.54278874
0.40518785 2.965361 -0.3046527
-0.5316638 2.5023434 0.4019719
0.28466225 1.787055 0.03662119
-0.22972146 1.7693623 0.20322669
-0.43480927 2.3198738 0.5324815
-0.08227418 2.1828284 -0.2787017
0.3111158 -0.23627841 -0.7836638
-0.16254544 2.1284876 0.34385908
0.62570584 -0.2743404 0.068249136
0.65316415 -0.24707296 0.24028401
-0.40208948 3.0160625 -0.28957412
-0.15324686 3.0028906 -0.7089325
0.09399101 -0.41444486 -0.62537104
-0.17869195 2.377901 -0.89329505
0.64283836 -0.24450716 -0.9186926
-0.663576 1.9530439 0.3475449
-0.5945298 -0.26608068 0.28806323
0.5780573 -0.41400918 0.5202848
-0.15131088 2.5304189 0.09496205
0.30627936 2.7140958 -0.6253673
-0.010496826 2.2946887 0.6494304
-0.7015647 2.5416389 0.28659016
-0.1883346 2.0191746 0.52276325
0.8967335 -0.08846592 0.72830623
-0.57367843 3.0365996 -0.39701974
-0.5760102 -0.088696554 0.37027478
0.3805896 1.7015454 -0.3431632
0.2971623 2.6695113 0.67587644
0.25204614 2.7628546 0.8269862
0.67637193 2.4482653 0.34398782
-0.17830145 2.1281085 -0.08360983
-0.1385063 2.1375442 0.13085344
-0.62235904 -0.24770018 0.49765402
0.14553519 2.1934495 -0.21522331
0.918156 -0.24945495 0.63826334
0.15514693 2.6160421 -0.8788571
0.40872163 -0.25003463 -0.29816175
-0.5754964 1.7569647 0.07819347
-0.47376978 -0.26017883 0.59679776
-0.3609733 1.9864771 0.45910406
0.9244938 -0.24755171 0.43341035
0.60049677 -0.2497628 0.64798164
-0.5604497 2.691278 0.013105279
0.52295136 2.4449916 0.24923553
0.8432246 2.385796 0.34807104
0.12706257 1.8214159 0.3359957
-0.39835024 2.0916142 -0.3568905
-0.7819263 -0.25292838 0.5243344
0.22580962 3.2891436 -0.28545296
-0.023277342 3.1100922 0.3301093
0.53678805 -0.08645299 -0.9108646
0.19173774 1.8516665 0.6447824
0.102924034 -0.2590779 0.9241575
0.6517936 -0.082256034 -0.744009
-0.004751057 2.6430821 -0.2932843
-0.09253836 1.5469437 0.01727393
0.47622287 2.6699471 -0.7468345
0.14545938 -0.081634164 -0.28613055
-0.7844167 -0.25313348 0.7199328
-0.7352154 -0.0798783 0.42889372
0.48848975 2.475278 0.752602
0.19252619 2.6320233 -0.2964939
0.08666549 2.716341 0.31943983
-0.40833005 2.0120277 0.6880411
0.5843916 -0.2437914 -0.22951666
-0.22426045 2.490819 0.87891746
0.7674991 2.5355494 0.48662215
-0.59819496 2.1819487 0.28511697
-0.17062461 3.2156806 -0.03367046
-0.6164465 -0.4041362 0.90328956
0.21396747 -0.24563235 -0.3720237
-0.57739186 1.9158826 -0.43677902
-0.4323792 3.1998124 -0.3118438
0.78149295 -0.24691707 0.33562267
0.9152856 -0.2416171 -0.59843206
-0.15775645 -0.08649209 0.008594713
0.012225105 2.6564999 0.5350947
0.32663897 -0.08343319 -0.3629548
0.5772602 2.3152366 0.6958407
0.5420118 2.916371 0.06991634
-0.70624745 2.5784183 0.05409281
-0.4009741 2.64815 -0.79334056
0.8978051 -0.40826106 -0.09373074
0.68299913 2.027337 0.44648838
-0.15378109 1.9960622 -0.561051
-0.3812652 1.8639679 0.29012862
-0.3230582 1.9726173 -0.4572581
0.044014484 -0.25231934 -0.35775608
0.7135397 2.2092571 -0.5251341
-0.5004686 2.4051242 -0.54470766
-0.071969785 2.5850472 0.70752215
-0.68205255 2.7126174 0.17276055
0.26964462 -0.08061756 -0.6983538
-0.8946918 -0.40704572 -0.52048993
0.026111908 2.0768666 -0.6503123
-0.29485318 2.3401935 0.657699
-0.03445442 2.1483035 -0.48061568
0.89133793 -0.4088806 0.7289102
0.2275922 -0.081884205 0.12004564
-0.21816769 2.1638026 -0.42539677
0.055872202 2.9964347 -0.08098677
-0.44579393 -0.24958384 -0.2740029
0.8996465 -0.08738753 0.5257001
0.88905346 -0.40067405 0.90491545
-0.060751725 2.6638293 -0.047893733
-0.5171226 2.1639292 0.46815425
0.57157755 3.0756998 -0.33122352
0.29367206 -0.40202028 -0.91911614
-0.30346295 2.9516325 -0.12250525
-0.5609174 1.7818652 0.27088732
-0.3750317 2.3057308 -0.40265965
-0.16108799 -0.40968776 -0.90861905
-0.18074925 2.9650254 0.27821612
0.39624208 2.169766 0.26826423
0.2768433 2.967383 0.70220834
-0.36227107 -0.4151086 0.5482235
0.55443716 2.007856 -0.29771382
0.19391991 -0.4129069 -0.76490486
-0.13791203 3.1494684 0.1559102
-0.53220904 -0.083150856 -0.13731116
0.5403856 -0.099450395 0.91481555
0.7382217 1.9191482 0.114898026
0.53690696 -0.07100788 -0.1337087
-0.20698702 -0.2571207 0.7655912
-0.032985993 2.5008597 -0.91858613
0.12795268 -0.41792214 0.7518759
0.26908988 -0.24376854 0.008206615
-0.31600076 -0.41835862 0.15899843
0.23796697 1.7825195 -0.20301738
0.010580836 2.295607 -0.890419
0.2344642 -0.25630042 -0.6216643
-0.12479733 2.870563 0.79684
-0.06292641 3.148891 0.57754457
-0.21545932 2.6268108 -0.8725934
-0.44472772 -0.2575027 0.41155428
-0.15960877 3.3473358 0.09817237
-0.12344523 -0.25735348 0.48325622
-0.34369928 2.2753491 -0.6308856
0.0876328 2.0890508 0.16645402
0.24103129 -0.2618418 0.7721359
0.9323932 -0.24808337 -0.78453624
0.43699914 -0.25368178 -0.62490416
-0.30497676 -0.2521375 0.037024528
0.2984604 2.7414145 -0.43180025
0.72071064 -0.39954597 -0.92040074
-0.7206309 2.9549513 -0.2378344
0.08137809 3.1551785 0.15698133
-0.37494823 1.8372474 0.09147753
0.17609976 3.100716 -0.6127291
-0.9282989 -0.25996357 0.427971
0.46451756 -0.24626084 0.52715766
0.41023064 -0.2531097 0.3570181
-0.9165429 -0.10800516 0.17983839
-0.4912308 2.1439269 -0.70702225
0.41254133 1.6624961 0.16333339
0.39307073 1.8932942 -0.29720944
-0.31160378 -0.08439143 0.12637672
0.012065975 -0.08125624 -0.47764885
0.6845764 2.2538316 0.0054934826
-0.4043508 -0.23934203 0.76106536
-0.25010383 1.7757473 -0.2061699
-0.06204512 -0.24937916 0.2972359
-0.23667444 2.9365914 0.08642019
-0.42971036 2.3541822 -0.10818319
0.7725508 2.0519624 -0.2763103
0.9014702 -0.08565907 -0.4953166
-0.3309723 2.653142 0.5087253
0.0891678 2.1438415 0.67997646
-0.3260678 2.8449686 0.76212656
0.51570946 1.882695 0.47153914
0.2393223 2.0107446 -0.22426978
-0.6423423 2.3001432 -0.6311215
-0.17372325 1.6991146 -0.49979198
0.39395115 -0.41836414 0.012959644
0.071868174 -0.40381157 -0.9123505
-0.15434095 2.7302742 -0.21984673
-0.73206794 2.2553253 -0.05787357
0.3871222 1.9194276 0.6168504
0.017566299 -0.4111377 0.90758383
-0.043561067 2.5629382 0.90368164
0.46802965 3.1952705 0.25024688
0.40190232 -0.08206481 0.21395224
-0.42725825 2.6604846 0.31823206
0.059057854 1.8946087 -0.7185654
-0.46390894 2.1257925 0.12217576
-0.1846118 2.3326883 0.18833105
-0.08463481 1.7019687 -0.10607225
0.26980585 -0.087359115 0.7289394
-0.9124792 2.413546 0.048701465
0.4581989 2.6591058 0.7655984
-0.7514788 2.4095192 0.11443015
-0.0105385855 3.313408 0.27682212
-0.7369262 -0.0855522 -0.9048737
0.41366518 -0.41851485 -0.18682334
-0.09988876 1.859509 -0.22829705
0.13792047 -0.2543562 0.61200273
0.8938943 -0.08656447 -0.0974805
0.88826907 -0.08148131 -0.7110552
0.5623779 -0.41377237 -0.30239218
-0.1801129 2.7159505 0.64955485
-0.48843384 2.4416256 -0.310578
0.33549607 2.373699 0.23998764
-0.28817087 -0.24565464 0.5826754
-0.38405967 1.8886585 -0.30348736
-0.40429494 1.8006628 -0.49602985
0.390091 2.1397393 -0.76208204
-0.63678896 2.0898538 -0.55714655
0.5490648 2.08671 0.3630355
-0.6443846 3.0908008 -0.06735431
-0.09420068 2.7831087 0.43267423
-0.6096686 -0.09343177 0.18147284
-0.73348475 -0.083437644 0.79604626
0.4996885 -0.24839857 0.22460377
-0.022078685 1.5519906 -0.18444389
0.196338 1.8594835 -0.4020697
0.20180453 2.2126493 -0.8598056
-0.028597832 3.145337 -0.59209627
0.72490406 2.7172496 0.49369198
0.32578802 2.0050564 -0.43180245
-0.3567521 -0.083646595 -0.24971646
-0.8362589 2.7620206 0.23108688
0.15124732 2.280599 0.5257579
-0.102185406 1.8165191 -0.6334233
-0.40675157 1.6626844 -0.18784012
-0.83430713 2.3928628 -0.34236905
-0.5674207 2.1058276 -0.39013588
-0.41520083 2.9814281 0.6139559
-0.19275838 1.9359127 -0.065147415
-0.11800767 3.2531555 0.4396906
-0.92483664 -0.25249904 -0.20784405
0.569816 -0.40668637 -0.08349526
-0.8691331 2.581573 -0.24777046
0.8561717 -0.25005692 -0.929934
0.47188133 2.6657202 -0.5174587
-0.20444724 1.8467457 -0.4099856
-0.3918519 2.0821986 -0.117030114
-0.3295985 2.2119875 0.21602616
-0.12232466 2.5101295 -0.14485677
0.05972503 1.7247145 -0.22939207
0.5679065 2.568366 0.44618332
0.75367427 -0.24802232 0.5381659
0.8931876 -0.40804127 -0.68823415
-0.054346703 2.4729147 -0.37744987
-0.3868949 1.8632586 -0.10898882
0.36773878 3.0257125 -0.6091298
0.40952456 -0.25398177 -0.1136446
0.40819997 3.2088227 -0.30502367
-0.2325772 1.6511142 0.35583583
-0.23034218 -0.082806885 0.513294
0.2263148 -0.41178042 -0.09719852
0.113202676 1.5469377 -0.04261457
0.64790845 2.1747432 0.19786134
0.35060918 3.2884712 -0.09761788
-0.898137 2.3936596 -0.15619546
-0.01883758 -0.095297456 0.91486156
0.897339 2.311301 0.008179363
-0.014914258 2.0407434 0.024107078
-0.24066441 -0.084267765 0.7137245
0.3806104 1.8573934 -0.10915568
-0.31822678 3.1144786 0.042226788
0.34996068 2.0520344 -0.05562808
0.18491247 -0.24417907 -0.92758226
0.08526689 2.4741888 -0.2226434
-0.22793049 3.3077078 -0.23572987
0.56856966 -0.08349281 -0.5471456
-0.34066892 2.8328586 0.20920801
0.44245863 3.089716 -0.45954445
0.58728886 2.5910015 -0.37616777
0.9001124 -0.08538078 0.10618155
0.5753617 2.2772527 0.35036418
0.5853947 1.9871819 0.18873324
-0.37185094 1.8582058 0.58248204
0.2213701 3.0774336 -0.3306554
-0.42117268 -0.4084575 0.89560413
0.105484985 2.824022 0.4620576
-0.733436 -0.2511077 0.91504955
0.36873585 2.3360138 -0.825582
0.5623454 -0.24530992 -0.4304538
0.69186354 2.497822 -0.2243106
0.57371354 2.949656 -0.5037054
0.34503922 2.9072478 0.1895672
-0.84004104 2.22078 -0.25480723
-0.80864084 2.049969 -0.15074636
0.38576347 -0.4108279 -0.7710588
-0.66165745 2.1683004 -0.23868208
0.6965878 2.87359 0.39245546
0.72769547 -0.41690704 -0.1962325
0.7197758 2.9591289 0.20695087
0.7383194 -0.0822106 0.6466428
-0.6166569 -0.24952534 -0.6068841
0.022961512 2.4564872 -0.014341498
-0.2529468 -0.4140941 -0.25105214
-0.40985686 1.6677555 0.21636334
0.1996494 -0.08494097 -0.49993253
0.12082051 1.9853828 0.7782742
0.097143084 3.2314415 -0.44836488
0.44541168 2.4587972 -0.2704711
-0.6644013 -0.08106109 -0.7428429
0.15351415 3.1073802 0.3462084
-0.5711379 1.7634252 -0.11578064
0.32349348 -0.24850117 0.6100976
0.006366892 3.3177588 -0.2814021
-0.339688 2.1672144 0.4042669
-0.3356628 3.0665772 0.23615086
0.9005741 -0.40721574 0.31948385
0.2094292 2.5643818 0.2629417
0.040055245 -0.23948327 0.7729957
-0.7881404 2.7555254 -0.32887548
-0.5331588 2.5500832 -0.15473005
-0.5246224 2.6401992 0.52874076
0.2104938 2.2207932 0.21769518
0.6421186 2.1923342 -0.353702
0.57016814 -0.20388514 -0.05453624
-0.7118318 1.8963099 0.16279568
-0.61367816 2.3230183 -0.3920104
-0.31390306 2.2310934 0.017287552
-0.2838387 3.2133808 -0.3963645
-0.844262 2.7821412 -0.15143391
0.16619912 2.3375187 -0.08226676
0.67115843 3.0453856 -0.18260106
-0.9327895 -0.25534135 0.63495624
0.4937772 -0.41428423 0.90444523
0.70164144 2.6196373 -0.042492244
0.15859033 2.9326677 0.26997262
-0.34111428 -0.08293025 -0.06442632
0.018467786 2.7454123 0.8548634
-0.7721768 2.9445503 -0.037165664
0.04544849 2.527785 0.38913792
-0.21811819 2.3446844 -0.5196246
0.06940636 -0.08477449 0.24963775
0.103095055 1.9457777 0.46320435
-0.13212153 -0.41526872 -0.6080363
0.2563926 2.9419003 0.4918237
0.8980198 -0.4062767 -0.49416953
0.18116671 2.8240333 0.6275376
-0.44666576 2.525447 0.0060806246
0.37634337 2.7754393 0.5372325
-0.20479907 1.8839775 0.37112713
0.09083043 1.8991435 0.14016086
0.4390272 2.7959082 -0.16289222
0.736233 -0.41916862 0.015210355
-0.008528389 1.9899616 0.6190593
0.06797069 3.006073 0.50071204
-0.27454332 2.7965307 0.38180298
-0.028898 2.6866574 -0.8756354
-0.3209063 2.2438211 -0.82155466
0.13031688 3.0858006 0.64582
0.5533683 1.8291646 -0.38317764
0.89592326 -0.40824473 -0.2974909
-0.5719012 -0.41492027 -0.30586475
-0.04903626 1.7825997 0.2856919
0.017540444 -0.09089331 -0.91773915
0.56704646 2.4888241 0.04947758
0.09615421 3.237813 0.4607627
-0.7378671 2.0382166 -0.35626236
-0.18317455 -0.41278225 0.62663686
0.55940485 2.8336384 0.24237692
0.21097204 2.6407208 0.49282792
-0.42046568 1.6504729 0.0049743904
0.5353461 2.2711225 -0.5179934
0.013019415 2.433258 0.19785464
0.761255 -0.24061581 -0.7453573
-0.13628443 3.0391233 -0.03815614
-0.32430577 -0.41428852 0.738286
-0.07276518 -0.4126246 0.7593814
-0.6130399 -0.25215107 0.72588897
-0.14394978 2.3480937 -0.70814717
-0.26843706 -0.2564099 -0.92334044
0.72744095 -0.41386223 -0.59066015
-0.604978 -0.24950975 -0.41000792
0.7749894 2.048996 0.2621345
-0.13938028 -0.083410695 -0.59374666
-0.015865518 2.8431358 -0.6001096
0.6748331 2.0181851 -0.44661015
-0.37039942 2.6582217 0.10348772
-0.18363571 2.3575258 -0.3339253
-0.5612847 -0.09004946 -0.9115405
0.24999967 2.4559228 0.4635774
-0.8683466 2.2441163 0.16500676
-0.27957237 -0.24732897 -0.36950538
0.52369 -0.4098611 -0.90212333
0.3575466 -0.2531008 -0.47420406
-0.7073394 -0.4176367 -0.78783256
-0.31463933 -0.2533123 0.9231778
0.38713586 -0.41667467 0.2224881
-0.006397483 2.2121887 -0.075482965
0.032110944 1.9297085 -0.5106206
0.8036419 2.8811417 0.056068473
0.7066638 -0.4167252 0.87796867
0.49266297 1.6945306 -0.010941414
-0.5544683 -0.084326625 -0.32437724
0.6383438 2.1318414 -0.1591173
0.5282181 3.1767993 -0.15101632
-0.101333216 2.682407 -0.6862539
0.6401776 1.8802627 0.31725228
0.0691492 2.9934936 -0.49076462
0.8945074 -0.40701348 -0.8813758
0.55702436 2.0918436 -0.6231837
-0.7875108 2.0807543 0.2584491
0.42734787 2.4026031 0.40884024
0.53851914 -0.25247175 -0.78064334
-0.37320954 -0.08767892 -0.9102365
-0.12664431 1.9763443 -0.7644311
-0.05223479 1.8676026 0.47252858
-0.20480184 -0.24548581 0.17854996
-0.2556414 2.786735 -0.07199991
-0.06406757 2.0094924 0.798308
0.14779645 2.3660827 0.3223821
0.29133642 1.8860275 0.42587328
-0.92317355 -0.2504032 0.0140540935
-0.022017393 1.7931811 -0.3928374
0.10269089 2.9054818 0.78463435
-0.8321358 2.7689235 0.037602287
0.38139397 2.530014 -0.6433576
-0.1115188 2.3271422 0.028823161
-0.6411681 2.3523128 -0.19614126
0.5792997 2.8933392 0.54673505
-0.05800009 1.6706045 0.46223247
-0.5197927 -0.4184898 0.705912
0.70625573 2.3565187 0.17239392
-0.28689095 3.1325436 -0.17425579
-0.6381241 2.067498 -0.08163959
-0.1879051 2.7161748 0.087299705
0.4934659 2.2644935 -0.2663856
0.90168214 -0.08649133 0.3170083
0.25314832 -0.24838564 0.43921363
0.24901442 2.3954911 -0.30140007
-0.55853486 1.992275 0.54855824
0.13044116 3.3431292 -0.11736408
-0.016094875 1.8111818 0.65845853
0.054650083 1.7302458 -0.55551934
0.49688762 2.7031357 0.03383439
0.3099306 2.1756983 0.61962545
0.62203634 -0.25148302 -0.62073076
