0.5783873 1.087749 0.60295415
0.4964919 0.25940597 0.08365704
0.4311775 1.2430859 0.35742536
0.7465806 -0.24998409 0.75525427
0.39927098 0.7239177 0.6089915
-0.597628 0.6544002 0.462999
0.052317813 0.010967098 -0.37511218
0.65294886 0.9156184 0.6275037
0.24181347 1.4978192 -0.47362047
0.77285796 -0.2485487 0.9321934
0.46680337 -0.077707976 -0.7293495
0.004105625 -0.41737038 -0.47955287
0.008375467 1.1205616 0.12901174
-0.75336397 0.7565043 -0.08034611
0.27803892 1.111482 0.3386124
0.100228526 -0.23973966 -0.5378568
0.34013855 0.21157971 0.24205635
-0.33728462 -0.05405899 -0.5890528
0.120552 0.40633202 -0.3732968
-0.9062785 -0.09527598 0.73306704
0.43070725 1.4370717 0.40188435
-0.6275012 1.1766703 0.027528746
-0.46485722 -0.2513987 -0.9262811
0.4303761 -0.06563552 0.64528155
0.2421377 0.14616409 -0.63664424
0.84041023 1.0875733 -0.100755975
0.8647812 0.93456864 -0.20462325
-0.29155827 0.7556349 0.0290667
-0.24020013 1.3169627 -0.34630433
0.22857374 0.0069499956 -0.22131458
-0.45352757 1.0315616 -0.13953617
-0.76064014 0.50258654 -0.42625862
-0.00666212 -0.13834327 -0.12372762
-0.76053905 1.2116139 0.17216066
-0.7285125 -0.074720055 -0.42869616
0.30925125 0.8574784 -0.4585274
-0.6007221 -0.4122931 -0.11341415
-0.37164664 1.0213318 0.6442084
0.07893279 1.1146464 -0.40653306
-0.29501718 0.54418 -0.21443173
-0.07392958 0.9786116 -0.48416084
-0.25065547 0.8721574 0.67370856
-0.75280565 -0.057747185 0.21801147
0.22850606 0.32797056 -0.7759301
-0.051638626 -0.06910238 -0.76954705
0.75867915 -0.24442013 -0.48798335
-0.5649464 0.92056453 0.71831137
0.56924134 1.1222265 -0.5998908
-0.10563062 -0.24643737 -0.4694689
-0.1752345 0.819222 -0.736148
-0.111611694 -0.11654073 0.1855408
-0.78921163 0.8654442 -0.42686656
0.38351074 0.74194527 -0.014659379
0.119840294 1.1184855 -0.027983136
0.19669554 0.6917633 -0.5367886
0.9231328 -0.24457788 0.012463145
0.04451976 0.39942235 -0.8437536
0.83271873 0.5649222 -0.34552193
0.67236626 1.3933518 -0.039437965
-0.20858216 0.004635426 -0.08768916
-0.45191494 1.1188178 0.4809976
-0.13177964 -0.2612905 -0.272329
0.84556067 0.95450616 0.2851485
-0.71847224 -0.42014587 0.7713083
0.33679128 0.91186154 0.83916545
-0.496809 -0.4163012 -0.7337415
-0.74946916 0.69367146 -0.49236998
0.1669214 0.13985595 0.1860787
0.30335373 0.54399884 0.83704257
-0.5672776 -0.06956427 0.54019725
0.75251687 -0.08391452 -0.58751833
0.81921315 0.9091751 -0.37346488
-0.14879519 1.2728109 -0.5102006
0.3158459 0.027034711 -0.016232597
-0.021231728 -0.41173446 -0.7690717
0.7290382 -0.41689745 0.6468558
-0.14225098 0.47309658 -0.8447697
-0.49974382 0.49939615 -0.5072992
-0.0044932123 0.6705138 0.44301552
0.5732118 -0.06744367 0.11703885
0.20796028 -0.42090663 0.29636526
-0.35615277 -0.4125174 -0.59610605
-0.38199967 0.97851896 0.80992025
0.09116045 1.133725 -0.8327711
-0.890957 -0.09894222 -0.9148679
-0.7736263 0.7433032 0.46571028
0.08884586 -0.42975014 -0.26019132
0.38824707 0.8758174 0.13047712
0.5237352 0.116209604 0.36426288
-0.06481291 -0.061931778 0.5787576
0.08165789 1.4620979 -0.21114993
0.1074452 0.92773974 -0.10122633
-0.7666199 -0.23668635 0.32446265
-0.5373894 1.4680749 0.23796773
0.40832686 0.91793084 -0.08753453
-0.49520743 0.17046617 0.4981293
-0.871701 -0.07774348 0.020082518
-0.5296054 0.52570415 -0.026903018
0.73048306 0.8727241 -0.5229535
-0.22670318 1.1199598 -0.59507847
-0.2307124 1.3282137 0.65946335
-0.38386258 1.5760955 0.14810324
0.5483135 0.59934753 -0.7167916
0.30214053 1.3581433 0.3092327
0.67672396 0.7247046 -0.6176476
-0.41277596 -0.06872636 0.4356538
-0.619812 -0.0905941 0.9156771
0.42000592 -0.06349804 0.4331722
0.5959055 -0.26411387 0.8991563
0.92144084 -0.2447362 -0.38864338
-0.89978826 -0.4049035 0.1047478
0.7455127 0.7798027 -0.05014633
0.9184859 -0.24388312 -0.18847886
0.5358352 0.27574503 -0.52947456
-0.53700256 -0.41771656 0.4750598
-0.12863554 0.035883956 -0.28814757
-0.7086525 -0.4126472 0.39660934
-0.10689175 0.3024071 0.16417006
-0.35347658 0.80336493 -0.44279915
-0.9067434 0.87968683 -0.030816855
0.0036660212 -0.4127863 0.5841967
0.14953728 0.14088516 -0.02512652
-0.70030135 -0.04587462 -0.021214351
-0.7153549 -0.41618842 -0.6282594
0.029723678 0.584383 -0.6972556
-0.8965204 -0.40729183 0.71810365
-0.90506685 -0.09143032 -0.534082
-0.61688375 -0.2405252 -0.21839108
-0.36557007 0.73917305 -0.8439175
0.43165517 -0.25342596 -0.9261801
-0.59660596 1.237788 0.4987994
-0.0048788097 -0.42048854 0.38042682
-0.22691496 0.445011 0.8187813
0.32293457 0.8572117 -0.8403907
0.3815741 1.1895599 -0.50718343
-0.5375602 1.2081648 -0.16460563
-0.5250453 -0.24370152 0.9107481
-0.4921922 -0.251688 0.10896588
0.6202606 0.7300848 -0.3866315
-0.014987933 1.2358286 0.3121298
-0.021227729 0.14544246 0.11466657
0.12753552 0.030271582 0.34812889
-0.25822657 -0.41665268 -0.754155
0.39865008 -0.2663383 0.92163104
-0.2589681 1.1706631 0.562165
0.39314783 -0.051739372 -0.541693
-0.18223226 0.8241589 -0.53392255
0.8554617 0.46461204 0.060635768
-0.49495983 1.2102542 0.32473582
0.37938678 -0.0728766 0.87647176
-0.06555469 0.553496 0.88747275
0.25162643 1.1614146 -0.29541817
0.27720797 1.555057 0.32036048
-0.3529035 -0.24993649 -0.7728329
0.73937136 -0.061205864 0.22039422
0.27237278 0.82980037 -0.15344292
0.4111743 0.71617377 0.824661
-0.49283454 1.3863721 0.4247825
0.5596193 -0.4209212 0.13068739
-0.7105222 0.9056603 0.5383308
-0.1415225 0.9331862 0.45686
-0.03365306 -0.24014121 -0.6422881
-0.55020136 -0.08045631 0.74204123
0.7639015 1.2525474 -0.1868406
0.18758626 0.48341137 -0.022099
0.904762 0.87637687 -0.03618177
0.56364715 0.31627208 -0.11066075
0.56819916 1.239322 -0.2675236
-0.11797507 1.44207 -0.21132128
0.40322006 0.14090607 -0.52234674
-0.098911285 -0.42741942 -0.14721447
-0.7490915 -0.4128049 -0.2208773
-0.28295308 -0.42297244 -0.06875959
-0.2678501 0.35379088 0.27615842
0.90342194 -0.08880393 -0.897769
-0.3689034 -0.40978062 -0.90319484
0.12115567 -0.26515543 0.32519555
-0.89774644 -0.08986442 -0.3373962
-0.022821646 0.67230695 -0.19462714
-0.1631239 0.2617786 0.7407961
-0.6672112 0.533255 0.13994455
-0.011182165 1.6676075 0.059292383
-0.11655316 1.145733 -0.383223
0.9257656 -0.24449655 0.22693762
0.15844667 -0.4138748 0.46864
-0.03024071 -0.25388747 -0.9177539
-0.915697 -0.26018888 -0.8747785
-0.17502028 -0.4199959 0.26096493
-0.6839187 0.41955537 0.49554235
0.018457104 0.78835714 -0.7646351
-0.26979777 1.0974836 -0.7958199
0.7093487 0.65180826 -0.210182
-0.31502044 0.048287712 -0.33509612
0.6203226 1.1642985 -0.094476186
0.44436324 -0.23366177 0.7563526
-0.021931494 1.1657162 0.61643034
-0.4344111 1.356351 -0.49072465
-0.12601325 -0.27732998 -0.07030575
0.75980926 0.7254144 0.5272847
-0.21024957 0.010811459 0.14313434
-0.185605 -0.42025015 0.44803762
0.26223016 -0.061908983 0.5395479
-0.2966277 0.9105659 -0.09709868
-0.3199861 1.1203632 -0.2791757
-0.51697177 1.1315644 -0.33751434
-0.39716554 0.77743053 0.8119179
0.36863482 0.38735604 0.74958736
-0.5527141 -0.066463046 -0.5553663
0.09561189 -0.05399558 -0.6834812
0.20401482 0.7788508 0.087910734
-0.81503844 0.94809544 0.3891156
0.3726602 0.657264 -0.6357268
-0.68384635 0.5868944 0.59196126
-0.46821776 0.88178945 -0.5882259
-0.117108256 0.7826689 0.55379814
0.040640153 -0.28428325 -0.19133681
-0.7720923 -0.23404682 -0.10830076
-0.045758225 1.3777847 -0.36524191
-0.32707042 0.7609879 -0.2210229
0.26751685 0.84774303 0.67306364
-0.26822376 -0.24869733 0.3827456
-0.49154344 0.26020858 0.21820593
-0.5416116 0.8545661 0.19255596
0.27628544 0.017504774 0.17251834
-0.14199752 1.1178471 0.2323116
-0.90433896 -0.40224692 -0.11260259
-0.5778516 -0.40460473 -0.9176228
0.55683 0.4086271 0.6219256
0.07054422 1.0010895 -0.7030947
0.2221899 1.24545 -0.7463074
0.4021829 1.176162 -0.6917809
0.046675496 1.1059213 -0.19944167
0.36485222 -0.09705579 -0.18588184
-0.5276853 -0.4183874 0.2668606
0.100734726 -0.08448011 0.46234363
0.09035611 0.0020191597 0.14840765
0.8869844 0.7351012 -0.21995586
0.71615714 0.22716838 -0.24260543
0.7384236 -0.086052045 -0.90644884
-0.43050456 -0.24591495 -0.4851151
0.1687277 1.6367604 0.031549502
0.09709114 -0.27071047 -0.033075348
-0.22046143 -0.41299057 -0.46386334
0.43596372 0.43940613 -0.23459598
0.38238403 0.9301921 0.34672403
0.3406763 -0.41699407 -0.5897411
-0.29156613 0.17251167 -0.6385658
-0.5330286 1.4957213 0.04522754
0.42520964 -0.4091671 0.6182258
0.48446274 1.516509 -0.0010652312
-0.08134595 -0.095137514 0.38794726
0.3843805 0.6680523 -0.43676364
-0.3433653 1.5900545 -0.046942502
0.23488232 -0.39835137 0.912266
-0.2090393 -0.08484469 -0.4169479
-0.05273758 0.016820516 0.26515466
0.15166885 0.51751155 -0.5179455
0.38557303 0.97260267 -0.30284947
-0.65785533 1.0884726 -0.14375299
-0.29248255 -0.2601015 -0.17619008
0.8108822 1.1029171 -0.3123306
0.548143 -0.40871075 -0.50005317
-0.4385353 0.64010143 0.34300637
0.111793965 0.81832683 -0.42971978
-0.38744298 -0.25629812 0.24128655
-0.45787266 -0.08231521 0.23758586
-0.21089369 0.8810638 -0.31917
0.8937974 -0.09426583 0.907504
-0.07437007 0.3428377 -0.36385936
0.92790496 -0.24968086 0.85746515
0.06534764 1.2644377 -0.2836246
0.21510091 -0.4237954 0.10101375
-0.1072826 0.732074 0.75497484
0.33035964 1.591893 0.093245015
0.23281094 0.05347872 -0.42951444
0.6630613 1.0579538 -0.2615837
-0.48916715 0.5369805 -0.23078582
0.41877112 1.1983347 0.6822965
0.73190486 -0.41383344 0.4292586
-0.5844288 0.9999467 -0.67961276
0.5324582 -0.060481764 -0.33082122
-0.54755473 0.7890883 -0.73788124
0.7243881 -0.41344053 -0.3902744
-0.90012765 -0.0910362 -0.14814572
0.8040692 0.3378324 -0.086451516
-0.86835814 -0.0943325 0.9121884
-0.8843305 0.8857888 0.17143247
-0.1973837 0.6589956 -0.115105815
0.30510646 0.37851787 0.13150583
-0.20302472 0.14971232 0.026214339
0.30302608 1.4382305 -0.18700604
0.29179156 -0.25781855 0.21859095
0.09376786 0.6181804 0.10696287
-0.16654125 0.59133124 0.5449649
-0.111727685 -0.25589344 0.9163438
0.51408577 0.7875283 -0.7500646
0.6992028 1.0673522 -0.48023444
-0.13721061 1.290025 0.47559017
0.19835353 1.0892155 0.15240699
-0.19166341 1.0396845 0.84915423
0.260723 0.96269476 0.030284565
-0.16515699 0.47550568 -0.65005404
-0.5289148 0.09066133 -0.28182405
-0.75552666 -0.41078246 -0.0069807125
0.11704987 1.0011088 0.6956753
0.7209636 -0.056436673 -0.19505559
0.7264292 -0.051580645 0.009519203
0.46670106 1.3229649 -0.12940808
0.70536304 -0.41452783 -0.7629608
0.32498217 0.58816355 0.059479382
0.2315768 1.2687256 -0.14391163
0.5823424 0.11173001 -0.20349213
-0.45804167 -0.075666055 -0.7431346
0.63825905 0.13201949 0.17525855
0.2891367 0.52757156 -0.36440876
0.6934035 1.2570305 -0.40097356
-0.5000289 1.2909173 0.13606033
-0.76457816 -0.24152197 -0.3239319
-0.43514222 -0.41631645 -0.19759628
0.7953371 0.5691815 0.39370537
0.33694294 1.1678002 -0.0071703335
0.16431354 0.7362586 -0.90198886
-0.7731675 -0.25037104 -0.53054696
-0.35214758 1.1904397 -0.46528098
0.26442394 -0.4140104 -0.2872622
-0.63499117 0.3571947 0.17195469
-0.69013274 0.79779494 -0.2826323
0.43173367 0.92178106 0.55459845
0.10539225 -0.23299125 -0.7667615
0.24842823 -0.09723145 0.32816517
-0.13594505 0.78986347 0.32615155
-0.5958744 0.7149596 0.021240324
-0.8929181 -0.41013783 0.3220895
-0.8579842 -0.405379 0.90440214
-0.7392471 1.1510665 0.3759196
0.34476542 -0.41480288 0.77733743
0.68466794 0.55792445 0.57838035
-0.57426864 -0.24779594 -0.79256827
0.23372999 -0.25540772 -0.19894286
-0.8943228 -0.4048161 -0.7367528
-0.43727213 1.1061819 -0.69716144
-0.22597292 0.6464311 0.3822618
0.60279346 1.4459667 0.12845513
0.5452064 0.9539393 -0.17796896
-0.6190299 -0.23415527 -0.016848728
0.7221936 0.9041867 0.12924215
-0.8985846 -0.40619475 -0.33047295
0.8072691 0.72201836 -0.43200734
0.31925464 0.06103781 0.36340818
-0.6760926 1.3716581 0.10961102
-0.7381725 -0.41228133 0.2102393
-0.39454818 0.5613788 0.79596204
-0.74540836 -0.08259925 -0.61150986
-0.21569581 -0.409586 0.8999579
-0.6775901 1.0766106 0.556868
0.8646475 1.0255114 0.08315311
-0.75104374 -0.23368776 0.110824585
0.00295883 0.3611773 0.33424574
-0.48359036 1.3318596 -0.058336385
-0.5348935 0.30454367 -0.19296716
0.21543661 0.5069594 -0.6872463
0.19313487 0.6933918 -0.7280109
0.26951095 1.0537852 -0.81328464
-0.5484979 -0.41364574 -0.5330225
-0.43387806 0.8136174 0.61551005
-0.26219815 -0.08685903 0.30711126
-0.90452254 -0.09379748 0.34808356
0.09757431 -0.049872138 0.6747574
-0.45838875 -0.24892619 -0.09728952
-0.69270587 1.1574976 -0.411626
0.48133588 0.45858914 0.11228089
0.40255767 -0.08992225 0.016270075
0.17538445 0.09669322 0.5477194
0.78419447 -0.23328954 0.120193556
0.5108236 0.5548474 -0.06597717
0.1923215 -0.07452651 -0.88397926
-0.4271704 1.1473547 0.021127336
0.6017965 -0.23594713 0.42618805
0.319216 0.59107375 0.4221104
0.4517252 1.3556819 0.17668837
0.11925238 -0.27399927 0.14968161
0.66859293 1.094138 0.08744184
0.54368997 0.96865225 0.20302212
0.0058582593 0.8154874 -0.5955758
-0.02293681 0.5880306 0.2773109
-0.40554863 -0.41605657 -0.39977568
-0.7283821 -0.08646985 0.62550056
0.55158806 -0.4125608 0.3341233
-0.90172356 -0.092335865 0.54109144
-0.6478572 1.3128316 0.30314898
0.023412954 -0.42600965 0.18950762
-0.6773573 0.81861115 -0.6076537
0.7522529 -0.24201426 -0.29374984
0.41435015 0.41811252 0.4712852
-0.0020567118 0.7291044 0.93196684
-0.92067623 -0.2654715 0.21912372
-0.22188416 -0.0889313 0.9016018
0.12215544 0.97330725 -0.5171987
-0.84897006 -0.40607753 -0.91596854
0.33795333 0.6082729 -0.1632567
0.2608422 0.3860286 0.32478076
-0.60354257 -0.40910232 0.0960141
0.49213624 0.4590072 -0.4308591
0.17754567 1.4645317 -0.04100393
-0.40822312 0.9356748 -0.29907456
-0.926607 -0.2457712 -0.6504067
0.8969029 -0.08402678 -0.29081768
0.6554642 0.41171724 0.022712678
-0.716045 0.93114924 -0.12074232
-0.31440085 0.7886789 0.4538247
0.24325174 0.41097325 0.57555735
-0.52311057 1.120357 0.6774833
-0.044487905 -0.11512144 -0.32039577
0.5222833 0.6546818 0.11008277
-0.5478573 1.1013186 0.1946614
0.13852668 0.5059601 0.39314508
-0.7308942 -0.41469496 -0.43123794
0.3997355 -0.4159412 -0.40028965
-0.07530722 -0.058303814 0.7576778
0.1560511 0.94703805 0.8841596
-0.49366957 -0.07761383 0.024911543
0.544889 -0.418693 -0.6782277
-0.4040937 -0.0571717 0.63610524
-0.039662648 1.3018128 0.116612196
-0.7131392 0.19093263 0.012465704
-0.45387393 -0.4173634 0.0071112895
0.21303755 0.33620912 -0.5737786
-0.68302834 0.1929766 -0.2016596
-0.13875474 1.5175774 -0.41874546
0.4679873 0.31903577 0.29591846
0.54908293 0.7387302 -0.1256639
-0.056178153 -0.27726066 0.100725695
0.5829936 -0.06347621 0.5314958
0.11375193 0.5625824 0.8861354
-0.6925856 -0.41114897 0.59496796
-0.23000145 0.6496762 0.8723668
0.5027187 1.1204768 -0.38424292
-0.8894204 -0.08727564 -0.73998046
0.89200634 0.8103379 0.14627475
-0.6118164 1.0152296 0.36745083
0.16437486 1.164159 -0.60166967
-0.085136265 -0.41872835 -0.33357626
-0.30353656 0.95516366 -0.6319356
-0.2551902 1.400964 -0.5518713
0.58041036 0.7677339 0.519695
-0.41002205 -0.06680654 -0.43037862
0.2573916 -0.17524892 0.92646515
-0.7680328 -0.24072686 -0.7470393
0.6784291 1.0288253 0.29281408
-0.46493343 1.0261645 -0.48582265
-0.35130304 0.7919986 0.236788
-0.33813196 1.2830759 0.41268623
-0.3183 0.34291327 -0.7484961
0.07147005 0.6231656 -0.36632192
0.0849165 0.80223477 0.7730634
-0.6086352 0.9778138 -0.30372095
-0.04547905 1.3414763 0.6809428
-0.21891573 1.4248893 0.34583348
0.013963189 0.255498 -0.034053918
-0.114682056 1.6434209 -0.11269219
-0.087035865 1.1624012 -0.035608068
0.014283596 0.3990739 -0.16131428
0.038433887 -0.1342372 0.05748833
-0.5401213 0.6788337 0.73222315
0.22167665 0.6753355 0.7199484
0.7322125 -0.41407752 0.22777456
0.43804067 -0.25613263 0.08154756
-0.89098704 0.50827444 -0.0074759745
-0.5129596 0.2720431 0.024289018
0.19976631 0.30945492 -0.044222534
0.06404236 0.9386483 0.10303676
-0.41257516 -0.081296444 0.8857059
0.259108 1.0469561 -0.14766678
-0.37302786 1.5172393 0.34586287
-0.5038769 0.61545956 -0.75211453
-0.23119165 0.35445407 -0.23319742
-0.9243792 -0.25564927 0.8700995
-0.31567204 0.48257458 0.6308142
0.36776823 -0.41681677 0.43564433
-0.24969539 0.9455054 0.27590764
0.04135156 -0.42777628 -0.019976985
0.38807416 0.107188046 0.5428628
-0.4638518 0.65210044 0.14372239
0.19724426 -0.414384 -0.46031716
-0.46772248 0.3716827 0.35578936
0.15903307 1.2875185 0.05738118
0.0071381554 0.479891 0.51936454
0.87339973 0.53035617 -0.14075477
0.20278782 -0.12175588 -0.089801036
0.6938945 0.17247689 -0.03270252
0.18816453 0.8635415 -0.6723902
0.3926633 0.29332513 -0.6642219
0.09116509 0.81354684 0.5774684
-0.15065402 -0.42463976 0.06575404
-0.19056785 -0.10753311 -0.20362115
-0.53911823 0.48285696 0.688636
-0.55434203 1.1861886 -0.5649241
0.9008249 -0.40552062 0.12354495
0.7967768 1.14133 0.22877562
0.5650288 -0.41059956 0.7403728
0.023267895 1.2975212 -0.7192184
-0.24988878 -0.239631 -0.5938586
0.5097206 1.0855882 0.38830358
0.89640224 -0.40734994 0.5338188
0.24260911 1.4404155 0.15290296
0.36126578 -0.08590583 -0.91116863
-0.09544025 1.1625837 -0.8048492
0.14256012 -0.07004778 0.8752365
-0.016891943 1.490166 -0.029490948
-0.23101653 1.6086158 0.2546187
0.25232136 1.4633381 0.49666262
0.5816747 1.3731076 0.31795645
-0.5771673 0.8476509 -0.43589634
-0.25300002 -0.06986406 -0.7519054
0.7201191 -0.082652405 0.87753487
-0.72358835 -0.059360024 -0.2214915
-0.44806975 -0.23501559 -0.6421851
-0.48383662 1.5036476 -0.13816303
0.6099273 0.9333484 -0.6424509
-0.63553214 0.67734563 0.27397183
-0.34275252 0.7540052 -0.6550967
0.36405733 0.48391974 -0.56543875
-0.1082003 0.50470805 0.70193243
-0.33870298 0.4119227 -0.562471
0.4121027 0.051953033 -0.1633918
0.87070084 0.6028594 0.19832596
-0.35907346 -0.41885322 0.35508004
-0.3594965 1.2602882 -0.6500665
0.21684077 0.7450956 0.90341175
0.7381953 -0.07178104 0.42812997
0.3508482 1.3850929 0.0050141523
-0.9258419 -0.25145468 -0.43253878
0.40645754 1.3405609 0.5549424
-0.15799162 0.11405678 0.6087667
-0.8823142 -0.41311654 0.52221155
0.5050985 0.801085 -0.5252794
0.50810105 0.5825552 0.5134564
-0.33423215 0.0819554 0.48121628
0.5044538 0.55690444 0.73879397
-0.15106389 -0.24751861 -0.76778996
-0.7100959 -0.2616455 -0.9295119
0.3855372 1.063091 0.18618928
-0.08794612 -0.23064107 0.6411011
-0.15957318 -0.08889135 -0.9205289
-0.8636371 0.7275876 0.29031104
0.106423706 0.27654254 -0.24529445
0.5790237 -0.08346324 0.74837434
-0.03309889 0.6531904 -0.52693444
0.14024241 1.6145208 0.22393966
0.23832703 -0.4146235 0.61414456
-0.48201913 0.26145127 -0.5954665
-0.3009941 0.3686837 0.08242832
-0.6089314 1.3856589 -0.235381
0.033466607 -0.24442059 0.47546896
-0.6487577 0.7716591 0.62565625
-0.79062045 0.5606873 0.3921278
0.7524104 -0.241806 -0.08755601
-0.2686028 1.0073875 -0.43924892
-0.06045217 0.95253146 0.25314444
0.7165704 -0.06637967 -0.3904088
-0.68593574 1.0123796 -0.51742387
-0.8206831 0.3516811 0.09791529
0.5745636 -0.054906573 0.3212875
0.22835827 1.2752154 -0.45659247
-0.13149938 1.23592 -0.21212274
-0.29259562 1.4371865 0.516594
0.38748667 1.3005669 -0.31776768
-0.5252125 0.81388414 0.40730572
0.3192755 0.18528067 0.053927932
-0.19506562 0.15973057 0.23682728
-0.4208097 0.6408776 0.5558075
-0.08045533 0.51300675 -0.2692927
0.32124418 -0.23016767 -0.78123593
-0.14227253 0.46428633 0.37548012
0.6304722 -0.265649 0.07843156
0.6529237 -0.23821421 0.25179672
-0.42158785 1.2935425 -0.2889434
-0.1738413 1.2909869 -0.70132935
0.105287984 -0.41192213 -0.62828696
-0.19042173 0.67780507 -0.89099574
0.64736795 -0.24433188 -0.9200227
-0.64609677 0.26118857 0.3985585
-0.6036287 -0.25219887 0.26180887
0.57273376 -0.41143468 0.5247394
-0.15612277 0.8530802 0.096373454
0.2867738 1.024612 -0.6304773
0.016927848 0.64439213 0.66844976
-0.70243573 0.8480959 0.29729486
-0.16324806 0.36135992 0.56795824
0.8971063 -0.08915794 0.7338357
-0.58756125 1.3047887 -0.39536944
-0.5952893 -0.07108085 0.3476948
0.41054156 0.06518309 -0.34938264
0.30624783 1.0218596 0.65972424
0.2541482 1.1191771 0.802842
0.6863612 0.8211243 0.32169098
-0.16979572 0.47283378 -0.06681882
-0.13123657 0.485162 0.15275119
-0.6270025 -0.24148133 0.47379017
0.14791557 0.539696 -0.21479207
0.91854036 -0.24861991 0.64606607
0.13148701 0.9289856 -0.8883689
0.41773772 -0.24811032 -0.29296172
-0.5583081 0.085527696 0.12218126
-0.48798764 -0.25165692 0.59013796
-0.34244347 0.32127684 0.5022188
0.92480767 -0.24624911 0.44060522
0.5957092 -0.24480489 0.64698076
-0.5684236 0.98940873 0.01710099
0.5296695 0.78892744 0.23779823
0.84963155 0.74592936 0.33737552
0.16560417 0.20891145 0.36108756
-0.39510012 0.4118914 -0.3293398
-0.77646124 -0.25273222 0.5379816
0.190543 1.618461 -0.3017854
-0.045395702 1.4240854 0.3096545
0.5471252 -0.0862263 -0.91207635
0.2401396 0.20823103 0.6858147
0.0953062 -0.25382704 0.92435014
0.65880936 -0.079656675 -0.74098384
-0.011276847 0.95581716 -0.2958877
-0.057007097 -0.005159683 0.030742962
0.4516741 0.9887755 -0.7437695
0.1449833 -0.10962799 -0.29641044
-0.78871435 -0.2526744 0.730872
-0.7456576 -0.07766697 0.43456244
0.5105612 0.85490626 0.74945223
0.18677619 0.9523834 -0.30432004
0.08217603 1.0415261 0.31030405
-0.37942106 0.34931505 0.7293153
0.58925885 -0.23368746 -0.21815369
-0.2136039 0.8445202 0.87388235
0.7730944 0.9036275 0.46361187
-0.5942708 0.4965296 0.31792077
-0.2018523 1.5072932 -0.039176367
-0.6207985 -0.40378898 0.9026518
0.23371951 -0.24645695 -0.38975483
-0.5939519 0.20586897 -0.41910136
-0.45682758 1.4681735 -0.31612062
0.7824081 -0.24261561 0.34251702
0.9147488 -0.24150637 -0.5939931
-0.16788983 -0.13283679 0.0029770774
0.022593046 0.98980474 0.52917856
0.3345617 -0.085118815 -0.36285883
0.6126165 0.7085371 0.696473
0.5269656 1.2572672 0.039165802
-0.7125229 0.8765893 0.06452142
-0.4195745 0.9341967 -0.7902565
0.8987829 -0.4056986 -0.08426301
0.7069793 0.39329696 0.46775118
-0.15470874 0.30847478 -0.5572763
-0.35870093 0.20501633 0.34146044
-0.34681284 0.28960586 -0.44937843
0.057505038 -0.2674201 -0.36538857
0.7250285 0.55016744 -0.53851056
-0.5092138 0.69338363 -0.5390839
-0.058766723 0.92347926 0.7078736
-0.69084555 1.0142009 0.17956981
0.27853426 -0.057862304 -0.7021577
-0.89560884 -0.40594068 -0.53885096
0.025922328 0.39485216 -0.6572979
-0.27566344 0.6771978 0.6748668
-0.041369945 0.48159763 -0.48199397
0.8910756 -0.40788513 0.7329671
0.22692779 -0.11772187 0.114606135
-0.223237 0.4703936 -0.41390234
0.03538867 1.3063505 -0.09263645
-0.45435944 -0.24384466 -0.2957195
0.90071696 -0.08691045 0.5343825
0.8865024 -0.4015814 0.9058034
-0.067948684 0.9789572 -0.051236838
-0.5010047 0.48070264 0.50180745
0.55565023 1.4223502 -0.36679852
0.30697024 -0.4022289 -0.9179465
-0.3206948 1.2421746 -0.123339504
-0.5419829 0.099819824 0.32453254
-0.37980112 0.6073953 -0.39520392
-0.14403889 -0.4078068 -0.9109707
-0.19394904 1.2765288 0.26545313
0.44363672 0.5413369 0.2785648
0.2595637 1.308692 0.6732113
-0.37023503 -0.4113518 0.54859954
0.5777075 0.33929002 -0.31178802
0.20800844 -0.41042647 -0.76212454
-0.16657944 1.4559144 0.14293912
-0.5414764 -0.07150947 -0.1555757
0.5411989 -0.100420296 0.9161154
0.7766103 0.27685064 0.12008433
0.5477778 -0.052972086 -0.12594537
-0.21362053 -0.24733461 0.76345146
-0.04571811 0.80803907 -0.91785014
0.117548116 -0.4152097 0.7515099
0.27267927 -0.2619269 0.011207752
-0.3450879 -0.42167312 0.1523208
0.2654764 0.17219734 -0.1977424
0.0064629856 0.60265255 -0.89077175
0.24934228 -0.24623775 -0.616277
-0.12924057 1.2049749 0.7837981
-0.082918435 1.4621983 0.54437345
-0.2358902 0.9058484 -0.864897
-0.45822904 -0.24821153 0.4051423
-0.19227827 1.6538537 0.08590536
-0.13296412 -0.25318387 0.48160022
-0.355408 0.5737959 -0.631806
0.096666306 0.45374715 0.19011515
0.22736743 -0.25277942 0.77452445
0.93295616 -0.24742022 -0.7823585
0.44712353 -0.24262853 -0.6250601
-0.30964383 -0.26701444 0.025864923
0.28035116 1.0599872 -0.44139194
0.7232416 -0.39954337 -0.92001724
-0.7399635 1.2344228 -0.24031532
0.05098609 1.4667697 0.13842005
-0.34963048 0.19900346 0.12794204
0.14428976 1.4019532 -0.6109716
-0.9260813 -0.25882423 0.42833155
0.45448667 -0.23673698 0.52918476
0.40956455 -0.24704571 0.3600566
-0.9134382 -0.10314946 0.16877139
-0.5018037 0.4337568 -0.6978583
0.45531386 0.06582165 0.1791808
0.41903687 0.24052605 -0.29801297
-0.3231594 -0.105591245 0.11725623
0.006897335 -0.08305009 -0.4936273
0.7027656 0.60097504 -0.0069689048
-0.40988147 -0.2332277 0.754676
-0.23470348 0.1566402 -0.18662336
-0.069490224 -0.26246104 0.29654318
-0.24872048 1.2375969 0.0821916
-0.43089718 0.6696166 -0.097308725
0.78678197 0.40048876 -0.28458846
0.90411353 -0.08512919 -0.4908197
-0.31834286 0.96328497 0.48692918
0.12818325 0.5022882 0.7016392
-0.32748115 1.1700333 0.75527894
0.5631499 0.24361923 0.49622908
0.2618726 0.3757788 -0.22176419
-0.65331155 0.58313715 -0.6211312
-0.16827929 0.05486029 -0.49522427
0.39397025 -0.42235106 0.01560293
0.087741286 -0.40314555 -0.91328645
-0.16375268 1.0346522 -0.22070962
-0.7365839 0.5594994 -0.0350788
0.4244702 0.2631174 0.6359972
0.010161392 -0.40856797 0.90686214
-0.03411787 0.91743684 0.9028604
0.4406951 1.5208372 0.2151126
0.40425643 -0.08715745 0.22221106
-0.43231043 0.9748385 0.31801987
0.0704334 0.20429514 -0.7402317
-0.4672864 0.4487794 0.14389122
-0.20666346 0.6678715 0.19571555
-0.05383016 0.11266318 -0.09430587
0.27000862 -0.066796236 0.72930694
-0.91528904 0.70488477 0.0700127
0.4689134 1.0315509 0.7460141
-0.7486273 0.70902574 0.13334814
-0.04459911 1.6259913 0.2541719
-0.73184526 -0.08530434 -0.90395665
0.41384262 -0.4196092 -0.18394691
-0.07947993 0.23271662 -0.22076851
0.12831709 -0.24035907 0.6127565
0.8973707 -0.08316454 -0.08942759
0.88939464 -0.081112534 -0.70857185
0.56564176 -0.41117346 -0.29369384
-0.16576084 1.0460191 0.6400908
-0.49453038 0.7376201 -0.30203885
0.34249774 0.7215574 0.23201846
-0.3006354 -0.23496267 0.5792726
-0.39129442 0.22535774 -0.2828704
-0.4145307 0.109576136 -0.48472816
0.39471734 0.4668979 -0.7664772
-0.6495088 0.38056213 -0.5383993
0.59029335 0.4523089 0.37396964
-0.6687745 1.3785557 -0.07677234
-0.09564723 1.1058428 0.42858186
-0.6152609 -0.078315556 0.14654371
-0.73439616 -0.08195691 0.8003855
0.5018705 -0.24151473 0.23001048
0.015880983 -0.016332136 -0.17660744
0.21371308 0.21549338 -0.40359098
0.20043236 0.53062356 -0.86284596
-0.056492295 1.4344122 -0.58937955
0.7191893 1.0802343 0.46473214
0.34675375 0.34084845 -0.4339821
-0.36829478 -0.08785188 -0.25898355
-0.84491795 1.0627811 0.24441221
0.17527178 0.6327758 0.5368624
-0.092975825 0.13210115 -0.6458411
-0.38824654 0.04632004 -0.15215206
-0.8398153 0.6779882 -0.32360002
-0.5643272 0.39337194 -0.37429863
-0.42391273 1.2848282 0.60213876
-0.17638558 0.30243748 -0.04615361
-0.14303204 1.5628049 0.41253567
-0.9247476 -0.25278264 -0.22253418
0.5710683 -0.40383708 -0.076358326
-0.87058115 0.86022544 -0.23171341
0.85794544 -0.2504143 -0.9305477
0.45356026 0.9907772 -0.5258239
-0.20457786 0.19869718 -0.3970907
-0.38818327 0.4077994 -0.09609946
-0.32430226 0.5260259 0.24002683
-0.12384067 0.82904494 -0.14799553
0.08924657 0.120318376 -0.23156083
0.5719478 0.9259811 0.42662752
0.7540081 -0.24591883 0.5433115
0.89387655 -0.40750125 -0.6857613
-0.05945208 0.78743184 -0.37823316
-0.375827 0.2163023 -0.079178944
0.3303358 1.3335018 -0.61330914
0.4139323 -0.25561747 -0.10799976
0.37521765 1.5436833 -0.32804722
-0.18062782 0.05143164 0.39325604
-0.23620033 -0.06812857 0.5179889
0.22350116 -0.41973558 -0.09954199
0.13081685 -0.0059647406 -0.030921973
0.66952896 0.53528506 0.19175516
0.31318277 1.6093984 -0.121441916
-0.9017346 0.68075407 -0.13460052
-0.027319709 -0.09341754 0.9143645
0.90795803 0.6671495 -0.0052303337
0.0031571114 0.40831453 0.039123185
-0.25362048 -0.06435235 0.71348417
0.4109159 0.23013216 -0.10088886
-0.34485668 1.4035847 0.03682333
0.3774824 0.41285825 -0.051856644
0.19958955 -0.24362168 -0.92876774
0.08463666 0.7960435 -0.22861132
-0.25959772 1.5774542 -0.23748407
0.57003963 -0.06284345 -0.5359318
-0.35093015 1.1413091 0.20791104
0.40581155 1.417026 -0.47107714
0.57887745 0.926687 -0.38878512
0.9034428 -0.08320461 0.115653515
0.6197612 0.6452086 0.34994662
0.61908555 0.3495273 0.19786367
-0.33610862 0.18842468 0.64215434
0.19423974 1.3959386 -0.33525807
-0.42686024 -0.40685695 0.8943431
0.105105 1.1502361 0.44391304
-0.7330746 -0.24995807 0.9172417
0.36535305 0.66209257 -0.82898885
0.57553875 -0.23534468 -0.41842812
0.69182897 0.84096736 -0.24140005
0.54287744 1.2931917 -0.5240823
0.32890993 1.2366657 0.16461138
-0.840497 0.50622594 -0.22888906
-0.8139411 0.34273285 -0.11690903
0.39649674 -0.40842634 -0.7648902
-0.66273457 0.45880038 -0.212809
0.685265 1.2279264 0.3560086
0.7289953 -0.4133587 -0.18546589
0.70614016 1.3095939 0.16495554
0.7387351 -0.08030639 0.6497795
-0.61874425 -0.2494579 -0.6200007
0.017058793 0.78255785 -0.0142433345
-0.26230627 -0.41812915 -0.2701562
-0.36741626 0.04615712 0.25664717
0.20210889 -0.078097165 -0.51167643
0.1772376 0.34832954 0.8021383
0.06157987 1.527375 -0.44967347
0.44118816 0.7953615 -0.2831949
-0.6486076 -0.07923108 -0.7457831
0.132228 1.4208982 0.32190058
-0.5643419 0.094674066 -0.07870516
0.3148612 -0.23891897 0.62072647
-0.029074885 1.6054739 -0.2869357
-0.32135063 0.4962087 0.43647847
-0.35921818 1.3670686 0.22448215
0.9002984 -0.40656486 0.32913095
0.21183503 0.90043014 0.25513873
0.025837522 -0.23266047 0.769601
-0.7911884 1.0331061 -0.31852227
-0.53893673 0.8463559 -0.14696366
-0.52125895 0.95098233 0.5287893
0.24807869 0.55409694 0.22254467
0.6514261 0.53226316 -0.36258432
0.57538545 -0.19231303 -0.04539787
-0.7059498 0.1924249 0.21037588
-0.61796546 0.60980225 -0.37895456
-0.3139119 0.5601907 0.03230174
-0.3092841 1.4797027 -0.39116266
-0.8456037 1.0631315 -0.14170045
0.17396255 0.6812895 -0.08128183
0.65963733 1.3988135 -0.22090966
-0.93311656 -0.25607485 0.63520145
0.48339203 -0.41370428 0.90448874
0.698987 0.9693692 -0.065345705
0.14476696 1.2535359 0.24911693
-0.34505326 -0.10172163 -0.075044334
0.017470315 1.0937617 0.84211326
-0.7863432 1.2310517 -0.034691706
0.056834817 0.8555953 0.3884223
-0.22602071 0.63753 -0.5171358
0.0686957 -0.11978394 0.2571944
0.14312392 0.311184 0.4960279
-0.12757793 -0.41275766 -0.6194364
0.24368934 1.2746497 0.46195048
0.89935744 -0.40547168 -0.48570693
0.18071613 1.1617284 0.60650843
-0.45134884 0.83441657 0.015141953
0.37383974 1.1214042 0.5133201
-0.1756337 0.2435914 0.41804433
0.12278652 0.28932506 0.15945455
0.43150353 1.1297433 -0.18022159
0.73756707 -0.41627 0.022355355
0.034453843 0.34428513 0.6556385
0.051967137 1.3239772 0.47784692
-0.2774139 1.1127281 0.3768819
-0.05971215 0.9915807 -0.8694459
-0.32961106 0.5356648 -0.81800514
0.1118359 1.4101763 0.60926104
0.5927012 0.15360236 -0.39925426
0.89643985 -0.4062789 -0.28598326
-0.5809926 -0.4118984 -0.3235169
-0.011633521 0.17840812 0.3135224
0.036131192 -0.08864848 -0.92020166
0.5678429 0.84310496 0.032457888
0.07013448 1.5478834 0.42568773
-0.74755406 0.32603943 -0.33364642
-0.189884 -0.40830874 0.6182184
0.5478275 1.1791213 0.21258262
0.21862529 0.9773399 0.4820382
-0.3807479 0.04416518 0.040394157
0.54066104 0.6086245 -0.5248362
0.013082027 0.7719321 0.19876637
0.76318175 -0.24015924 -0.7426226
-0.15782471 1.3383915 -0.044600643
-0.32367045 -0.4122727 0.7379525
-0.08803431 -0.41121107 0.7589611
-0.6178075 -0.24947709 0.72106475
-0.15500188 0.6505941 -0.70778096
-0.25132966 -0.25446072 -0.92553294
0.7309265 -0.41178215 -0.5821594
-0.6054057 -0.23997812 -0.42888403
0.7976482 0.4139495 0.26815933
-0.13255356 -0.06527235 -0.60666
-0.02833619 1.1418642 -0.5991128
0.69899786 0.3582455 -0.45731452
-0.37312743 0.9674821 0.10497146
-0.18220785 0.66795707 -0.3346687
-0.55269134 -0.09056923 -0.9177382
0.26274347 0.7960064 0.45556447
-0.8598137 0.5405303 0.19829647
-0.28376204 -0.24352211 -0.3827977
0.52948374 -0.41048342 -0.89964384
0.38744783 -0.24031787 -0.4735624
-0.6999875 -0.41765544 -0.80110013
-0.32229385 -0.24940279 0.9223697
0.38726497 -0.41815984 0.22412771
0.0043410277 0.5612269 -0.059321962
0.04558026 0.2693779 -0.5242179
0.78156483 1.230171 0.01733001
0.7002857 -0.41695946 0.8778553
0.531518 0.07485613 -0.001518938
-0.56884676 -0.060950167 -0.34709576
0.65596735 0.47391313 -0.16986763
0.4997474 1.5059354 -0.18324462
-0.11595837 0.98157907 -0.68402934
0.68652785 0.23897615 0.33200955
0.047039896 1.2947488 -0.49136066
0.8952992 -0.40652078 -0.88119525
0.56674594 0.4330091 -0.62722504
-0.77937794 0.38178796 0.30103916
0.44199115 0.74492836 0.3995425
0.54716885 -0.2510683 -0.7784436
-0.3578328 -0.086914234 -0.91495895
-0.12678936 0.27487355 -0.7687713
-0.013816979 0.23611973 0.5128062
-0.22007358 -0.25978526 0.18132731
-0.26691037 1.0858233 -0.070612445
-0.012208315 0.37123558 0.83161896
0.15889734 0.7001877 0.31219813
0.33563268 0.25000897 0.45206013
-0.9255655 -0.24591911 0.002161806
-0.007998901 0.16399395 -0.40008098
0.09296438 1.2499676 0.7642481
-0.8359976 1.0561593 0.04643835
0.36257562 0.840194 -0.6468699
-0.10480243 0.6559877 0.052528486
-0.64793414 0.6469486 -0.18249424
0.56244266 1.2542958 0.50663877
-0.0053931405 0.0620389 0.4932529
-0.519171 -0.416669 0.7055154
0.71619487 0.71523947 0.15495522
-0.31361306 1.412822 -0.17697802
-0.6444504 0.3787641 -0.032885462
-0.19153745 1.0318497 0.088212416
0.49937773 0.609611 -0.27731496
0.9043106 -0.08514735 0.32659715
0.2529051 -0.24617465 0.4480663
0.24671276 0.7199881 -0.310197
-0.535557 0.30992192 0.6006404
0.09358817 1.6522655 -0.13148408
0.033493012 0.16477582 0.7079921
0.072665334 0.07438819 -0.56279504
0.49272144 1.0461123 0.015956115
0.34631148 0.5437399 0.63159174
0.6282586 -0.24389136 -0.61170393
