0.63056016 1.3279538 0.4702364
0.52654064 0.42148983 0.03258928
0.4774871 1.4635115 0.22062853
0.74347335 -0.25360534 0.7559736
0.45016295 0.94862026 0.5043193
-0.5398046 0.87457657 0.40456557
0.103730425 0.10684575 -0.3856579
0.70364165 1.1474644 0.50674856
0.24719077 1.6456242 -0.63309
0.768548 -0.24941128 0.93360543
0.4582377 -0.08818494 -0.72672915
0.000743554 -0.40753114 -0.47043008
0.04032029 1.316237 0.017335461
-0.71851146 0.9217764 -0.13966523
0.3229359 1.32118 0.21760893
0.088646755 -0.20663121 -0.52649236
0.38638955 0.36231762 0.20027272
-0.3292044 -0.067826286 -0.57276464
0.14652106 0.5322773 -0.4180917
-0.9041647 -0.09570865 0.7293179
0.48603386 1.6672139 0.2592026
-0.60031646 1.352243 -0.07392776
-0.46560073 -0.25400463 -0.9234205
0.42386857 -0.08558229 0.64142424
0.2574501 0.27636635 -0.65187037
0.87207115 1.2587712 -0.23994438
0.8947208 1.0896735 -0.32659045
-0.26541388 0.9332269 -0.034065768
-0.23230433 1.476891 -0.47756892
0.25822246 0.10523139 -0.24654737
-0.42451924 1.1942432 -0.23122346
-0.73614347 0.6339766 -0.4538457
0.015291229 -0.09005836 -0.13477406
-0.73054206 1.3983805 0.07758324
-0.7222182 -0.08855064 -0.42457005
0.32789108 0.9957384 -0.55343735
-0.58300775 -0.4129658 -0.107947335
-0.3126997 1.2408961 0.54270494
0.09286417 1.2655396 -0.52512157
-0.25226194 0.69905794 -0.25157517
-0.068464935 1.1200995 -0.58206487
-0.19224814 1.0957656 0.5873537
-0.74250525 -0.08274031 0.21708715
0.23948134 0.4359551 -0.8107927
-0.062790394 -0.09079491 -0.76670647
0.76135194 -0.25338212 -0.49105525
-0.5006875 1.145105 0.639024
0.5866909 1.2547799 -0.7349794
-0.0957548 -0.21767703 -0.46132636
-0.16361776 0.92789006 -0.8124565
-0.09298904 -0.053780597 0.17793536
-0.7764536 0.99488246 -0.4925726
0.41152728 0.9172653 -0.120698795
0.14668915 1.2962878 -0.1443359
0.21924669 0.8162435 -0.61283207
0.9224188 -0.24980381 0.013345523
0.05532878 0.49721307 -0.8760667
0.84727734 0.70694697 -0.42837828
0.688072 1.5702254 -0.20390937
-0.19242573 0.10942519 -0.09098684
-0.40140462 1.3295114 0.38640958
-0.111301415 -0.22662222 -0.2710193
0.89351165 1.1642501 0.16114223
-0.7199874 -0.42090064 0.7741301
0.3924396 1.1563206 0.7291745
-0.49595955 -0.41969728 -0.72774446
-0.7285242 0.8126056 -0.53864133
0.20928544 0.26799932 0.16001004
0.36389378 0.7826376 0.7514298
-0.5639237 -0.09175302 0.52452797
0.7408773 -0.08960216 -0.5823628
0.8400007 1.0480785 -0.49241304
-0.14468305 1.4182825 -0.6412567
0.3548476 0.1389494 -0.04882142
-0.020651706 -0.41326642 -0.7600144
0.7266177 -0.41932112 0.64807856
-0.13275015 0.5630679 -0.8870224
-0.45901427 0.6121094 -0.53076136
0.049260132 0.8721926 0.3621026
0.56686616 -0.054925844 0.11409368
0.20024276 -0.41094148 0.28369078
-0.34918988 -0.41290492 -0.58909124
-0.3228699 1.2073774 0.7201582
0.09155135 1.2385397 -0.9467654
-0.891103 -0.099676415 -0.9125159
-0.72637236 0.9473022 0.4097033
0.080603935 -0.42493862 -0.25317007
0.42510718 1.0604584 0.022264447
0.55273277 0.311226 0.30122563
-0.06627202 -0.071395785 0.560437
0.09203834 1.6292996 -0.35548568
0.13726261 1.0878689 -0.20138265
-0.7587507 -0.24770144 0.316343
-0.50479466 1.6580379 0.12042811
0.43218327 1.0967917 -0.19554219
-0.42944324 0.38841337 0.4642555
-0.85748315 -0.08153063 0.020891245
-0.4846209 0.6976177 -0.080054924
0.748894 0.9970237 -0.6371509
-0.22030704 1.2496085 -0.7055504
-0.18582174 1.5664265 0.5455857
-0.3563754 1.7609527 0.010580726
0.5553045 0.71305335 -0.7975104
0.34681466 1.5791913 0.17143461
0.68371904 0.8450481 -0.71531785
-0.39444828 -0.08032529 0.40731445
-0.6155493 -0.09230696 0.9147922
0.41262716 -0.07304311 0.43018982
0.59011006 -0.2678963 0.90039384
0.9212591 -0.24821867 -0.38846713
-0.89471626 -0.40689486 0.104931414
0.77333736 0.94984514 -0.15894502
0.91847837 -0.24906474 -0.18622875
0.551831 0.4025036 -0.5778181
-0.5331588 -0.4241475 0.48459712
-0.09754445 0.13768443 -0.310385
-0.71301734 -0.4180434 0.40021086
-0.058735773 0.45207667 0.13348943
-0.3306021 0.93035257 -0.514691
-0.8725356 1.0489388 -0.09429173
0.004227503 -0.41224536 0.5711032
0.18663189 0.2684898 -0.050220802
-0.68079567 -0.08429895 -0.038348474
-0.7127119 -0.41890907 -0.6228175
0.04023985 0.6804749 -0.76341736
-0.8975159 -0.40615064 0.7180054
-0.90322316 -0.0936675 -0.5270536
-0.59810686 -0.23952217 -0.20684683
-0.35213062 0.8323941 -0.89728045
0.42685378 -0.2556601 -0.9228466
-0.5536308 1.4489179 0.3983376
-0.004747933 -0.4098099 0.36727303
-0.15790418 0.67369425 0.7643966
0.32905674 0.96597946 -0.93825626
0.38648772 1.3253367 -0.64142376
-0.51446337 1.3707621 -0.26911765
-0.521271 -0.246173 0.91305375
-0.44245484 -0.21888338 0.090470955
0.63703746 0.8701681 -0.48257267
0.028924316 1.4488614 0.19245873
0.021451553 0.26852757 0.09973132
0.18173546 0.1553821 0.34864396
-0.2551 -0.42157125 -0.74976563
0.38917255 -0.26461172 0.9233942
-0.20828673 1.3956767 0.45755735
0.3707194 -0.061603546 -0.54855204
-0.1670765 0.94558847 -0.61229104
0.88474536 0.6422387 -0.01800266
-0.4570174 1.4108524 0.22337428
0.3815552 -0.07585285 0.8698829
-0.00034735113 0.7920935 0.8146198
0.27449965 1.316911 -0.4260245
0.31925157 1.7794552 0.17302294
-0.35435113 -0.26328605 -0.7667482
0.73689723 -0.08606597 0.22066009
0.30337882 0.9936304 -0.26386422
0.46549958 0.95602846 0.7175865
-0.45887166 1.6031775 0.31421816
0.5468489 -0.41765296 0.12704486
-0.6614151 1.1129158 0.46227175
-0.09553991 1.1463525 0.3545852
-0.041039377 -0.23354435 -0.63213927
-0.5364518 -0.084619686 0.7331027
0.78085816 1.405225 -0.34381813
0.22456454 0.63882524 -0.082883954
0.93892586 1.0464906 -0.15404032
0.58385247 0.4636444 -0.17184418
0.579865 1.3921763 -0.40901297
-0.10854933 1.6151924 -0.35360074
0.41717008 0.27508992 -0.54535353
-0.09328953 -0.41506174 -0.1443839
-0.73877954 -0.416865 -0.21228403
-0.26583388 -0.4122919 -0.07258576
-0.21600169 0.51901126 0.2400522
0.9031742 -0.0895334 -0.8969816
-0.3692292 -0.41244304 -0.9008875
0.12589997 -0.23793569 0.3169369
-0.895237 -0.09384388 -0.3316891
0.0028713942 0.8213049 -0.2748347
-0.09391411 0.48908538 0.6918571
-0.6184604 0.7174758 0.095811576
0.016502172 1.8581369 -0.08771843
-0.10536793 1.2975549 -0.5003878
0.9258026 -0.24919167 0.22723879
0.15477723 -0.4087897 0.4536503
-0.031662297 -0.25840962 -0.91438556
-0.9155576 -0.26075155 -0.87097764
-0.17113993 -0.40731084 0.25052267
-0.6220519 0.6309389 0.45860732
0.02719065 0.8858347 -0.83364224
-0.26816756 1.1981006 -0.9007218
0.72913927 0.8056897 -0.30200267
-0.29586717 0.13845447 -0.3292307
0.64633816 1.3339566 -0.23262821
0.44006532 -0.24252242 0.7555411
0.030068755 1.392494 0.5052252
-0.43681228 1.5013927 -0.6257433
-0.10752727 -0.24346635 -0.08005133
0.80138814 0.9463208 0.41551244
-0.18616563 0.12429534 0.15165207
-0.18328884 -0.4168324 0.43692666
0.2509069 -0.07590835 0.5305921
-0.264601 1.066676 -0.18704647
-0.29955775 1.2729387 -0.3855375
-0.5002465 1.2788713 -0.43625286
-0.3358444 1.0108056 0.74366033
0.42579126 0.6222382 0.66572005
-0.54634017 -0.086935066 -0.54724824
0.08251037 -0.06202648 -0.67410654
0.23710313 0.96836793 -0.016213939
-0.77138627 1.1461241 0.31548595
0.38681388 0.7699751 -0.71835786
-0.62232685 0.8014605 0.5398505
-0.4510014 0.99693424 -0.65858644
-0.05372519 1.0044508 0.4675693
0.053352848 -0.26546106 -0.18941048
-0.76185584 -0.24893507 -0.104023874
-0.037572064 1.5351427 -0.5044168
-0.28985196 0.9064028 -0.29946154
0.32445613 1.078346 0.5660339
-0.25368917 -0.22844902 0.36619273
-0.4313928 0.44283837 0.19019495
-0.5035242 1.0474107 0.11516609
0.3189841 0.12757197 0.15021327
-0.101209596 1.311966 0.13525936
-0.8980776 -0.40592116 -0.1042712
-0.57828 -0.40586314 -0.91538763
0.60560143 0.62997216 0.5403847
0.07850063 1.1180546 -0.8107754
0.22090736 1.3664657 -0.8810754
0.41322356 1.298202 -0.831452
0.070450306 1.2679197 -0.31515813
0.38129142 -0.057203274 -0.18361789
-0.5243795 -0.41479582 0.28691274
0.09550999 -0.033269852 0.4426864
0.12643039 0.10229835 0.1573222
0.9119657 0.88890994 -0.32164058
0.72972083 0.38675243 -0.28774375
0.73533094 -0.086920515 -0.90105987
-0.41291842 -0.23686656 -0.47347757
0.1975685 1.8368945 -0.123696044
0.103689656 -0.23458675 -0.03420092
-0.2144497 -0.40421382 -0.4543898
0.4610816 0.581211 -0.29435825
0.42585093 1.1347082 0.23260689
0.3335384 -0.41624635 -0.57841027
-0.26622933 0.2963013 -0.6380397
-0.5105108 1.6784632 -0.084114745
0.41996974 -0.4127602 0.613439
0.50958544 1.7136428 -0.16364986
-0.07877116 -0.045360602 0.37733388
0.4022514 0.80432594 -0.5216567
-0.33213603 1.7802935 -0.19391511
0.23213845 -0.398066 0.9140712
-0.1986496 -0.036669537 -0.41942292
-0.015591686 0.127374 0.27602333
0.1647467 0.64078784 -0.5756463
0.40916714 1.1291361 -0.4170279
-0.63305545 1.2462364 -0.23969392
-0.2713078 -0.22756287 -0.17682369
0.8274869 1.2438781 -0.44782418
0.5407851 -0.41099584 -0.4905504
-0.37765932 0.8354895 0.28364635
0.13655086 0.95448685 -0.5221596
-0.38974094 -0.22385138 0.24745037
-0.42393702 -0.03605037 0.20626454
-0.18940607 1.032151 -0.41088754
0.8932612 -0.09648904 0.9093306
-0.03612017 0.4652397 -0.3931402
0.92790705 -0.25131625 0.8597571
0.08326921 1.4238067 -0.41437578
0.20618398 -0.40977404 0.09613074
-0.046597384 0.965714 0.67048055
0.36048502 1.7962823 -0.06287306
0.27497673 0.1437273 -0.47374934
0.67721426 1.2095295 -0.3918093
-0.44794187 0.6908822 -0.27354276
0.46783525 1.4370146 0.55307347
0.72734725 -0.41772252 0.4273744
-0.5723112 1.1003888 -0.7518738
0.5334464 -0.054725707 -0.31557918
-0.5335798 0.8875309 -0.79415286
0.72067326 -0.4175415 -0.38720265
-0.8959975 -0.09461888 -0.14329794
0.8241097 0.5050291 -0.15014215
-0.867503 -0.0945141 0.91154534
-0.84333813 1.0676751 0.10966347
-0.15343621 0.8373668 -0.16056131
0.33681405 0.5294208 0.07148461
-0.16484274 0.28246477 0.021082683
0.32290798 1.6095906 -0.32795414
0.28687418 -0.22567298 0.21266994
0.15387432 0.7949933 0.03541232
-0.106889606 0.8065959 0.4723165
-0.11221526 -0.26041126 0.9186091
0.5221435 0.90297294 -0.8503219
0.7217634 1.1910392 -0.6132997
-0.0963251 1.5159116 0.3579436
0.23227453 1.2840909 0.03727203
-0.13537523 1.2744644 0.7478361
0.29310483 1.1486411 -0.07891308
-0.1421677 0.58141434 -0.6915802
-0.49067247 0.21598738 -0.28368473
-0.7346342 -0.41552323 0.002795477
0.17541009 1.2333114 0.58830607
0.71557397 -0.08433097 -0.19227582
0.7263739 -0.08269693 0.011855658
0.48839134 1.4958899 -0.2724141
0.70081306 -0.4161774 -0.761165
0.35923275 0.765769 -0.024525128
0.2533793 1.4394383 -0.27730644
0.6003783 0.2528237 -0.2321693
-0.4557916 -0.08664591 -0.7361759
0.6556766 0.31615812 0.12339193
0.3092543 0.6599692 -0.42975745
0.6940495 1.3822615 -0.54977983
-0.47047573 1.4787178 0.026770413
-0.75573397 -0.25379544 -0.31745064
-0.41823453 -0.40795034 -0.19678986
0.8409928 0.76864195 0.30155754
0.3658989 1.3492947 -0.13441643
0.17012566 0.8324072 -0.9788257
-0.76883495 -0.25627798 -0.52296877
-0.3457498 1.3326838 -0.5802674
0.2491581 -0.40142196 -0.28325903
-0.5775165 0.5444777 0.15470874
-0.66498184 0.94166887 -0.34704125
0.4812012 1.1473429 0.43685162
0.10128786 -0.23614427 -0.75595653
0.25618264 -0.041564308 0.32253978
-0.090168685 0.9805738 0.23718733
-0.55612254 0.8880633 -0.040977865
-0.8917243 -0.4113031 0.31832284
-0.8595171 -0.40419033 0.9057228
-0.69662476 1.3491364 0.28401208
0.33918762 -0.4175138 0.7743298
0.7286531 0.7775374 0.4808877
-0.5729518 -0.2527007 -0.7868802
0.23807517 -0.22505489 -0.20215413
-0.89376223 -0.4054649 -0.73118174
-0.43398046 1.2165732 -0.79773366
-0.15795407 0.82184434 0.29508883
0.6294052 1.6419419 -0.039089736
0.5699536 1.1102432 -0.2907408
-0.59294534 -0.2436239 -0.0055225715
0.76457006 1.0982002 0.005350069
-0.8950621 -0.40919477 -0.3217521
0.8233956 0.85698044 -0.5266937
0.3714655 0.19915017 0.32981896
-0.6444983 1.5473485 -0.0015141923
-0.7239529 -0.4154073 0.20756355
-0.326208 0.79154253 0.73801136
-0.74218607 -0.08799313 -0.6058975
-0.21367687 -0.41152352 0.9011986
-0.6241906 1.2824165 0.47025526
0.9098805 1.2147291 -0.049898464
-0.74783796 -0.2427742 0.105164096
0.06114174 0.5250964 0.2834547
-0.46105582 1.507767 -0.17790638
-0.49570423 0.45136487 -0.19256964
0.2274437 0.6155318 -0.7428278
0.20115137 0.79821205 -0.79906344
0.27589232 1.1671176 -0.9340268
-0.53979367 -0.41555822 -0.52467674
-0.3753879 1.0307574 0.53644264
-0.242372 -0.02447054 0.2984928
-0.9001459 -0.09581222 0.344858
0.09057713 -0.08759641 0.6618989
-0.43733138 -0.21941799 -0.09970616
-0.681948 1.2903327 -0.51130307
0.5033951 0.6417686 0.0512356
0.40553355 -0.0327581 0.01922318
0.22868866 0.28592807 0.5059002
0.7797473 -0.24766544 0.120060384
0.5358257 0.7190361 -0.1461529
0.18810666 -0.08177258 -0.886202
-0.39519948 1.3315797 -0.081472516
0.59559405 -0.24627104 0.42284396
0.3620891 0.78926986 0.33253145
0.4854285 1.5628203 0.02951892
0.11456151 -0.23768511 0.14600049
0.70637906 1.2832732 -0.046791293
0.58434117 1.1625834 0.085680574
0.0165769 0.96058494 -0.67651904
0.016030475 0.7757089 0.19931665
-0.39457655 -0.41221374 -0.39339182
-0.7189379 -0.08816763 0.62375474
0.5405201 -0.4133907 0.32804143
-0.8962561 -0.093290955 0.5365051
-0.6154512 1.5092111 0.19951555
0.02105198 -0.4118364 0.1806877
-0.66203976 0.9261259 -0.66753775
0.7535011 -0.25336283 -0.2877953
0.46532947 0.6275604 0.3876614
0.060041506 0.97277284 0.8351284
-0.919096 -0.2668329 0.21816415
-0.22276197 -0.093100585 0.90016466
0.13140613 1.1115294 -0.6214946
-0.8498349 -0.40636802 -0.9137845
0.35995588 0.7531916 -0.238567
0.2968514 0.56114054 0.26417834
-0.5614345 -0.41076347 0.104306445
0.5052609 0.59289527 -0.49367708
0.19945866 1.6523516 -0.18565467
-0.3868063 1.0804489 -0.3852584
-0.9249172 -0.24772504 -0.6433252
0.8952988 -0.088805944 -0.28959554
0.6679908 0.58286947 -0.049391158
-0.6885255 1.0915036 -0.19809222
-0.24393874 0.9711602 0.382698
0.29475725 0.627117 0.49123994
-0.46488795 1.3434248 0.5822924
-0.014230774 -0.06649558 -0.3383046
0.5566089 0.8411564 0.005217769
-0.5123864 1.2930925 0.09522927
0.17566662 0.7005717 0.31419775
-0.7240793 -0.4182949 -0.42461777
0.3860932 -0.41076547 -0.39310503
-0.08418216 -0.0860866 0.75
0.21279351 1.1835139 0.7824088
-0.46961814 -0.026373683 0.01019384
0.5390004 -0.42093062 -0.67119265
-0.40391898 -0.0901867 0.60721266
-0.0067706173 1.4973373 -0.009666337
-0.66173446 0.36598954 -0.0045335125
-0.42671585 -0.40574718 -0.008112298
0.23497319 0.45698276 -0.6041278
-0.6363367 0.3476548 -0.2107581
-0.13781211 1.684833 -0.57714427
0.49857202 0.51759386 0.22595736
0.57593215 0.9020671 -0.22351205
-0.058286935 -0.24066868 0.09020128
0.5816318 -0.08814305 0.535378
0.17892286 0.79890037 0.80043316
-0.69297206 -0.41273654 0.5984249
-0.16407621 0.8854886 0.80214745
0.5158171 1.2638214 -0.51737237
-0.88923264 -0.089600325 -0.73460084
0.9368117 1.0009804 0.03632187
-0.56541586 1.2186536 0.28357074
0.17629078 1.2958012 -0.72936034
-0.08225928 -0.40567526 -0.3277167
-0.29348063 1.0730886 -0.7209635
-0.25792927 1.548871 -0.69826555
0.62737924 0.99248534 0.4059474
-0.39418045 -0.04116849 -0.41913068
0.2517761 -0.15810454 0.92780954
-0.7665218 -0.24324492 -0.74173677
0.72265965 1.2425585 0.1640443
-0.45732474 1.1586866 -0.5776434
-0.31575024 0.9928708 0.17055468
-0.29880401 1.4928342 0.30047023
-0.29753774 0.4508623 -0.77126396
0.09003645 0.7575505 -0.43899316
0.14455858 1.0372344 0.67451936
-0.5877454 1.121201 -0.3891254
0.002499262 1.5827768 0.55961186
-0.1885978 1.6378001 0.21872953
0.049122125 0.39486194 -0.057669714
-0.10331591 1.8312118 -0.26691562
-0.058637355 1.3390193 -0.15415323
0.04806722 0.53815484 -0.19816056
0.057512257 -0.07002601 0.050438225
-0.4744022 0.90368927 0.66579187
0.2803675 0.9054028 0.6246774
0.724826 -0.41818315 0.22524484
0.42759848 -0.2308759 0.077116996
-0.8443011 0.6748893 -0.04018635
-0.46852207 0.42191964 0.010450067
0.2350373 0.45062208 -0.08777027
0.09575103 1.1260691 -0.0017214911
-0.41112626 -0.0857495 0.88565433
0.27907288 1.216294 -0.2657975
-0.346636 1.7313781 0.21791637
-0.48492193 0.71678823 -0.789477
-0.1939326 0.48563704 -0.25413257
-0.9250761 -0.2540236 0.8705655
-0.25157702 0.70613676 0.57378674
0.3589345 -0.41609055 0.42603022
-0.2069273 1.1381292 0.1776903
0.03870908 -0.41250247 -0.018140998
0.4245839 0.32145214 0.47287607
-0.42168176 0.83348477 0.08645187
0.18639047 -0.40889776 -0.4508962
-0.41143748 0.5683862 0.3135321
0.18939625 1.4778566 -0.07332847
0.064025 0.68342155 0.45502177
0.8939458 0.69235915 -0.22343317
0.22014645 -0.061043732 -0.09420206
0.706733 0.34052995 -0.078784555
0.19531617 0.9782557 -0.7662637
0.4105727 0.4113192 -0.7060657
0.1484402 1.03402 0.4821785
-0.14914018 -0.41203743 0.064857274
-0.16866702 -0.040410742 -0.21630439
-0.47233257 0.70679855 0.63613665
-0.5511415 1.3147795 -0.6710844
0.89863765 -0.40881637 0.12283366
0.8415277 1.3470607 0.08258851
0.56032646 -0.4139449 0.7413528
0.023955228 1.4237759 -0.85678995
-0.24244756 -0.23599663 -0.5856805
0.5540731 1.3024879 0.25976622
0.8957339 -0.40905917 0.53352225
0.27459234 1.645505 0.011123174
0.3568835 -0.088634074 -0.90709984
-0.09228125 1.268835 -0.9138018
0.12914303 -0.07573794 0.8665047
0.0020666271 1.6759655 -0.17163432
-0.20361635 1.8043624 0.11161804
0.29887822 1.7005893 0.35903603
0.63465446 1.596689 0.16179845
-0.55840504 0.9748419 -0.50576437
-0.26120663 -0.092718005 -0.7486167
0.7188237 -0.08492535 0.8770061
-0.72039485 -0.08657575 -0.22609882
-0.44300172 -0.24022391 -0.631492
-0.4742778 1.6817976 -0.2738362
0.6257345 1.0565431 -0.76011384
-0.5821681 0.87339973 0.21767084
-0.32519406 0.8655563 -0.71531636
0.37628168 0.60505253 -0.6227771
-0.044018574 0.7336207 0.6360018
-0.2966525 0.52500653 -0.5958233
0.45081943 0.15072708 -0.20568949
0.9099848 0.79357725 0.10456095
-0.34916705 -0.41323286 0.3494107
-0.36010885 1.383548 -0.77601933
0.2772053 0.9865813 0.80270684
0.737593 -0.08690166 0.43025592
0.37657708 1.5717046 -0.13784407
-0.92346084 -0.25507772 -0.42519403
0.452745 1.5752227 0.41791955
-0.095118076 0.32550174 0.565789
-0.88255644 -0.41145265 0.52206767
0.51991564 0.9313868 -0.6282774
0.55711675 0.80123854 0.41654128
-0.28061944 0.2723954 0.4471743
0.5548487 0.79250425 0.6439296
-0.15288576 -0.25869176 -0.7638174
-0.7101463 -0.2626613 -0.9268136
0.42332762 1.2575667 0.06555601
-0.089934364 -0.23577514 0.6266198
-0.16503642 -0.09242496 -0.9167613
-0.81820536 0.9218064 0.23877332
0.13506882 0.40057015 -0.27616566
0.5751472 -0.090466216 0.74744153
0.00085010874 0.7883529 -0.6154331
0.17332038 1.8326652 0.073506504
0.23324297 -0.41837373 0.604329
-0.45381984 0.3840188 -0.60779786
-0.259195 0.51430696 0.051018186
-0.5932373 1.5404233 -0.35822085
0.042298637 -0.21535996 0.4626471
-0.59028876 0.9926809 0.5607279
-0.7334758 0.76560736 0.34847358
0.7437953 -0.25236744 -0.08554596
-0.26156414 1.1460114 -0.5391316
-0.01799719 1.1437798 0.15387517
0.7190893 -0.086779326 -0.39014748
-0.678211 1.131371 -0.60051656
-0.7608003 0.5363506 0.07646307
0.56959 -0.07765441 0.32351744
0.23647714 1.4234903 -0.59424895
-0.111573406 1.4029261 -0.33651692
-0.26043358 1.6653211 0.39488333
0.4005887 1.4571639 -0.45601302
-0.460543 1.0215672 0.3292714
0.35744816 0.31850654 0.026635025
-0.14750132 0.29833692 0.22977726
-0.363891 0.85220337 0.49579102
-0.05296336 0.6475453 -0.31437072
0.31048095 -0.2372888 -0.77884114
-0.07867893 0.6377151 0.32316157
0.6159657 -0.25991386 0.07003684
0.6430712 -0.24888209 0.24775156
-0.40843078 1.448908 -0.41121787
-0.17645511 1.4126862 -0.8349515
0.10120432 -0.40617976 -0.6153556
-0.17688248 0.76448625 -0.95010066
0.64392406 -0.24464071 -0.9182005
-0.5824107 0.4677313 0.36976218
-0.58507144 -0.25476515 0.228109
0.5677334 -0.41551155 0.5216272
-0.118972704 1.025384 0.0044925
0.2962781 1.1433125 -0.7506157
0.07741347 0.8684162 0.5871142
-0.65269566 1.0419271 0.23645434
-0.10487637 0.5731703 0.51892173
0.89683366 -0.092228696 0.73557043
-0.58494055 1.449791 -0.51704216
-0.56907076 -0.09413391 0.3268466
0.43631098 0.1757262 -0.37927786
0.36073238 1.256468 0.5431474
0.30587515 1.3626599 0.68868744
0.73122656 1.0375214 0.19762924
-0.12969095 0.62963635 -0.10743642
-0.10273686 0.6448599 0.11265519
-0.6158784 -0.25990748 0.43269205
0.17061393 0.68286276 -0.27984703
0.9180877 -0.2514351 0.6472677
0.13407588 1.0288687 -0.9821942
0.41356376 -0.23397852 -0.29101518
-0.50896144 0.24321638 0.11776922
-0.5087264 -0.264938 0.59142345
-0.28266752 0.53246844 0.4539633
0.9250246 -0.25004777 0.44137576
0.59071696 -0.25437653 0.64513457
-0.5394516 1.1689935 -0.070125684
0.56825924 0.9768878 0.13428596
0.8926277 0.9526381 0.2281835
0.22110903 0.36313894 0.3209762
-0.35323587 0.5496602 -0.3345067
-0.75317264 -0.25141606 0.5411322
0.19955601 1.7650115 -0.45311046
-0.009448162 1.6390646 0.18184865
0.5430591 -0.0878692 -0.9091927
0.2961576 0.43875378 0.6159643
0.09450217 -0.25463367 0.9257177
0.64909893 -0.08442142 -0.7333598
0.014303406 1.108362 -0.40221286
-0.03637877 0.093709245 0.03351196
0.46803895 1.1079408 -0.86632353
0.16720301 -0.06879276 -0.29334587
-0.7898443 -0.2527448 0.7339062
-0.7331855 -0.08575415 0.42582512
0.56142557 1.0913789 0.6330674
0.20782396 1.105577 -0.4111547
0.122322895 1.2452531 0.20180929
-0.3058123 0.574639 0.67788005
0.57885504 -0.22962841 -0.20869496
-0.15392935 1.0807343 0.7978674
0.82235956 1.1216683 0.34413606
-0.5366603 0.6997348 0.27270514
-0.18802851 1.6883845 -0.1816701
-0.6217558 -0.40384865 0.9059439
0.25509596 -0.22236687 -0.40538892
-0.5520393 0.34451503 -0.41910887
-0.45238298 1.6241419 -0.45319703
0.77898026 -0.2530514 0.3410732
0.91624767 -0.24358547 -0.59484875
-0.14288971 -0.07079092 -0.010652496
0.07350287 1.2069783 0.42440152
0.3536284 -0.037003476 -0.37068292
0.6613603 0.9402834 0.5822071
0.5583732 1.4441333 -0.10256277
-0.67702854 1.0556693 -0.0069933385
-0.4094485 1.0293509 -0.8732578
0.89596915 -0.4087005 -0.083728075
0.74600744 0.59886557 0.388192
-0.12608643 0.41705948 -0.5698688
-0.30566454 0.38132316 0.31633082
-0.34500894 0.42079237 -0.46242845
0.07740426 -0.24813706 -0.3577501
0.73090553 0.6806166 -0.6156226
-0.48675925 0.807992 -0.5893334
-0.0006018154 1.159775 0.613355
-0.655442 1.2004969 0.101667136
0.26151514 -0.07837721 -0.7010088
-0.8938831 -0.4077571 -0.53095114
0.04372833 0.50542533 -0.6843301
-0.2135543 0.90166163 0.60549307
-0.026771396 0.613688 -0.5258566
0.8908453 -0.40872788 0.7338015
0.24006298 -0.0586698 0.11117594
-0.19979651 0.5830493 -0.4428053
0.058334667 1.4834561 -0.22350307
-0.43446237 -0.23316567 -0.2911203
0.90052176 -0.090286195 0.53601086
0.8852491 -0.40173918 0.90703344
-0.03802142 1.1484516 -0.15352462
-0.44014007 0.6944023 0.4489344
0.5593965 1.5625043 -0.5182636
0.30320746 -0.40456027 -0.91525745
-0.2957285 1.410126 -0.24102241
-0.48210564 0.2990322 0.30338192
-0.3443768 0.73702997 -0.44507372
-0.14273755 -0.4103613 -0.9086169
-0.15400127 1.4788496 0.15015694
0.5019293 0.75836295 0.19849609
0.3088243 1.5565209 0.5432364
-0.36721164 -0.41486484 0.5494556
0.5914613 0.48183182 -0.3700188
0.20367703 -0.41242743 -0.75209653
-0.13808492 1.6484025 0.009606635
-0.5186306 -0.05081863 -0.15995124
0.5407326 -0.103738144 0.91820145
0.7970331 0.46006587 0.052034475
0.5424665 -0.0074233413 -0.10943051
-0.21067476 -0.25769025 0.75934744
-0.0402933 0.89916384 -0.99055636
0.116297066 -0.4195311 0.74780416
0.2682002 -0.23103815 0.010867693
-0.34519434 -0.40864074 0.15259844
0.29419422 0.29057735 -0.22597115
0.015541865 0.697904 -0.9538481
0.24417442 -0.24442765 -0.59947383
-0.07587868 1.4407632 0.6665424
-0.04315109 1.6983712 0.41924685
-0.23458423 0.99622893 -0.9561379
-0.4412713 -0.25493044 0.41693923
-0.17056835 1.8364973 -0.068993405
-0.12277733 -0.24895084 0.4626917
-0.33344495 0.6868656 -0.67285234
0.1368709 0.6294953 0.13325232
0.22211435 -0.2603147 0.77651334
0.93218887 -0.24732926 -0.78288794
0.42961645 -0.2514231 -0.6330262
-0.27523556 -0.24215579 0.017924001
0.29118425 1.197583 -0.56437194
0.7213865 -0.39945823 -0.91828966
-0.71949 1.3810524 -0.34021974
0.08210764 1.6668332 0.0017343997
-0.30852354 0.3320732 0.1221741
0.14781071 1.5417758 -0.76421815
-0.91902506 -0.25877315 0.42760795
0.44593167 -0.24617153 0.5223206
0.40048686 -0.24318522 0.35055327
-0.9107213 -0.10399559 0.16587783
-0.4771428 0.5421983 -0.7191973
0.495243 0.18977812 0.14692885
0.43632036 0.36467355 -0.3300349
-0.29077226 -0.04972915 0.106296286
-0.009904884 0.0010271659 -0.50921845
0.73449767 0.7680307 -0.09905281
-0.40748948 -0.24238634 0.748726
-0.20790768 0.27298933 -0.19677727
-0.059833612 -0.22989832 0.28245348
-0.21063945 1.4207234 -0.03165434
-0.39080477 0.84144425 -0.15732749
0.8058016 0.5468075 -0.34869242
0.9026773 -0.088113986 -0.49142647
-0.27834672 1.151978 0.38380367
0.19144367 0.7271626 0.6222757
-0.27378973 1.401829 0.6482444
0.6017257 0.4579897 0.42197046
0.2905009 0.5130998 -0.2680593
-0.63008547 0.6925814 -0.652562
-0.17619653 0.15457782 -0.50699127
0.38139224 -0.4135091 0.015284742
0.08607483 -0.40661424 -0.9085157
-0.13771763 1.1960204 -0.3246207
-0.6945895 0.73139524 -0.0767566
0.473746 0.48816836 0.5604979
0.0101930965 -0.41041648 0.9066233
0.021893822 1.1567762 0.8053483
0.48322076 1.7337588 0.065444626
0.41076094 -0.036544032 0.22328074
-0.39147562 1.1863854 0.22081047
0.08432242 0.3235043 -0.74423724
-0.4249494 0.6223825 0.08864763
-0.19263116 0.85311246 0.122583434
-0.023709849 0.22810028 -0.10357581
0.26351517 -0.08911149 0.7277832
-0.86947095 0.8767584 0.023884177
0.52658015 1.2679305 0.6187289
-0.70130754 0.8944118 0.08115889
-0.014484394 1.8359292 0.103994146
-0.73194385 -0.08654108 -0.8994675
0.39756942 -0.41413808 -0.18181744
-0.047538087 0.351678 -0.24503279
0.1258328 -0.25423062 0.6045184
0.89568436 -0.089453794 -0.0889094
0.8853761 -0.0831062 -0.70587957
0.55415523 -0.4116245 -0.2861926
-0.11589993 1.2663218 0.5313902
-0.46629238 0.87935793 -0.36567163
0.37284932 0.91217357 0.1317513
-0.2963009 -0.24623638 0.5680886
-0.366775 0.35020304 -0.2848154
-0.37918317 0.23121819 -0.4761133
0.40329486 0.57686687 -0.8274915
-0.6154449 0.50416195 -0.55168676
0.6368235 0.66067666 0.28664452
-0.6454599 1.5463356 -0.19119748
-0.043687794 1.3262429 0.32513544
-0.5949414 -0.09076545 0.12760288
-0.72880137 -0.08378445 0.79904723
0.49062425 -0.22611684 0.221899
0.032960348 0.06952459 -0.18199071
0.2301782 0.31672537 -0.42393386
0.21038483 0.6285319 -0.92394394
-0.057429682 1.5755265 -0.7385565
0.7697062 1.3045013 0.33315554
0.36568195 0.46314535 -0.47042668
-0.35693333 -0.04483395 -0.25699663
-0.8066701 1.249589 0.1598132
0.22745079 0.84535825 0.4483502
-0.06952232 0.23679665 -0.64245087
-0.38005185 0.14377794 -0.14971003
-0.8113997 0.8141747 -0.3667602
-0.5249261 0.5253688 -0.382298
-0.38032502 1.5137485 0.4945058
-0.13480382 0.4439394 -0.07381495
-0.1086964 1.7821146 0.27599466
-0.92161524 -0.25748795 -0.21641296
0.5572485 -0.4000071 -0.07578736
-0.85100436 1.0078182 -0.29473457
0.85471153 -0.25002035 -0.92854655
0.46593994 1.1237123 -0.64894646
-0.19320956 0.3253081 -0.4027653
-0.34534454 0.55422056 -0.12343806
-0.28688082 0.6917535 0.18729323
-0.08781899 0.9943141 -0.2503072
0.111270875 0.22944573 -0.2463292
0.618942 1.143884 0.30677092
0.7518388 -0.25346267 0.5431506
0.8925593 -0.408407 -0.6867018
-0.036441702 0.927208 -0.46561393
-0.33599722 0.34351462 -0.08485983
0.33570975 1.473365 -0.76423955
0.40378016 -0.23997143 -0.10538038
0.38726088 1.6953385 -0.47807014
-0.1366052 0.18526337 0.39612025
-0.23305266 -0.07725902 0.50314546
0.21477571 -0.40713042 -0.098270394
0.15933451 0.09986434 -0.035407864
0.7047839 0.7280257 0.100285426
0.33719683 1.7913873 -0.28218907
-0.8659203 0.8328061 -0.1756513
-0.033073172 -0.09736906 0.9127799
0.93741804 0.8414959 -0.10115921
0.04034899 0.5766064 -0.002550192
-0.26638147 -0.08677128 0.7103108
0.43728256 0.35802227 -0.13511002
-0.32076955 1.5825759 -0.0888733
0.41488042 0.56232655 -0.106824085
0.19311696 -0.24972454 -0.9254777
0.11265679 0.94658893 -0.32161346
-0.25454816 1.7577227 -0.390843
0.55260307 -0.0826392 -0.5244101
-0.31019488 1.3386234 0.105943784
0.4077869 1.5645607 -0.62366956
0.59596527 1.0677061 -0.5066157
0.9016423 -0.08890911 0.11685297
0.6810856 0.8583279 0.25348708
0.6499684 0.5408391 0.12767228
-0.26319355 0.4136312 0.5899348
0.20847821 1.5529525 -0.47609788
-0.42482913 -0.4081783 0.89634675
0.15647656 1.3672636 0.32640743
-0.73338306 -0.24898258 0.9205744
0.36997765 0.76752293 -0.91109776
0.5900917 -0.24203894 -0.39806277
0.7162732 0.99542075 -0.35340893
0.5359298 1.4275763 -0.6694292
0.36672753 1.4348397 0.034174725
-0.804199 0.65239775 -0.2566533
-0.75910866 0.5018386 -0.13277584
0.3917829 -0.41221583 -0.7612772
-0.6182809 0.61039805 -0.23655844
0.73086303 1.446299 0.21267791
0.721462 -0.41720554 -0.18336643
0.7446356 1.5082889 0.011497337
0.73670584 -0.08586183 0.6496701
-0.61548436 -0.2582931 -0.61289954
0.038864814 0.94396615 -0.100377664
-0.25042468 -0.40589142 -0.26646364
-0.33343697 0.17967871 0.26457715
0.18750782 -0.043168806 -0.503605
0.24244079 0.5869591 0.73283327
0.06675926 1.6795368 -0.6026051
0.4634937 0.9465932 -0.38266543
-0.64446616 -0.083986364 -0.73871267
0.1715211 1.6381161 0.19227165
-0.52976114 0.23596855 -0.07965775
0.30765373 -0.24790904 0.61718285
-0.023736358 1.7777421 -0.4437134
-0.25784153 0.6993705 0.38149047
-0.326765 1.5620075 0.106290385
0.89893216 -0.4092564 0.32788777
0.25047016 1.097115 0.14967778
0.019916266 -0.24711153 0.76590675
-0.77835846 1.1687698 -0.40320855
-0.5077955 1.0059333 -0.22203165
-0.47484306 1.1626033 0.4467879
0.31525803 0.71458817 0.14898479
0.6632626 0.67342925 -0.43582407
0.556777 -0.16576573 -0.05208841
-0.63983464 0.3888528 0.19051524
-0.58683133 0.7356432 -0.42381686
-0.2750206 0.72418904 -0.022503305
-0.30720088 1.6450634 -0.54085875
-0.8281062 1.2197349 -0.22525051
0.20497027 0.847987 -0.16727608
0.67160356 1.5457225 -0.38298592
-0.9289988 -0.25457728 0.6304036
0.476253 -0.41365445 0.9063196
0.7320218 1.1423155 -0.19136235
0.18691145 1.4608197 0.12338063
-0.3201728 -0.05267641 -0.077529475
0.07774562 1.3364655 0.73408616
-0.76174414 1.3976924 -0.13504049
0.103841245 1.0565822 0.29206368
-0.19204395 0.7502117 -0.57189316
0.08157804 -0.06244026 0.25372183
0.19522777 0.50117046 0.43971017
-0.12641795 -0.41184425 -0.60939574
0.28993136 1.5026014 0.33069077
0.8989347 -0.40749717 -0.48733896
0.23447771 1.3946121 0.48652446
-0.42253542 1.0151618 -0.057868302
0.42310643 1.3492317 0.38743606
-0.120974585 0.41856146 0.38373435
0.16416842 0.43899456 0.118566476
0.45474315 1.2941455 -0.30570346
0.727468 -0.41937608 0.022676054
0.09308052 0.564602 0.59486127
0.095622 1.5474246 0.35926223
-0.22955664 1.31376 0.2826951
-0.061604373 1.0912855 -0.97280014
-0.31538537 0.63031113 -0.8594991
0.15746757 1.6597798 0.47853637
0.59835756 0.30686972 -0.42511365
0.89557254 -0.4089868 -0.28642774
-0.5696429 -0.41295713 -0.3144301
0.03983766 0.32038784 0.2913739
0.029732484 -0.09218283 -0.914663
0.60002875 1.0280534 -0.07713245
0.109518416 1.7831091 0.2869397
-0.7035442 0.4756744 -0.3434412
-0.18571368 -0.41080695 0.6081464
0.5868664 1.3833071 0.07551351
0.26838097 1.193342 0.3707658
-0.35680318 0.15277854 0.045642395
0.5524324 0.73673964 -0.60436594
0.05900947 0.9606462 0.10887402
0.7577133 -0.24331008 -0.73600996
-0.13490446 1.5182374 -0.17401718
-0.31877917 -0.41645652 0.73764867
-0.08803886 -0.41579032 0.75341463
-0.61779726 -0.2521096 0.73303246
-0.14481755 0.7549364 -0.76707053
-0.253183 -0.25903052 -0.9229914
0.7256123 -0.41420078 -0.5804652
-0.5924928 -0.24900277 -0.41993088
0.83801615 0.60679364 0.18668887
-0.1396188 -0.05158924 -0.60768354
-0.018664142 1.2734907 -0.7156849
0.7108008 0.49713427 -0.51502454
-0.3342598 1.1542406 0.010702869
-0.15053935 0.8030354 -0.4010381
-0.55428183 -0.09256042 -0.9139286
0.30821145 1.0038588 0.35133505
-0.8101322 0.72870785 0.16023576
-0.2661596 -0.21546969 -0.3748148
0.52640045 -0.41155013 -0.89809716
0.4230072 -0.22754344 -0.46934813
-0.70061374 -0.4188046 -0.7981415
-0.32017314 -0.25267315 0.92224574
0.3754575 -0.40967476 0.21601757
0.043588974 0.7278488 -0.12427538
0.074377716 0.3828223 -0.5454837
0.81549823 1.4141684 -0.13502264
0.69718814 -0.41764596 0.8794794
0.5583141 0.2089408 -0.031315606
-0.5526916 -0.07950708 -0.3381666
0.6739102 0.62833583 -0.2424309
0.52495795 1.6774393 -0.3425539
-0.1088977 1.098953 -0.78186136
0.71584296 0.4437095 0.26103884
0.054634802 1.4417841 -0.6292869
0.89507616 -0.40622395 -0.88108057
0.5780709 0.55247283 -0.689273
-0.719594 0.5826524 0.27290845
0.48383278 0.95312726 0.29801142
0.5456695 -0.25702077 -0.7752017
-0.3613141 -0.08984186 -0.9115467
-0.1077593 0.38498396 -0.7809194
0.041234445 0.42665398 0.46580517
-0.21911487 -0.22198153 0.18259852
-0.23828667 1.2515583 -0.1709533
0.05333503 0.6061504 0.7699856
0.20350401 0.8855156 0.22000477
0.38350165 0.44939435 0.38658765
-0.9240442 -0.24643496 0.0028586672
-1.0503398E-05 0.2636367 -0.43073806
0.14904499 1.4911411 0.6391965
-0.8097048 1.2325623 -0.035145774
0.37077314 0.95497096 -0.7435471
-0.058566306 0.80839705 0.011156039
-0.61424565 0.8011793 -0.23577963
0.6151254 1.4890839 0.3640576
0.04350158 0.22471547 0.4767229
-0.5178871 -0.41961005 0.7122661
0.7540251 0.90711963 0.04544347
-0.30274028 1.5853786 -0.3105873
-0.59361887 0.5517446 -0.045972105
-0.14977726 1.2143601 -0.009904612
0.5129343 0.75930536 -0.3575827
0.90301013 -0.08940907 0.32751146
0.24826969 -0.23430896 0.4384145
0.26955605 0.8561176 -0.39409566
-0.46733937 0.5337283 0.55522996
0.107572764 1.8283885 -0.28903684
0.09811266 0.39269486 0.6507945
0.102512345 0.17580304 -0.57673144
0.52712995 1.2299459 -0.1043296
0.40014452 0.76684856 0.5396656
0.61315787 -0.24818167 -0.5998257
