0.5933612 2.0819132 0.61398995
0.44675586 1.2428066 0.073297575
0.4564965 2.2623158 0.3756289
0.7469504 -0.25289673 0.75503993
0.38440502 1.7223892 0.60085064
-0.60468835 1.7048781 0.4499101
-0.004711801 0.9721778 -0.38064793
0.65557766 1.8977823 0.6295705
0.28227603 2.5362537 -0.4776138
0.7728307 -0.2504792 0.9319705
0.46354133 -0.086387955 -0.72682667
0.005775586 -0.41709378 -0.46890622
0.02480134 2.1601658 0.13419479
-0.7509206 1.8287078 -0.0873119
0.29300597 2.1368384 0.348823
0.101710014 -0.24666414 -0.52826875
0.29341966 1.1816117 0.22274815
-0.33461735 -0.086763956 -0.58110785
0.09837896 1.418541 -0.3667583
-0.9063188 -0.097323135 0.7328818
0.46756676 2.4716039 0.4253788
-0.60984004 2.247644 0.030192796
-0.46624058 -0.25313002 -0.9246938
0.42674184 -0.08362048 0.6441704
0.1992591 1.1721256 -0.6170154
0.8603996 2.081731 -0.0915187
0.8734009 1.9259107 -0.19960362
-0.28983495 1.796798 0.0253836
-0.2160603 2.3939462 -0.35047847
0.1766806 0.9433908 -0.22998813
-0.44205832 2.098528 -0.14159915
-0.7659985 1.5806122 -0.43553752
0.0025986736 -0.08706008 -0.12836936
-0.7460002 2.287193 0.17609513
-0.72458744 -0.08564219 -0.42287597
0.31285143 1.8814373 -0.45814735
-0.59308124 -0.4159423 -0.10742618
-0.36525935 2.0622025 0.653757
0.09385167 2.1587665 -0.4072339
-0.30242994 1.5790179 -0.22053726
-0.061691318 2.0291219 -0.4852816
-0.2492898 1.902345 0.6726434
-0.7535858 -0.07991199 0.22151317
0.2023251 1.3564599 -0.766219
-0.053712875 -0.08960912 -0.76120067
0.7576901 -0.2516532 -0.4908991
-0.5545194 1.963233 0.71719277
0.5901185 2.1351097 -0.61110467
-0.10344478 -0.24751031 -0.46058896
-0.170282 1.873739 -0.7386238
-0.113891795 -0.08287622 0.18821028
-0.7904747 1.9527202 -0.4329471
0.37505466 1.7488925 -0.010005394
0.1350059 2.1555047 -0.023014825
0.1905127 1.718909 -0.53189254
0.9214063 -0.24879977 0.009117775
0.025438337 1.440844 -0.83192354
0.8138492 1.5578034 -0.341474
0.6902168 2.394488 -0.021474902
-0.26037487 0.93946946 -0.10305495
-0.437059 2.1734576 0.48492062
-0.1281277 -0.24661711 -0.26445058
0.8584164 1.9421887 0.29321575
-0.7197529 -0.4211147 0.7726788
0.33725357 1.9076228 0.84156084
-0.49729532 -0.4195196 -0.73119044
-0.7510593 1.7724714 -0.4984116
0.12141368 1.0828738 0.17326812
0.278264 1.5384367 0.8252051
-0.56440115 -0.086647294 0.5487566
0.75204694 -0.08967516 -0.5882306
0.82080615 1.9074306 -0.3709523
-0.12834944 2.3420055 -0.51591694
0.28478107 0.9491278 -0.018683687
-0.023827802 -0.4150424 -0.7662673
0.73083043 -0.41878796 0.6467613
-0.15662333 1.5179627 -0.8435482
-0.5045486 1.5661767 -0.5084458
-0.015660644 1.6910497 0.42981946
0.5636478 -0.085841924 0.10953967
0.20654786 -0.4170366 0.29229033
-0.35362905 -0.41759485 -0.58785903
-0.3722273 2.0037606 0.8150228
0.110187575 2.1758332 -0.82650983
-0.8907682 -0.09892407 -0.9122604
-0.7804676 1.8040552 0.4594018
0.089709125 -0.42178726 -0.25197095
0.3882165 1.8889031 0.13390478
0.4611649 1.1065851 0.33534163
-0.062002964 -0.08352837 0.57139087
0.113709316 2.5089345 -0.20517647
0.11123827 1.9632041 -0.10007888
-0.7639481 -0.24235737 0.326133
-0.5026258 2.5259912 0.2518853
0.4127698 1.927562 -0.08260873
-0.5165559 1.2223824 0.45817113
-0.8710756 -0.08424261 0.022205349
-0.53341377 1.5768604 -0.032965787
0.7328437 1.8792018 -0.5223573
-0.21249636 2.1854093 -0.5970417
-0.20926793 2.3754916 0.68053627
-0.34407085 2.6329706 0.1578713
0.53460664 1.6070154 -0.7125417
0.3313889 2.3887837 0.33063686
0.6675776 1.7278669 -0.6136384
-0.4040764 -0.0896599 0.44599286
-0.6221242 -0.09263983 0.9161011
0.41156352 -0.08443999 0.43311328
0.5965916 -0.2653254 0.89887476
0.92205954 -0.24808937 -0.38917416
-0.8981358 -0.40759516 0.10806215
0.7427659 1.7752328 -0.046195254
0.9167825 -0.24833089 -0.19098951
0.49579585 1.27789 -0.52721035
-0.5349058 -0.42093074 0.47353658
-0.18256819 0.9820492 -0.2947212
-0.7063495 -0.41548568 0.3981231
-0.13713619 1.2839594 0.14706585
-0.34927228 1.8650998 -0.44161937
-0.89935637 1.9613528 -0.03745725
0.005305877 -0.41672307 0.58075476
0.10773527 1.0783954 -0.03180846
-0.6936344 -0.0798461 -0.015452091
-0.7143859 -0.4177858 -0.62462085
0.021677364 1.6235368 -0.69112027
-0.89691955 -0.4081117 0.7190499
-0.9031897 -0.09322253 -0.5304105
-0.6137131 -0.25159425 -0.21295017
-0.35756332 1.8063923 -0.8383268
0.42893583 -0.2547899 -0.9246701
-0.5791251 2.3016534 0.5059699
-0.001505466 -0.4177822 0.3756741
-0.25021333 1.4596604 0.8053274
0.33124107 1.8821083 -0.8422428
0.4027316 2.215209 -0.5110111
-0.51741993 2.282897 -0.16420959
-0.52521265 -0.24589321 0.9111017
-0.4899435 -0.2561217 0.11585998
0.6115149 1.7346997 -0.383511
0.0052514886 2.2776332 0.3234951
-0.06370261 1.0876195 0.10094005
0.08154714 0.9695411 0.3395241
-0.26047945 -0.4197465 -0.74996006
0.40006834 -0.27028584 0.9216827
-0.24405634 2.2156801 0.5718942
0.3970316 -0.0854355 -0.53371596
-0.1772491 1.8802648 -0.5337981
0.8282722 1.4505221 0.05749899
-0.47398806 2.2745368 0.3310573
0.37562543 -0.077737026 0.87592876
-0.08795607 1.5630983 0.8650932
0.26426807 2.1923947 -0.29048562
0.31677723 2.5954063 0.34648868
-0.35447258 -0.2560705 -0.7718415
0.7361077 -0.082942665 0.21697196
0.26841787 1.849935 -0.14646187
0.39268112 1.703028 0.80932647
-0.46961868 2.4528432 0.44478476
0.5551555 -0.42385727 0.12881353
-0.70636505 1.9626474 0.537967
-0.13957167 1.9704056 0.4567061
-0.032390386 -0.25074625 -0.63445973
-0.54854536 -0.086054265 0.74471724
0.7839691 2.2455559 -0.17268667
0.1633204 1.4800189 -0.030102
0.9098938 1.8634526 -0.032612022
0.51989853 1.3146162 -0.11119251
0.5831065 2.2415633 -0.2538608
-0.0864926 2.5098639 -0.21050012
0.35148078 1.1482544 -0.50611484
-0.09232368 -0.4177512 -0.13907106
-0.7456811 -0.41622472 -0.21605706
-0.2728491 -0.417438 -0.060572166
-0.28534275 1.3742839 0.25308836
0.9029907 -0.090007156 -0.8969184
-0.36985207 -0.41126555 -0.90238065
0.11823093 -0.25513768 0.31974137
-0.8967997 -0.09298079 -0.33322924
-0.02908658 1.701437 -0.19326326
-0.19484332 1.2813587 0.7082406
-0.67089677 1.5969384 0.12896872
0.034568258 2.7154822 0.07898128
-0.10012935 2.2059402 -0.38549292
0.92472875 -0.24788928 0.2239413
0.15928677 -0.41499984 0.4644165
-0.03310533 -0.25746685 -0.9152325
-0.91498196 -0.26025748 -0.8735236
-0.16574046 -0.41539407 0.25941533
-0.69861436 1.4736023 0.47564048
0.02180798 1.8317363 -0.76407456
-0.25743118 2.1655436 -0.7980362
0.6960212 1.6504631 -0.20762128
-0.35327822 1.0439193 -0.34761047
0.636716 2.1680532 -0.08189972
0.44484705 -0.24060717 0.75652707
-0.007239067 2.1970925 0.6272832
-0.41371626 2.4461637 -0.49924102
-0.11950976 -0.25259283 -0.06338793
0.7429452 1.708375 0.5198333
-0.26523122 0.94763696 0.13027012
-0.1808157 -0.42177254 0.44669592
0.25496846 -0.08552353 0.54125464
-0.28921264 1.9657385 -0.09639232
-0.30517787 2.190075 -0.28178328
-0.5032945 2.21073 -0.34010196
-0.40290886 1.80722 0.8131039
0.3335215 1.3824677 0.73003
-0.54886734 -0.08563112 -0.5477384
0.09441867 -0.083799966 -0.6660416
0.19945678 1.7929449 0.08924331
-0.8091393 2.0105066 0.38628814
0.36354467 1.681806 -0.6315595
-0.693966 1.6375012 0.57682216
-0.457744 1.9500954 -0.5865329
-0.12104966 1.810215 0.54595697
0.040911462 -0.2622451 -0.18504784
-0.7719186 -0.24367729 -0.10474968
-0.018400092 2.4435701 -0.36862275
-0.3271175 1.8146877 -0.21992213
0.26252764 1.8554657 0.671497
-0.26225048 -0.25442988 0.38023055
-0.50711775 1.3025156 0.19294304
-0.5341128 1.9112422 0.1891742
0.22704735 0.9406911 0.16267405
-0.12713943 2.1649916 0.23381391
-0.90358967 -0.4047281 -0.1094996
-0.5800269 -0.40599853 -0.9164077
0.52943754 1.3940591 0.60352945
0.082812764 2.04083 -0.699698
0.24866635 2.2841387 -0.74340343
0.43143272 2.2047942 -0.7001997
0.059664972 2.150015 -0.19739228
0.3541557 -0.0858963 -0.18519774
-0.5185044 -0.4220467 0.26312292
0.09736903 -0.08454774 0.45443708
0.043372937 0.9124931 0.14345878
0.8813836 1.7258551 -0.21633771
0.66546655 1.230818 -0.23848253
0.7370342 -0.08731389 -0.90495795
-0.43022555 -0.25714952 -0.47700164
0.2146052 2.688488 0.048320696
0.09296496 -0.2429761 -0.030555107
-0.21517015 -0.4145118 -0.453259
0.40094164 1.4437959 -0.23261808
0.38606697 1.9448321 0.35000938
0.33779588 -0.4218681 -0.588662
-0.3073213 1.2274122 -0.6279683
-0.50003403 2.5691118 0.053085625
0.42782724 -0.413384 0.6192003
0.5273869 2.5458565 0.016343758
-0.083464354 -0.08740008 0.38189608
0.37571394 1.6840794 -0.4318226
-0.30742237 2.675066 -0.042564936
0.23690364 -0.40259528 0.9116029
-0.2032762 -0.08317374 -0.40853757
-0.10444297 0.9435055 0.2540403
0.13829783 1.5435464 -0.51101154
0.39070278 1.9895852 -0.2989294
-0.64623964 2.1641543 -0.14384463
-0.28432423 -0.2527218 -0.168233
0.8241444 2.096328 -0.30422556
0.5466871 -0.41341522 -0.5014057
-0.44361085 1.6891173 0.33125776
0.112641096 1.8518381 -0.42677367
-0.37860447 -0.2593922 0.23887394
-0.44386727 -0.08865561 0.24830438
-0.20504838 1.932965 -0.3182419
0.89288104 -0.09572447 0.9082465
-0.099313 1.3564646 -0.35901898
0.9267655 -0.25079596 0.8579096
0.08492014 2.3128552 -0.28265667
0.21305439 -0.41626436 0.09961966
-0.1183379 1.7518822 0.7446623
0.37230968 2.6334481 0.110710576
0.18226612 1.0297801 -0.4262397
0.67576766 2.0586405 -0.25382826
-0.49238384 1.5909088 -0.23504141
0.4389647 2.204633 0.69516385
0.73331916 -0.41708183 0.4272573
-0.57070506 2.0701768 -0.6686617
0.52564156 -0.083877 -0.33239168
-0.5420096 1.858331 -0.73361593
0.72307163 -0.41718903 -0.39265364
-0.8986335 -0.09473202 -0.14389971
0.7653137 1.3268986 -0.09005059
-0.8690839 -0.09593597 0.911698
-0.8791287 1.9581492 0.17051435
-0.2059501 1.6908007 -0.12173091
0.27070802 1.364548 0.1179364
-0.24225123 1.1129804 0.009900799
0.33394718 2.4661846 -0.1756252
0.28856334 -0.25094724 0.21634316
0.074220374 1.6279771 0.09661257
-0.17823632 1.615597 0.529412
-0.10967021 -0.2610631 0.9163304
0.51581204 1.8014331 -0.7511215
0.7146747 2.0750103 -0.48183894
-0.11382668 2.3357503 0.4929941
0.21241793 2.1189556 0.1594906
-0.18058644 2.0600343 0.8497548
0.266285 1.9846842 0.035015628
-0.17406628 1.5248601 -0.64387643
-0.5423305 1.1370244 -0.2913589
-0.75412095 -0.4139006 -0.0041285125
0.12262672 2.0188599 0.69860125
0.71466756 -0.086009294 -0.19923139
0.7223638 -0.08407779 0.0045211264
0.4874817 2.3389459 -0.116874635
0.70539796 -0.415679 -0.7634919
0.30358744 1.5872749 0.055686995
0.2527349 2.302043 -0.13567214
0.5240084 1.1021346 -0.19913885
-0.45779026 -0.08504616 -0.7362379
0.57307553 1.1251795 0.16120161
0.2707446 1.5432694 -0.3602621
0.7060931 2.2508755 -0.38212836
-0.4736547 2.3562446 0.14015222
-0.764801 -0.2493371 -0.32055807
-0.4259367 -0.41709974 -0.1869822
0.77382666 1.5536535 0.38353395
0.3535561 2.1926007 0.0028039862
0.16476658 1.7670579 -0.90033704
-0.77184653 -0.25465524 -0.5278211
-0.33468378 2.2682414 -0.46891248
0.2636423 -0.4118207 -0.28038615
-0.6404129 1.4192481 0.14398015
-0.68854856 1.8739157 -0.28756225
0.43255693 1.9265457 0.55676687
0.102545545 -0.24259558 -0.7648165
0.24623233 -0.0880937 0.32871783
-0.13626878 1.825289 0.32107127
-0.59433603 1.7763513 0.01434084
-0.891731 -0.41214687 0.32411772
-0.8593415 -0.4059748 0.9044498
-0.7161269 2.218998 0.3729626
0.34762385 -0.41845885 0.7778758
0.65960383 1.5404766 0.5628644
-0.57337785 -0.25180978 -0.7886503
0.2299268 -0.24283984 -0.18914193
-0.8941247 -0.40550637 -0.7357513
-0.42328766 2.1802425 -0.6970488
-0.23518583 1.6826057 0.37371224
0.6299225 2.4582906 0.1484217
0.54967403 1.9647439 -0.17337063
-0.6136451 -0.24504483 -0.014550287
0.7289686 1.8983666 0.13670102
-0.89788365 -0.4080987 -0.3272949
0.7971707 1.7192495 -0.42443174
0.27181953 1.0185144 0.346874
-0.64736736 2.4405625 0.11872836
-0.73560846 -0.4154002 0.21385908
-0.40725112 1.5897821 0.78243625
-0.74091476 -0.086897776 -0.6048893
-0.2146068 -0.41300976 0.8989719
-0.6587632 2.1305962 0.5503695
0.882775 2.016914 0.09505941
-0.74736786 -0.24342877 0.11464447
-0.025755133 1.3568597 0.3116356
-0.45595133 2.4054956 -0.055712514
-0.54032326 1.3535918 -0.20752671
0.2014291 1.5351849 -0.6818079
0.188772 1.7240236 -0.72517395
0.28868866 2.0864487 -0.81595695
-0.5465759 -0.4175637 -0.5278665
-0.43184587 1.8542385 0.6112707
-0.26153553 -0.08694903 0.31150424
-0.90323067 -0.09644884 0.3511059
0.09665142 -0.08540973 0.6714144
-0.44999313 -0.25186974 -0.08859061
-0.6797954 2.2460294 -0.41516972
0.45247608 1.4509693 0.1024155
0.38789427 -0.083866715 0.010387884
0.12964231 1.0805922 0.51741207
0.78271294 -0.24402097 0.11641681
0.48650986 1.5549378 -0.06565493
0.18817258 -0.07931663 -0.8780602
-0.4103316 2.209927 0.021642702
0.60219926 -0.2482768 0.42440337
0.3045984 1.6014739 0.41089672
0.48153025 2.3764706 0.19870773
0.120568275 -0.2528253 0.14685634
0.6859312 2.0957744 0.098148584
0.5514654 1.9760845 0.20786077
0.008302674 1.8524141 -0.59331006
-0.025636515 1.5974424 0.26838586
-0.39952192 -0.4189496 -0.390195
-0.72707915 -0.09094979 0.6239419
0.5501907 -0.4164142 0.33220264
-0.9009205 -0.09430896 0.542235
-0.6291408 2.3834968 0.31255853
0.027800646 -0.41729212 0.18594465
-0.67375535 1.8980136 -0.6072472
0.7500714 -0.25260305 -0.2989558
0.3755957 1.4158851 0.45088214
-0.017787555 1.73791 0.91289985
-0.9194734 -0.26913238 0.22137272
-0.22006133 -0.09350577 0.9005344
0.13419583 2.0098968 -0.515296
-0.84882766 -0.40616232 -0.9154685
0.32247815 1.6205349 -0.16223282
0.22447094 1.3744723 0.3015901
-0.60306203 -0.41119105 0.09797762
0.46595785 1.4653038 -0.4278025
0.21250875 2.5067143 -0.027500495
-0.3992439 2.0018516 -0.2997238
-0.9257239 -0.24709837 -0.64863026
0.8938354 -0.08812499 -0.29079318
0.62404644 1.4071665 0.018044017
-0.71057665 2.0073476 -0.12508243
-0.31571916 1.8342066 0.44580576
0.21055979 1.4107352 0.5560554
-0.5050787 2.1689596 0.6782865
-0.037056915 -0.08750913 -0.31100532
0.50612473 1.6523869 0.11293553
-0.53310144 2.1664982 0.19756216
0.12717667 1.5081499 0.38115257
-0.72969174 -0.41769603 -0.42664653
0.39822185 -0.41901797 -0.3974024
-0.073828846 -0.085647285 0.7579237
0.16021174 1.9515939 0.8858448
-0.48238978 -0.08605598 0.036001224
0.5440029 -0.4220562 -0.68042326
-0.40003967 -0.08423641 0.6437346
-0.014802938 2.3489232 0.12558328
-0.723438 1.2558906 -0.011173828
-0.4451182 -0.41709763 0.018696137
0.18516879 1.3590109 -0.5645405
-0.69422317 1.2594128 -0.21357933
-0.104799144 2.6038623 -0.42840016
0.42461407 1.3080226 0.27740288
0.5407215 1.742186 -0.122145995
-0.048387244 -0.25077188 0.10283339
0.5821464 -0.08613179 0.5338005
0.09243249 1.5624093 0.86589044
-0.6937964 -0.41324157 0.5960989
-0.24546862 1.6681545 0.8659811
0.51581913 2.1323822 -0.37961292
-0.88800263 -0.08898285 -0.73580456
0.897514 1.7937038 0.14865781
-0.59879494 2.0730271 0.36539057
0.18242306 2.2041297 -0.6018721
-0.08163789 -0.4138803 -0.3220004
-0.292461 2.0185251 -0.63313997
-0.22743076 2.4867935 -0.5647924
0.56910545 1.7596471 0.5162555
-0.39981493 -0.0863823 -0.4228397
0.25729245 -0.18367974 0.9267484
-0.7669298 -0.2427583 -0.7433684
0.6920003 2.0245237 0.30133486
-0.4515677 2.1005254 -0.48608947
-0.3445642 1.8342707 0.2279003
-0.31571913 2.3396106 0.42706138
-0.3296117 1.4016979 -0.7432315
0.06495108 1.6514068 -0.36058554
0.07660678 1.8151996 0.76413286
-0.601352 2.0554757 -0.3063715
-0.02097692 2.3797202 0.7028644
-0.18862453 2.4763691 0.36542475
-0.02065349 1.222566 -0.040683944
-0.07363805 2.7169843 -0.10504984
-0.070325606 2.2125766 -0.031555146
-0.0098522 1.3963356 -0.16496778
0.039096046 -0.08280432 0.057935324
-0.5453225 1.719279 0.71830684
0.20431167 1.678949 0.7076051
0.7317599 -0.41798562 0.22494012
0.43169424 -0.25617522 0.08013989
-0.8939022 1.5883746 -0.024823729
-0.5252445 1.312245 0.0049260696
0.16394019 1.2837517 -0.049280178
0.07061678 1.9694148 0.105369166
-0.4105246 -0.0852385 0.88562226
0.27110595 2.0726824 -0.14143358
-0.34104776 2.5784175 0.3676117
-0.49961275 1.6836487 -0.74782085
-0.24868417 1.3721862 -0.23618346
-0.92402935 -0.25631142 0.8681048
-0.3301011 1.5119028 0.6099708
0.36707813 -0.41953784 0.43447033
-0.24242347 1.9914688 0.2749892
0.04580147 -0.41651988 -0.018031165
0.3329603 1.1130977 0.5070313
-0.4656314 1.6997889 0.13363546
0.19658616 -0.41440475 -0.4530729
-0.47900462 1.41312 0.33261675
0.18407756 2.3260193 0.06836377
-0.012869646 1.4928703 0.49570802
0.8457264 1.518686 -0.13957842
0.19463426 -0.082670085 -0.07953231
0.6346493 1.1685975 -0.034625106
0.19628617 1.8952849 -0.6696614
0.36288387 1.3045459 -0.65798306
0.08652905 1.8310497 0.5710466
-0.13827875 -0.4151985 0.066786334
-0.1835157 -0.08454146 -0.19397983
-0.5512104 1.5258224 0.6639881
-0.5385479 2.2734413 -0.56588537
0.89995587 -0.40844995 0.11920913
0.8216725 2.1386926 0.24247335
0.5678103 -0.4131218 0.742054
0.0501247 2.3504682 -0.724688
-0.24802385 -0.2526754 -0.58683753
0.52468586 2.0933242 0.39898363
0.89701164 -0.40933916 0.53297234
0.27834815 2.4789765 0.1711086
0.35528392 -0.0879748 -0.9077048
-0.07718654 2.2118697 -0.80618006
0.14383245 -0.07794514 0.8758849
0.017834362 2.5436864 -0.021249425
-0.19450781 2.6553075 0.271116
0.28546232 2.497136 0.5237628
0.6147821 2.3882818 0.34674424
-0.57238257 1.9227297 -0.4370771
-0.25370306 -0.08822715 -0.7475312
0.7181294 -0.08561271 0.8775843
-0.7233212 -0.08364271 -0.21733359
-0.4446047 -0.24912927 -0.63740784
-0.45048368 2.590576 -0.13333619
0.621155 1.9417615 -0.64778495
-0.63771 1.7362996 0.26399356
-0.33858275 1.8143293 -0.65297353
0.3448792 1.501359 -0.56210864
-0.12942895 1.520624 0.68197894
-0.34938636 1.4644725 -0.5576818
0.36534983 0.99790865 -0.16591457
0.85912573 1.5843377 0.193632
-0.35211396 -0.42066205 0.35294664
-0.3409732 2.3401794 -0.65946037
0.20101234 1.7451034 0.8914851
0.7383709 -0.08469185 0.4290591
0.383731 2.4158866 0.020947024
-0.92501974 -0.25377727 -0.43175873
0.4397697 2.3603573 0.57059765
-0.19761787 1.1275382 0.56375957
-0.88239485 -0.4146439 0.5234225
0.5044993 1.814793 -0.5236385
0.48443246 1.5748105 0.50418985
-0.37224644 1.1016729 0.43776855
0.47873718 1.5370669 0.72538275
-0.15276101 -0.25661492 -0.7623249
-0.70911837 -0.26126158 -0.92708975
0.3977258 2.081379 0.19440627
-0.083970636 -0.2446876 0.641742
-0.15963028 -0.09128269 -0.9157213
-0.86804855 1.7972953 0.28377956
0.07220951 1.2595704 -0.24700314
0.57651484 -0.088800035 0.74727666
-0.040912315 1.686606 -0.51698273
0.18464443 2.668357 0.24256983
0.2400147 -0.41955405 0.61272347
-0.49071908 1.3280771 -0.59047234
-0.31682217 1.3845446 0.06655873
-0.57847327 2.4691222 -0.23252863
0.036022037 -0.24753992 0.4732533
-0.6493763 1.8218253 0.61631835
-0.797096 1.6237414 0.37620884
0.7502525 -0.2540349 -0.09279992
-0.2554492 2.0703425 -0.4391341
-0.053415574 1.9901297 0.25327015
0.7151269 -0.08610688 -0.39453924
-0.67892444 2.0961492 -0.5186817
-0.8217185 1.428016 0.076294854
0.568604 -0.08457779 0.32160825
0.253431 2.3117042 -0.45931286
-0.1115337 2.2964525 -0.21220039
-0.26805854 2.4965281 0.54173476
0.40747812 2.3190825 -0.31227311
-0.52457 1.8652248 0.40372527
0.27470964 1.1394289 0.04106307
-0.23291013 1.1298926 0.21371433
-0.42634517 1.6824335 0.5413323
-0.0916958 1.5382212 -0.27055112
0.31915683 -0.23821148 -0.78027344
-0.16025463 1.485676 0.35408008
0.62665105 -0.2762187 0.07525328
0.651 -0.25034845 0.24756464
-0.3992335 2.374032 -0.2920308
-0.15231907 2.357663 -0.71182406
0.10279128 -0.41530192 -0.6232729
-0.18902844 1.7278543 -0.8900825
0.64620125 -0.24515557 -0.9181895
-0.6593404 1.3198934 0.36789957
-0.5980612 -0.26405156 0.27229238
0.57438177 -0.41557533 0.5245581
-0.15137778 1.892125 0.094725445
0.3025265 2.058292 -0.63211083
0.0015709368 1.6589388 0.6536404
-0.6978401 1.9096148 0.29310733
-0.18353847 1.3796041 0.5357188
0.89612484 -0.09178809 0.73413754
-0.5694091 2.39588 -0.39978254
-0.5854509 -0.09014928 0.3549099
0.3574823 1.0461702 -0.34046766
0.31215596 2.032217 0.6670063
0.26718268 2.1286879 0.818393
0.68376756 1.8075652 0.3269394
-0.18510166 1.4874102 -0.07467976
-0.14284356 1.497294 0.13802627
-0.62451464 -0.24916771 0.4839229
0.13331619 1.5499308 -0.21416813
0.9190669 -0.25133985 0.64473104
0.14444794 1.9650981 -0.8827109
0.41221857 -0.25203878 -0.2899315
-0.5804369 1.1211507 0.09815475
-0.48210493 -0.2627219 0.592922
-0.35823932 1.352719 0.47003704
0.92498994 -0.24943945 0.43840533
0.59624624 -0.25214106 0.64814126
-0.5575719 2.0555053 0.015477207
0.5265777 1.7962364 0.23728259
0.8461335 1.7322528 0.33403647
0.12363944 1.1810249 0.33946204
-0.40710437 1.4531993 -0.33971226
-0.7792958 -0.25592518 0.5317532
0.23025292 2.643849 -0.29018846
-0.0142848315 2.470879 0.32724547
0.5428171 -0.08738494 -0.90998113
0.19718643 1.2151071 0.64847946
0.096667215 -0.25996688 0.9241557
0.65607023 -0.08436699 -0.7402749
-0.004709718 1.9991102 -0.29511076
-0.10591197 0.90573347 0.022835009
0.4708032 2.0121298 -0.7534468
0.15058732 -0.08464749 -0.28478873
-0.7866378 -0.2552465 0.7250977
-0.7408686 -0.08348104 0.43404883
0.502959 1.8444955 0.74235624
0.19281894 1.984236 -0.3015911
0.093810335 2.0744457 0.31559515
-0.39693183 1.3794043 0.7017653
0.5856974 -0.24632871 -0.2204391
-0.21535814 1.8628628 0.88070536
0.7790207 1.8902004 0.46900886
-0.59852123 1.549001 0.2998826
-0.16751283 2.5735812 -0.036320604
-0.6219573 -0.40528733 0.90280116
0.2248817 -0.24577403 -0.37442082
-0.59344554 1.2761925 -0.4200608
-0.4274715 2.5582771 -0.3158063
0.7819073 -0.24923186 0.3402279
0.9167939 -0.24407801 -0.59281725
-0.15474585 -0.08885737 0.0033735326
0.02726159 2.0173771 0.5315848
0.33442986 -0.085658185 -0.35947645
0.59237564 1.687679 0.68455243
0.54748166 2.2685752 0.054731764
-0.705552 1.94542 0.060026214
-0.40628713 2.0004125 -0.79126483
0.89737964 -0.4089362 -0.08628096
0.6791517 1.3786933 0.45107096
-0.17085293 1.3505895 -0.55175364
-0.38119644 1.2247651 0.3057035
-0.34473765 1.33157 -0.44606182
0.053548288 -0.2569011 -0.3568982
0.7016484 1.5480379 -0.5321461
-0.50730324 1.7623694 -0.5378454
-0.057128984 1.9470711 0.7072573
-0.67838717 2.0804467 0.17688423
0.27720153 -0.08319337 -0.6961943
-0.8950324 -0.40755475 -0.53695333
0.00967377 1.4316087 -0.6466732
-0.28455463 1.7056624 0.664564
-0.050126173 1.5080659 -0.47541562
0.89119977 -0.40924406 0.73394996
0.22499755 -0.08502631 0.123376615
-0.23058864 1.5171769 -0.414693
0.059819706 2.3538785 -0.08638628
-0.44800806 -0.25184995 -0.2856356
0.90038705 -0.089912735 0.5334587
0.8865421 -0.4025293 0.906235
-0.059491374 2.0224771 -0.050222192
-0.5113561 1.5275842 0.48015064
0.5741794 2.4242456 -0.34657374
0.30489546 -0.40352675 -0.9171933
-0.29941225 2.3106458 -0.123456284
-0.56115156 1.1480849 0.29101694
-0.38297182 1.6630825 -0.3942011
-0.14608414 -0.40981692 -0.9089321
-0.17177725 2.3269503 0.27654558
0.40978214 1.5313741 0.26562166
0.28913486 2.3306298 0.69247717
-0.36735862 -0.41605827 0.5464839
0.53877234 1.3461852 -0.30653456
0.20494741 -0.41392013 -0.7610203
-0.13322178 2.5085588 0.15322751
-0.5331259 -0.08573399 -0.14554128
0.53809863 -0.102393344 0.9154172
0.72965634 1.2655795 0.110523224
0.53699493 -0.073820174 -0.12633651
-0.21213171 -0.2583295 0.7643622
-0.042154312 1.8511552 -0.9187758
0.11911598 -0.4198182 0.75090545
0.2663319 -0.24625054 0.012205393
-0.32818615 -0.4189905 0.15313098
0.22215018 1.1355963 -0.1984007
-0.0010897536 1.6448796 -0.8892718
0.24506888 -0.25742763 -0.6144738
-0.11159547 2.2351613 0.7944327
-0.0525205 2.5112374 0.57326424
-0.22540414 1.9710906 -0.8723739
-0.45194155 -0.25854117 0.40672207
-0.15232864 2.7062633 0.09418118
-0.12865876 -0.25916547 0.47971475
-0.35621667 1.6310773 -0.62686765
0.07706745 1.446563 0.17258221
0.23055455 -0.26391143 0.7743954
0.9319572 -0.24913871 -0.78148794
0.444876 -0.25495172 -0.62212443
-0.30253363 -0.25433165 0.03027134
0.2954887 2.09086 -0.43889293
0.7232287 -0.40017778 -0.9193433
-0.7177303 2.3173323 -0.23703772
0.08670115 2.5131583 0.1526503
-0.37706357 1.1994014 0.10450679
0.1786001 2.452595 -0.61815894
-0.9267819 -0.26120782 0.42840543
0.4562667 -0.24872309 0.5280696
0.4069748 -0.25510362 0.35755408
-0.9135597 -0.10675464 0.17155015
-0.50573516 1.4999698 -0.69660866
0.40242004 1.0152977 0.16730419
0.3745504 1.237354 -0.29343837
-0.30873382 -0.08687507 0.12262078
0.019044638 -0.08412137 -0.47770166
0.682615 1.5974872 -0.005988142
-0.40895027 -0.24164166 0.7582375
-0.26513994 1.1362356 -0.19488126
-0.0661753 -0.2515602 0.2937541
-0.2293428 2.2958586 0.08619643
-0.43213284 1.7191408 -0.10217145
0.7600002 1.3907838 -0.28383172
0.90355897 -0.08811786 -0.48982948
-0.31214625 2.0108852 0.49331695
0.10317744 1.5086857 0.6816313
-0.31233218 2.207015 0.7626871
0.5161098 1.2399621 0.47090232
0.22817174 1.3674831 -0.22099146
-0.6525551 1.6583834 -0.6205089
-0.19657043 1.0578122 -0.4920885
0.38851973 -0.42000312 0.015483565
0.0853345 -0.40531492 -0.9118701
-0.15331236 2.0888503 -0.22156574
-0.73636323 1.6252714 -0.04511098
0.38518187 1.2672633 0.61003137
0.011666758 -0.41226172 0.9062805
-0.030522399 1.9291716 0.903257
0.48049814 2.5487757 0.23830271
0.40034294 -0.085084304 0.21697131
-0.42152363 2.0255237 0.31823415
0.040006004 1.2476978 -0.71582216
-0.46963188 1.490303 0.13079609
-0.19614884 1.6959013 0.18976873
-0.09663771 1.0599135 -0.10052738
0.26849294 -0.08983181 0.731619
-0.911566 1.7799276 0.061390374
0.47392738 2.0252194 0.7530039
-0.7484095 1.7765727 0.12531658
-0.0024753502 2.6727479 0.2719378
-0.7301048 -0.08631055 -0.90231144
0.41071498 -0.4197229 -0.18147285
-0.11290228 1.2163956 -0.22144824
0.12990803 -0.25563058 0.6110823
0.89460266 -0.088624805 -0.09248677
0.88918996 -0.08365711 -0.7075266
0.5629426 -0.4150417 -0.29434997
-0.1580513 2.0796015 0.6447054
-0.4927334 1.8018725 -0.30433905
0.33620858 1.7287817 0.22998555
-0.2954085 -0.24722824 0.58021533
-0.400034 1.2512442 -0.28831267
-0.4234916 1.1588078 -0.48086447
0.37597036 1.4839059 -0.7635449
-0.65074015 1.4505923 -0.54277444
0.55553913 1.442078 0.36127812
-0.64006436 2.4526596 -0.068683416
-0.08289231 2.145289 0.43359506
-0.6054032 -0.09585655 0.15689915
-0.73409915 -0.08581586 0.7975109
0.49757785 -0.25008076 0.22741804
-0.03923248 0.90908235 -0.180876
0.1779213 1.2115488 -0.3980497
0.1893352 1.5600095 -0.8601452
-0.025369478 2.499758 -0.5959623
0.7366438 2.0736508 0.47601163
0.31366572 1.3509485 -0.4290207
-0.36109963 -0.08659676 -0.25387394
-0.82948935 2.12914 0.241218
0.15922552 1.642625 0.5236286
-0.12242865 1.1721045 -0.6280191
-0.42395297 1.0256016 -0.17087722
-0.83922344 1.7566702 -0.33133382
-0.5747696 1.4647014 -0.3783382
-0.40461797 2.3429189 0.6178962
-0.20300967 1.2945287 -0.05514866
-0.10872517 2.614152 0.436045
-0.92435473 -0.25579107 -0.2204086
0.5672848 -0.40808225 -0.07737906
-0.8704984 1.9463673 -0.23979527
0.85784316 -0.2516187 -0.92905545
0.46707004 2.0107477 -0.5266164
-0.22403279 1.2055793 -0.3984614
-0.39901292 1.4418051 -0.10569976
-0.33001944 1.56686 0.22524366
-0.12259423 1.8687649 -0.1459022
0.042777054 1.080415 -0.23051041
0.5770977 1.9255395 0.43114328
0.7538222 -0.2515007 0.5423163
0.89436734 -0.4086526 -0.6843631
-0.059419077 1.828725 -0.37656862
-0.3985693 1.2237858 -0.094395116
0.36623228 2.3734531 -0.6184058
0.40842533 -0.25578362 -0.10744113
0.41195822 2.561078 -0.3141005
-0.23301885 1.0133317 0.36726636
-0.23377652 -0.08553013 0.5139793
0.22060695 -0.41279972 -0.09588237
0.097398035 0.90237486 -0.039825477
0.64698064 1.5250945 0.18787774
0.35752708 2.6425374 -0.10535541
-0.9006337 1.7591648 -0.14389457
-0.02586238 -0.09771094 0.91389656
0.894239 1.6517899 -0.0039933785
-0.02178321 1.3981273 0.028230213
-0.24834335 -0.08667511 0.71375895
0.36700267 1.2084165 -0.10535333
-0.31443202 2.472044 0.040680125
0.34318823 1.4060845 -0.05764288
0.19590273 -0.24598226 -0.9267415
0.08250789 1.8277485 -0.22597694
-0.22394994 2.6654153 -0.23915003
0.5712889 -0.08634388 -0.5413592
-0.33450818 2.1963265 0.2109937
0.44101715 2.4410963 -0.4697777
0.58406353 1.9359784 -0.386044
0.90011096 -0.08764736 0.110620886
0.5908662 1.6343832 0.34179014
0.57968163 1.3408809 0.18526214
-0.3598605 1.2254188 0.59745026
0.22323911 2.4333186 -0.33431768
-0.42730916 -0.40926853 0.894518
0.11943287 2.1830943 0.45536852
-0.7343302 -0.2519887 0.91573304
0.35881674 1.680589 -0.8273125
0.5688522 -0.24700564 -0.42171153
0.69026005 1.8416749 -0.23612392
0.56825614 2.298552 -0.51780695
0.35112974 2.263524 0.17875098
-0.84626305 1.5844952 -0.24003488
-0.8157269 1.415456 -0.13151133
0.39450955 -0.41151455 -0.7655269
-0.66763073 1.5288012 -0.22249183
0.7097365 2.2288065 0.3729143
0.7272922 -0.4178205 -0.18764946
0.73092365 2.3095837 0.1844774
0.73713523 -0.08524895 0.64908135
-0.6160626 -0.25430393 -0.6159779
0.019588996 1.8130693 -0.01520763
-0.2548133 -0.4153001 -0.2593009
-0.4132238 1.0314794 0.23297903
0.20635298 -0.087012775 -0.49700326
0.14288512 1.3537557 0.7804029
0.100428425 2.5859318 -0.45258743
0.4386834 1.8081288 -0.27892974
-0.6479349 -0.08319247 -0.7418176
0.16426933 2.4651496 0.34105867
-0.5836298 1.1279778 -0.095452785
0.3160429 -0.25125214 0.6171666
0.010467167 2.6740718 -0.2856864
-0.33423626 1.5300171 0.4156831
-0.3298791 2.4268599 0.23557433
0.9007305 -0.40872133 0.3251831
0.21461321 1.9215083 0.256732
0.029768199 -0.24408212 0.77155936
-0.7875085 2.1194768 -0.3241622
-0.5340744 1.9127593 -0.15029806
-0.51252437 2.0010803 0.5277592
0.21910284 1.5646737 0.21413758
0.6305915 1.5333743 -0.35952067
0.5702723 -0.20599413 -0.047831446
-0.7127559 1.2616777 0.18437037
-0.6203959 1.6822717 -0.3826846
-0.3183515 1.5937998 0.023968274
-0.27872568 2.5707407 -0.4001175
-0.84229726 2.1469786 -0.14527392
0.1631164 1.6943624 -0.08262739
0.67589176 2.3919125 -0.20158914
-0.9322982 -0.2576716 0.63489574
0.48586977 -0.4154675 0.90474045
0.7068962 1.9683578 -0.0572967
0.16704038 2.2911644 0.2625485
-0.33427987 -0.08604207 -0.07150513
0.032325335 2.111302 0.85076094
-0.76864475 2.308525 -0.033630736
0.0556468 1.8832924 0.3859539
-0.22938496 1.6946095 -0.5142931
0.06709477 -0.08721585 0.25183302
0.10722454 1.3077488 0.46805018
-0.1270021 -0.4163745 -0.612339
0.2678413 2.3025935 0.4806771
0.8991795 -0.40801153 -0.48622522
0.19696456 2.1855974 0.61931515
-0.4455876 1.8898268 0.010376938
0.38906306 2.1353695 0.52495825
-0.20427558 1.2440886 0.3837353
0.08597584 1.2575774 0.14502136
0.44290057 2.1458716 -0.17258635
0.7355567 -0.42027307 0.02026082
0.002551102 1.3536708 0.6268198
0.078317605 2.365385 0.4966129
-0.26377618 2.161335 0.3813117
-0.042235326 2.0402708 -0.8762913
-0.33370513 1.5951042 -0.81578326
0.14215454 2.4490452 0.6376526
0.5320766 1.1680149 -0.38449693
0.8958075 -0.40944904 -0.28682387
-0.5753273 -0.41581756 -0.3171657
-0.05243729 1.1421468 0.29199708
0.032993488 -0.09187484 -0.9158118
0.5677825 1.8441031 0.03664477
0.10811575 2.5977173 0.45425683
-0.74856025 1.4018576 -0.33933538
-0.18839812 -0.41303104 0.61927307
0.56805515 2.1885614 0.22721833
0.22354509 1.9986578 0.4859112
-0.4298534 1.0127659 0.021362592
0.5250217 1.6153489 -0.52198064
0.011547102 1.794503 0.19559471
0.7632443 -0.24255118 -0.74173665
-0.13166875 2.3979597 -0.040972356
-0.3252243 -0.41586176 0.73759204
-0.085086584 -0.41524956 0.7587548
-0.6161789 -0.25384337 0.7224901
-0.15586415 1.7011278 -0.7049798
-0.25207633 -0.2566477 -0.92332554
0.7309575 -0.41478413 -0.58403635
-0.6046853 -0.2510447 -0.42283344
0.77057105 1.396375 0.25892636
-0.13150409 -0.08619312 -0.59117043
-0.012616954 2.1961102 -0.60148025
0.6601688 1.3577794 -0.45202947
-0.36500353 2.0216494 0.10442032
-0.18715829 1.7126613 -0.3313007
-0.5495014 -0.09115969 -0.9141058
0.25746 1.8115882 0.4536493
-0.8665539 1.6118878 0.1818969
-0.2793237 -0.24745736 -0.37502885
0.5287478 -0.4111082 -0.8999045
0.37251133 -0.25466192 -0.46889418
-0.70112157 -0.4184388 -0.7982471
-0.320131 -0.25392848 0.92249346
0.38308352 -0.4179343 0.22227709
-0.011394021 1.5705965 -0.0663857
0.016587019 1.2869973 -0.5090195
0.810945 2.2272518 0.0332744
0.7015842 -0.41822243 0.87827647
0.47826132 1.0428263 -0.008483226
-0.55962783 -0.087003216 -0.33377048
0.62828267 1.4728587 -0.1689505
0.5352932 2.5265913 -0.16479558
-0.105187 2.0352035 -0.6863942
0.6364745 1.2330686 0.31483263
0.0716255 2.3482203 -0.4944942
0.8954272 -0.4078344 -0.87900364
0.5419667 1.4328916 -0.6265707
-0.7868141 1.4482046 0.27848682
0.43292594 1.7533989 0.3961413
0.5445553 -0.25482515 -0.7779924
-0.3556593 -0.088925004 -0.9114561
-0.14537641 1.3296709 -0.75794053
-0.048254386 1.2299459 0.48096836
-0.2096955 -0.24791285 0.17783654
-0.25306714 2.145577 -0.07192816
-0.045174852 1.3771039 0.8059461
0.15072395 1.7189103 0.31033736
0.29103565 1.2436552 0.42507175
-0.9244186 -0.250422 0.0056126937
-0.040252008 1.1532009 -0.3912038
0.11688231 2.2698698 0.7778517
-0.82981205 2.1352193 0.045195628
0.37057444 1.869217 -0.64872146
-0.11196178 1.6850243 0.038396336
-0.6467656 1.7155254 -0.18817636
0.59273183 2.256571 0.5278957
-0.05672847 1.0322453 0.4691683
-0.52052367 -0.41993594 0.70545125
0.7082397 1.7061949 0.15786842
-0.28420144 2.4901 -0.17743355
-0.64673203 1.4359131 -0.055700507
-0.18169212 2.0792215 0.088133454
0.4838115 1.614039 -0.27383295
0.9027691 -0.08855964 0.32240465
0.2506059 -0.25175476 0.4429152
0.24121761 1.7439278 -0.30638137
-0.5500773 1.3590935 0.5650111
0.13604836 2.6993685 -0.12192513
-0.007018616 1.1763675 0.66607916
0.03273207 1.0852396 -0.55367047
0.5020808 2.0563252 0.02290782
0.3211094 1.540379 0.6163318
0.62749803 -0.2525292 -0.6141982
