0.5963564 1.8437632 0.61049974
0.44740364 1.0026444 0.071857154
0.4580931 2.022407 0.37233102
0.7485675 -0.25246817 0.7567495
0.38793924 1.4829676 0.5984317
-0.60131794 1.4658922 0.45439678
-0.006528144 0.73124397 -0.38045657
0.65849394 1.6594694 0.6254866
0.27946553 2.2957244 -0.47876275
0.7754691 -0.249854 0.9346812
0.4649276 -0.08677907 -0.72640073
0.0063779517 -0.4170453 -0.46843463
0.025317319 1.9202342 0.13393533
-0.75133777 1.5887008 -0.08320676
0.29486054 1.8965626 0.34681565
0.10260768 -0.24676609 -0.5278919
0.2948969 0.94176114 0.2221039
-0.33444086 -0.08721448 -0.58124816
0.09634633 1.177609 -0.36682755
-0.9054535 -0.09731234 0.73649704
0.4704581 2.230318 0.42279863
-0.60965717 2.0070071 0.032915734
-0.4657446 -0.25323188 -0.924399
0.42815572 -0.08403568 0.6454747
0.19629204 0.9312231 -0.6177
0.86031044 1.8413086 -0.09621976
0.87216717 1.6848469 -0.20334812
-0.28970945 1.5571895 0.026470795
-0.21798494 2.1530685 -0.3498309
0.17671601 0.70198566 -0.23022267
-0.44264996 1.8580468 -0.13951166
-0.7681593 1.3392019 -0.43014258
0.003401569 -0.08725658 -0.12810516
-0.7449124 2.0467286 0.18011165
-0.7246505 -0.08608378 -0.42353123
0.3103242 1.6406568 -0.45944104
-0.5936505 -0.41570354 -0.10694703
-0.3590458 1.8220046 0.6526896
0.0918287 1.91813 -0.40760833
-0.30325675 1.338953 -0.2173861
-0.0647933 1.7883011 -0.484744
-0.24512306 1.6629598 0.6740139
-0.7524524 -0.08059701 0.22382545
0.19861856 1.1156077 -0.7674889
-0.053196616 -0.09003405 -0.7613195
0.7587655 -0.25159565 -0.48972508
-0.5501145 1.7246108 0.7196701
0.58786416 1.8945376 -0.6126118
-0.10242899 -0.24757403 -0.46001744
-0.17391215 1.6327424 -0.7373768
-0.11333902 -0.08326924 0.18930818
-0.7924712 1.7114326 -0.42877358
0.37494695 1.5092946 -0.012811121
0.13455245 1.9150043 -0.023945188
0.18786593 1.4782908 -0.5330086
0.9240047 -0.24826857 0.010213637
0.021579312 1.1996281 -0.8316321
0.81187195 1.3167331 -0.34481272
0.69028306 2.153554 -0.025978107
-0.26105624 0.69870377 -0.101025514
-0.4340989 1.9332752 0.4869976
-0.12727095 -0.24694179 -0.2644106
0.85972977 1.7021108 0.28880182
-0.7180215 -0.4210098 0.77538955
0.34137172 1.6689417 0.8392098
-0.4970014 -0.41944066 -0.73136723
-0.7538859 1.5306852 -0.49422398
0.12247787 0.84270084 0.17306404
0.28358114 1.2988987 0.8235886
-0.56409156 -0.087135 0.55043113
0.75278884 -0.08988105 -0.5869043
0.8190115 1.6663234 -0.37446618
-0.1305919 2.101026 -0.5154777
0.28481874 0.7086929 -0.018986301
-0.022732401 -0.41499883 -0.7656598
0.73221004 -0.41852152 0.64924884
-0.16052186 1.2766569 -0.84217954
-0.50696075 1.3245268 -0.5048603
-0.012760805 1.4512119 0.4304944
0.564041 -0.08625707 0.11088222
0.20655917 -0.41683334 0.29446554
-0.3536706 -0.41738415 -0.58893585
-0.36820024 1.76612 0.81605935
0.1063886 1.9349216 -0.82755125
-0.8910336 -0.09923986 -0.9120184
-0.77731216 1.5647264 0.4643708
0.08962867 -0.4219395 -0.25050062
0.38891593 1.6487296 0.13172102
0.46318704 0.86674756 0.3334182
-0.061094802 -0.08373822 0.57340074
0.1119266 2.268393 -0.2057889
0.110658005 1.7221671 -0.100626856
-0.7639766 -0.24282408 0.32886672
-0.50134873 2.2855055 0.25380486
0.4116288 1.6882942 -0.08482145
-0.514048 0.9823136 0.463103
-0.87055206 -0.08421557 0.023314452
-0.53320056 1.3376124 -0.030520283
0.73041105 1.6374533 -0.5252377
-0.2149258 1.9446088 -0.5965085
-0.20583212 2.1357756 0.6807873
-0.34321606 2.3922718 0.15903574
0.5315926 1.3663864 -0.7146768
0.33337814 2.1489732 0.32797682
0.6648882 1.4869359 -0.6164738
-0.40349817 -0.09010379 0.4474318
-0.6191745 -0.093552455 0.91849566
0.41262388 -0.08474225 0.43424296
0.5985191 -0.26535565 0.9018425
0.92251265 -0.24789202 -0.3877079
-0.8983599 -0.4071573 0.10914288
0.74215114 1.5345763 -0.0497479
0.9193431 -0.24778327 -0.1887825
0.49326771 1.0369382 -0.52929187
-0.5348287 -0.4209543 0.47569084
-0.18368107 0.7413379 -0.29325163
-0.7064348 -0.4154231 0.40042236
-0.13605785 1.0435576 0.14834526
-0.35141057 1.6237023 -0.43961233
-0.899485 1.7211189 -0.032418206
0.0054914374 -0.41657078 0.5827074
0.10790687 0.8378746 -0.032087922
-0.69332826 -0.08024627 -0.015816182
-0.7145051 -0.41794813 -0.6245152
0.018377807 1.3827461 -0.6915436
-0.89606345 -0.40810493 0.7222016
-0.9033309 -0.09354608 -0.52952945
-0.6132782 -0.25152075 -0.2123763
-0.36200577 1.5638883 -0.8359051
0.43043625 -0.25468743 -0.92454004
-0.5761483 2.0615268 0.5091903
-0.0016202537 -0.41768467 0.3767122
-0.24544929 1.2209404 0.8073292
0.32731223 1.6416938 -0.8434106
0.39967102 1.9741611 -0.51272774
-0.5180557 2.0420847 -0.16191772
-0.52349895 -0.24585186 0.9145566
-0.487655 -0.2564802 0.11624429
0.6096183 1.4938452 -0.3859791
0.007248561 2.0376358 0.32318664
-0.06279385 0.84717745 0.10202418
0.083394736 0.72935647 0.34010476
-0.2592559 -0.4198898 -0.75017893
0.40143478 -0.26989985 0.9250057
-0.24020799 1.9761064 0.57269806
0.39790642 -0.085641295 -0.53440166
-0.18001847 1.6384847 -0.53255284
0.8286687 1.209682 0.054256804
-0.47281355 2.0340376 0.33322746
0.3770944 -0.0779382 0.87751466
-0.083165735 1.3243262 0.86567944
0.26331484 1.9516668 -0.29225618
0.3188464 2.3548167 0.34418732
-0.3538797 -0.25668085 -0.77113473
0.73675156 -0.08346726 0.21766236
0.267828 1.609396 -0.14875749
0.397375 1.4645389 0.80754083
-0.46743846 2.2124987 0.44630116
0.5556658 -0.42369348 0.1311033
-0.702842 1.7233043 0.54184484
-0.13545454 1.7299175 0.45706686
-0.03159126 -0.25101334 -0.6339735
-0.5473457 -0.08644274 0.7469125
0.7830405 2.004737 -0.17755416
0.16335231 1.2395444 -0.029751685
0.90958667 1.6222837 -0.036410965
0.5193707 1.0734568 -0.113539785
0.5813597 2.001329 -0.25722146
-0.088231176 2.2693696 -0.21053809
0.3490983 0.9069703 -0.5073519
-0.09276673 -0.41769862 -0.13848397
-0.7460369 -0.41613778 -0.21501702
-0.27344894 -0.41741765 -0.060757972
-0.28362966 1.1330807 0.25562644
0.90352327 -0.08981013 -0.89674795
-0.36942238 -0.41143763 -0.90195036
0.11894834 -0.25501972 0.32152134
-0.896716 -0.093180835 -0.33297312
-0.02978135 1.4605136 -0.19263646
-0.19017291 1.0423329 0.71099555
-0.6698513 1.3567424 0.13288102
0.035213213 2.47489 0.07837188
-0.1021743 1.9651561 -0.38519552
0.92705786 -0.24775456 0.22403772
0.15938997 -0.41489384 0.4661961
-0.032141704 -0.25790256 -0.9151716
-0.9151836 -0.26067632 -0.8728559
-0.16651574 -0.41533488 0.26042497
-0.69598645 1.2341877 0.48099285
0.018086415 1.5905738 -0.7641247
-0.26037842 1.9235306 -0.79747325
0.6946902 1.4093709 -0.21059436
-0.35552046 0.8023486 -0.34395576
0.6364483 1.9276308 -0.08540779
0.44600216 -0.2405962 0.7590178
-0.003017873 1.95787 0.6267395
-0.41597185 2.205157 -0.49767065
-0.11938028 -0.25255704 -0.06359775
0.74570405 1.4688058 0.5164325
-0.2646708 0.7073005 0.13306311
-0.18083656 -0.42177793 0.44775164
0.25622976 -0.08585548 0.54307044
-0.28971103 1.7252913 -0.0954903
-0.3065952 1.9492793 -0.28048995
-0.50510323 1.9699347 -0.3378107
-0.39820996 1.568789 0.81560206
0.33945483 1.1428275 0.7278699
-0.5487997 -0.08605156 -0.5484822
0.095111415 -0.08430653 -0.666017
0.19973113 1.5535982 0.08764306
-0.8066815 1.770719 0.3913086
0.36079627 1.4396737 -0.63364244
-0.69041705 1.3987494 0.58154637
-0.46073502 1.7089117 -0.5838175
-0.11787403 1.5703044 0.5469794
0.04114306 -0.26248902 -0.18391341
-0.7713767 -0.24380782 -0.104049295
-0.020431988 2.2027044 -0.3685738
-0.32764438 1.5738893 -0.21859622
0.26639336 1.61594 0.6695943
-0.26239857 -0.25457996 0.38237274
-0.5053433 1.0620241 0.19667365
-0.53347445 1.6718416 0.19164076
0.2281614 0.70029134 0.16251391
-0.1255847 1.9244537 0.2351766
-0.90351063 -0.40441635 -0.108692095
-0.5790491 -0.40589774 -0.9158629
0.53126895 1.1540368 0.60221493
0.079550624 1.8004316 -0.70063794
0.2452344 2.0432892 -0.7450999
0.428191 1.9635198 -0.7021618
0.05873022 1.9093621 -0.19794945
0.35476217 -0.08625506 -0.1843236
-0.5191186 -0.42165065 0.26509368
0.098272875 -0.08496501 0.45624948
0.04433681 0.6720353 0.14385143
0.88055795 1.4847534 -0.22003183
0.6643642 0.98966515 -0.24130012
0.73742855 -0.08701536 -0.9052472
-0.4294531 -0.25760245 -0.47784686
0.21520309 2.447847 0.0472046
0.09338032 -0.24302956 -0.029140811
-0.2150515 -0.4145375 -0.45340022
0.40073755 1.2029109 -0.234436
0.38780767 1.7045264 0.34784725
0.3392905 -0.4216922 -0.58738744
-0.31076366 0.98579675 -0.62509286
-0.4997218 2.3284612 0.055117466
0.4285195 -0.4134073 0.62096584
0.52729565 2.305049 0.01302795
-0.08277299 -0.08774134 0.383417
0.37285736 1.4430816 -0.43400127
-0.30787143 2.434321 -0.041304186
0.23773879 -0.40106225 0.9142006
-0.20326295 -0.08339352 -0.4082356
-0.10295019 0.70314825 0.255588
0.13548894 1.3027139 -0.5113388
0.38924557 1.7493038 -0.30094486
-0.6469212 1.9234612 -0.1409651
-0.28399658 -0.25315356 -0.16864935
0.8228049 1.8551272 -0.30808833
0.5477885 -0.41335636 -0.5002621
-0.44119257 1.4484894 0.33403343
0.11053244 1.6112036 -0.4274964
-0.37836188 -0.25903493 0.24111691
-0.44377843 -0.088773526 0.24909607
-0.20665306 1.6924155 -0.3174408
0.89462173 -0.09581935 0.90830433
-0.10067025 1.1154342 -0.35778153
0.92973375 -0.2501427 0.85761213
0.083675876 2.0721664 -0.28327313
0.21225227 -0.4162383 0.10194321
-0.11409739 1.5125897 0.7458093
0.37337935 2.3927398 0.10868843
0.18034452 0.7887725 -0.42715234
0.6737915 1.8184047 -0.2572189
-0.4935456 1.3505003 -0.23189181
0.44203448 1.9656038 0.69276047
0.73435426 -0.41688806 0.4303934
-0.5739974 1.8292949 -0.66638464
0.52688193 -0.08427344 -0.33082062
-0.5455518 1.6166677 -0.73058033
0.72434425 -0.41710567 -0.3907511
-0.8985596 -0.09478599 -0.14356959
0.76507115 1.0858732 -0.09312533
-0.86729884 -0.09642352 0.91468024
-0.87795794 1.7180784 0.17552108
-0.20547414 1.450784 -0.11958167
0.27130678 1.1241348 0.11736195
-0.24192527 0.87194645 0.011991373
0.3327875 2.2256484 -0.1772548
0.28891057 -0.25115657 0.21766883
0.07643275 1.3881555 0.097540736
-0.17526677 1.3760259 0.5309423
-0.10953891 -0.26111817 0.92001617
0.5125456 1.5607522 -0.75322837
0.7130928 1.832869 -0.48504615
-0.11140415 2.0960364 0.49272496
0.21298766 1.8789651 0.1580112
-0.17593506 1.820977 0.8505898
0.26616788 1.744669 0.0334105
-0.17744225 1.283467 -0.64252806
-0.5443768 0.8958309 -0.28701922
-0.75397956 -0.41378492 -0.0024334549
0.12670492 1.7795111 0.69805145
0.7160226 -0.08641562 -0.1965341
0.7231385 -0.084590316 0.0065394966
0.48662895 2.0981345 -0.11959095
0.7066387 -0.4155738 -0.76350236
0.30442065 1.3479749 0.05407715
0.25190547 2.0614371 -0.13735127
0.5231327 0.86119664 -0.20077473
-0.45631883 -0.085359916 -0.737167
0.5745597 0.88499856 0.15889853
0.26862282 1.3018978 -0.36120808
0.7035612 2.009395 -0.38681352
-0.47328818 2.11575 0.14229822
-0.7640778 -0.24957502 -0.32040614
-0.42634407 -0.41697294 -0.18764043
0.77573705 1.3126374 0.38070467
0.3533572 1.9519458 0.0005938038
0.16096516 1.525892 -0.9010991
-0.7718492 -0.25491723 -0.52744913
-0.33703792 2.0271251 -0.46776807
0.2634728 -0.41159832 -0.27892315
-0.6397811 1.1783233 0.15090565
-0.69011176 1.6330469 -0.28395832
0.43549296 1.6870325 0.5539666
0.10370821 -0.24267066 -0.764469
0.24683693 -0.08852635 0.3304239
-0.13460526 1.5846682 0.32173896
-0.5940992 1.5365086 0.017725164
-0.8917663 -0.41179705 0.32630527
-0.8570982 -0.40564793 0.9072833
-0.71399856 1.9788136 0.37732193
0.34839517 -0.4180305 0.78022933
0.66177356 1.3009624 0.56058025
-0.5735259 -0.2516867 -0.7890593
0.23006836 -0.24309301 -0.18832853
-0.8941262 -0.40555155 -0.7342769
-0.42612892 1.9389234 -0.6955445
-0.23220907 1.4416839 0.3746306
0.63072 2.2173634 0.14363705
0.5489557 1.7234054 -0.17570102
-0.6128608 -0.24524488 -0.013098632
0.72966367 1.6583999 0.13263875
-0.8975421 -0.40810755 -0.32620186
0.7955326 1.4781232 -0.42761344
0.2735365 0.7781359 0.34569368
-0.6466986 2.19987 0.121380955
-0.73561513 -0.415222 0.21536723
-0.40264118 1.3511022 0.78532237
-0.7414192 -0.08740656 -0.6054834
-0.21459363 -0.41217104 0.90152663
-0.65487313 1.8908226 0.5544748
0.8831612 1.7767267 0.09044747
-0.74782765 -0.24321535 0.11567554
-0.024349608 1.1162822 0.3127165
-0.45651013 2.1648755 -0.05386983
-0.54236424 1.1129782 -0.20275243
0.19782658 1.2941971 -0.6825174
0.18583131 1.4833411 -0.7258107
0.28513294 1.8457274 -0.8175234
-0.5466712 -0.41753757 -0.52795434
-0.42809492 1.6146815 0.6134687
-0.26101944 -0.087243035 0.31328237
-0.9030735 -0.0965051 0.35304087
0.097370856 -0.08566271 0.67382115
-0.4492988 -0.2515905 -0.090114504
-0.68208224 2.0050068 -0.41256648
0.45234373 1.2112783 0.10064125
0.38833773 -0.084254146 0.011671621
0.1319763 0.84028584 0.5178177
0.78416383 -0.24435307 0.11814437
0.48645258 1.3146517 -0.068329446
0.18823282 -0.07969815 -0.87862587
-0.40991205 1.9698524 0.023523029
0.6030407 -0.24838664 0.42698705
0.30545205 1.3599672 0.4092769
0.48227677 2.1362038 0.19485053
0.119972914 -0.25282818 0.148452
0.6863849 1.8555963 0.094484776
0.5525186 1.7356777 0.20529328
0.0054133604 1.6126504 -0.5934877
-0.026630089 1.3588738 0.2681361
-0.39958417 -0.41897786 -0.3908211
-0.72620684 -0.09134556 0.6275205
0.55084234 -0.41637713 0.33485812
-0.90085816 -0.09458938 0.54536784
-0.62764657 2.1432796 0.31582078
0.027103018 -0.41712797 0.18739603
-0.6766341 1.6564323 -0.6036345
0.7515538 -0.25268453 -0.2964484
0.37923145 1.1755672 0.44973287
-0.012790599 1.4990463 0.91350853
-0.91924906 -0.26866165 0.22316054
-0.21900761 -0.09409567 0.90281385
0.1311183 1.7695057 -0.51618123
-0.84887046 -0.4065537 -0.9142964
0.32124662 1.3792844 -0.16372186
0.22654551 1.1352196 0.30195224
-0.60210824 -0.41096857 0.099271595
0.46376842 1.2246163 -0.42990667
0.21196249 2.266327 -0.028954718
-0.4009201 1.7610259 -0.2979296
-0.9257941 -0.24747817 -0.6471498
0.89516246 -0.088590205 -0.28947496
0.62373674 1.1663017 0.015172588
-0.7111932 1.76699 -0.121438906
-0.31269792 1.5931108 0.4478283
0.21402898 1.171584 0.55470526
-0.50018644 1.9285347 0.6812797
-0.036104187 -0.08798005 -0.31103465
0.50712574 1.4128094 0.109387845
-0.53187674 1.9262605 0.19984749
0.1264777 1.2689329 0.3797934
-0.72957575 -0.41767317 -0.42620265
0.39876038 -0.4190141 -0.39553934
-0.07391937 -0.08602674 0.7600136
0.16457662 1.7122627 0.88487405
-0.4811622 -0.08644679 0.03568221
0.5455775 -0.4219541 -0.67965555
-0.39954942 -0.08470954 0.6451385
-0.014033973 2.108656 0.12523872
-0.72374016 1.0159109 -0.0057501113
-0.4452206 -0.41693652 0.017551977
0.18275088 1.117982 -0.56502557
-0.6957859 1.0186114 -0.20834708
-0.10688119 2.3630576 -0.4279977
0.4261877 1.068914 0.2758839
0.54003084 1.501799 -0.12487139
-0.049194835 -0.2510448 0.10315962
0.5834076 -0.08648604 0.5347769
0.09720881 1.3234317 0.8657056
-0.69262266 -0.413128 0.5988821
-0.24050802 1.4294631 0.86805344
0.51373804 1.8917392 -0.38238603
-0.88853043 -0.08946127 -0.7351531
0.89819777 1.5529709 0.14499941
-0.5969279 1.8331828 0.36861706
0.18031001 1.9636042 -0.6028687
-0.081155136 -0.4138797 -0.32170397
-0.29556006 1.7775855 -0.6315844
-0.22992748 2.2458634 -0.563645
0.57180464 1.5205982 0.5127425
-0.40031284 -0.08674191 -0.42293084
0.2583152 -0.18310252 0.92960507
-0.7671138 -0.24279962 -0.7432554
0.69375044 1.785311 0.2975917
-0.45459312 1.8596056 -0.48405758
-0.34429085 1.5952147 0.23051617
-0.31375185 2.0994678 0.42794454
-0.33339757 1.1599262 -0.74051505
0.062393986 1.41063 -0.3610236
0.08136667 1.5757486 0.7640698
-0.6031387 1.8146583 -0.30359918
-0.017572656 2.139971 0.7020675
-0.18713775 2.236288 0.3655097
-0.02053187 0.98190403 -0.03988436
-0.07447561 2.4762516 -0.10496147
-0.07042022 1.9721801 -0.0318152
-0.010449128 1.1554995 -0.1641154
0.039681688 -0.083162256 0.059103534
-0.5408368 1.480334 0.72260624
0.2087776 1.4395592 0.706632
0.73274446 -0.41802368 0.22772917
0.4323585 -0.25653708 0.081742786
-0.89398456 1.3477299 -0.018801607
-0.52571833 1.0715873 0.009021491
0.16410637 1.0434024 -0.04918237
0.070788264 1.7295234 0.104612365
-0.40920407 -0.085701264 0.8875843
0.26971212 1.8324819 -0.14328396
-0.3393036 2.33814 0.36843175
-0.50391245 1.4418237 -0.7447313
-0.24940018 1.1310701 -0.23379532
-0.92324066 -0.25659257 0.87203324
-0.32653195 1.272505 0.6126374
0.367557 -0.41952494 0.43654943
-0.24071206 1.7512352 0.27622786
0.04519159 -0.41637105 -0.016627802
0.33497968 0.87168443 0.5047883
-0.46425068 1.4606236 0.13673317
0.19723207 -0.41443968 -0.45181414
-0.47732532 1.1735287 0.33561677
0.18428881 2.085577 0.06688084
-0.010474246 1.2529926 0.49703124
0.84481466 1.2774945 -0.14303005
0.19511639 -0.08301161 -0.07841419
0.6350093 0.9278844 -0.037117384
0.19268607 1.6548717 -0.6708132
0.35976118 1.0631216 -0.659649
0.08983871 1.5915256 0.5708412
-0.13923892 -0.41514623 0.06765719
-0.1829929 -0.0850164 -0.19430135
-0.5471419 1.2868814 0.6677438
-0.54136574 2.032373 -0.56395495
0.90131116 -0.40752214 0.120996274
0.823372 1.8983785 0.23792353
0.56902456 -0.4131012 0.7436668
0.047117535 2.1099658 -0.724558
-0.24748933 -0.2529062 -0.58691514
0.5265739 1.8536549 0.39594877
0.8979291 -0.4083519 0.53463054
0.27908537 2.2387242 0.16902511
0.35628057 -0.08810016 -0.90799105
-0.08019934 1.9716382 -0.8050207
0.14396314 -0.07842057 0.87740564
0.017370999 2.303146 -0.021501996
-0.19299018 2.4149394 0.27129287
0.28776872 2.2572606 0.5213071
0.6170261 2.1480174 0.3411776
-0.5747129 1.6814668 -0.43405136
-0.2529043 -0.08876399 -0.7475541
0.72003424 -0.08584457 0.8785404
-0.72344685 -0.08397105 -0.21776351
-0.4453544 -0.24853994 -0.6378721
-0.45109406 2.3497276 -0.1317668
0.6185633 1.7011062 -0.6500233
-0.63593304 1.4965792 0.26811397
-0.34185618 1.573246 -0.65064186
0.34193632 1.259651 -0.5634196
-0.12546 1.281312 0.68327546
-0.3519289 1.223521 -0.5547998
0.36484754 0.7572464 -0.16645736
0.8596002 1.3439351 0.19015476
-0.35254186 -0.42065898 0.35444808
-0.34384426 2.0988548 -0.65800023
0.20632517 1.5056453 0.8906982
0.7392978 -0.08509871 0.4294273
0.38333327 2.1752458 0.018311182
-0.9248079 -0.25394708 -0.42951623
0.44119674 2.1203008 0.5683683
-0.19402038 0.88778675 0.5665618
-0.88205105 -0.41440436 0.5263048
0.50190556 1.5737795 -0.5258899
0.487289 1.3353932 0.50111246
-0.36964458 0.8615223 0.44193834
0.4835182 1.299434 0.7228346
-0.15172163 -0.25689533 -0.7623584
-0.70950913 -0.26188505 -0.92688954
0.39870608 1.8411412 0.1919161
-0.08440986 -0.24456173 0.6434946
-0.16028696 -0.09167055 -0.91605246
-0.86626506 1.5574036 0.28920126
0.07147656 1.0185584 -0.24608503
0.57793736 -0.08900758 0.748613
-0.042749494 1.4469855 -0.51792455
0.18590625 2.4279175 0.24149317
0.24032696 -0.41917676 0.6148674
-0.49408758 1.0863912 -0.5870545
-0.3169006 1.1445 0.06929536
-0.5797184 2.2279673 -0.23042908
0.035980977 -0.24774127 0.47470635
-0.6453148 1.5825642 0.62067306
-0.7947691 1.3846297 0.38184845
0.75165075 -0.2542078 -0.08986637
-0.25822663 1.8295649 -0.43823433
-0.051928535 1.7496728 0.2534564
0.7164757 -0.08644478 -0.3918171
-0.68185747 1.8548918 -0.5157237
-0.8211552 1.1879311 0.082469314
0.56915224 -0.08494489 0.32271177
0.25111765 2.0713644 -0.46018672
-0.112670526 2.05586 -0.21198711
-0.26548618 2.256374 0.5422833
0.40563643 2.0786593 -0.31423524
-0.5217161 1.6254845 0.40596312
0.27486673 0.8989183 0.04054533
-0.23157711 0.8895459 0.21600923
-0.4229501 1.4425769 0.54433477
-0.093100734 1.2970095 -0.26858622
0.32058874 -0.23839469 -0.7800118
-0.15813816 1.2447537 0.35621986
0.6277354 -0.27620074 0.07752533
0.6517091 -0.2507602 0.24995402
-0.40055305 2.133285 -0.29031938
-0.15540811 2.1170268 -0.71087015
0.10436991 -0.4151596 -0.6223641
-0.19322394 1.4863249 -0.88914984
0.6470007 -0.24483666 -0.9182956
-0.6573136 1.0799353 0.37355584
-0.59825647 -0.26326364 0.27173322
0.5753801 -0.41538146 0.5268692
-0.15134673 1.6521676 0.09526856
0.2996494 1.8167715 -0.63374317
0.0055629783 1.4196761 0.65419686
-0.6961738 1.670089 0.2970297
-0.18069711 1.1394839 0.53820777
0.8974115 -0.09222269 0.73398304
-0.57143927 2.15498 -0.3979116
-0.5853298 -0.09024176 0.3559196
0.35561928 0.80503225 -0.34155363
0.31599903 1.7927272 0.6650268
0.2714269 1.8895621 0.8169161
0.6855848 1.5694758 0.32260978
-0.18533114 1.2468358 -0.07263814
-0.14246282 1.2568722 0.1397009
-0.6242107 -0.24947494 0.4840737
0.1315552 1.309533 -0.21430576
0.920094 -0.25067663 0.64543283
0.1398233 1.7243721 -0.8833436
0.41335166 -0.2521738 -0.28831208
-0.5802617 0.8806033 0.10299269
-0.48262304 -0.2629308 0.59493804
-0.356026 1.1137228 0.4722833
0.92669153 -0.2489771 0.43924293
0.5974747 -0.2522143 0.6503066
-0.55742294 1.8152958 0.018135995
0.52731705 1.5552349 0.23460048
0.84740716 1.4915502 0.3305554
0.1254138 0.94109607 0.33961526
-0.40808257 1.2128457 -0.33474427
-0.7777302 -0.25619707 0.5370712
0.22879817 2.4032423 -0.29100865
-0.012893768 2.2306085 0.32679486
0.5437645 -0.08738734 -0.90989137
0.2001643 0.9752945 0.64823914
0.09718972 -0.25944936 0.92736703
0.65719765 -0.08473668 -0.73955274
-0.005973002 1.7584068 -0.29516193
-0.10595372 0.6651259 0.024310756
0.46789795 1.7715864 -0.7547815
0.15186426 -0.08509598 -0.28455406
-0.78635794 -0.25518537 0.7304312
-0.7410095 -0.08398669 0.43729192
0.50655925 1.6057503 0.73944956
0.19109401 1.7434113 -0.30277222
0.09526008 1.8342369 0.31496125
-0.3927986 1.1402271 0.7047429
0.5867992 -0.24662337 -0.21838187
-0.21098515 1.6242437 0.8816703
0.78127575 1.6505154 0.46479744
-0.59742916 1.3098378 0.30447224
-0.16809742 2.332862 -0.03578074
-0.6195297 -0.40434098 0.9051396
0.22776136 -0.24557489 -0.37496915
-0.5961987 1.034509 -0.41562766
-0.42920154 2.3173046 -0.3142451
0.78313726 -0.24945693 0.34149253
0.9167278 -0.24387251 -0.5929558
-0.15380079 -0.08904668 0.0039235223
0.031103777 1.7776723 0.5313537
0.33622634 -0.085867085 -0.35943776
0.5969112 1.4502528 0.681555
0.5475286 2.0280027 0.05128037
-0.70549935 1.7055472 0.06378904
-0.41021013 1.758996 -0.7893814
0.89902794 -0.40803576 -0.084293574
0.6804047 1.1384676 0.44937503
-0.17403981 1.1091981 -0.54936147
-0.37969998 0.984108 0.30945253
-0.3492757 1.0906231 -0.44317967
0.055789288 -0.25744092 -0.3559292
0.6991106 1.307354 -0.5349927
-0.51004773 1.5208827 -0.5347756
-0.05276925 1.7072153 0.7075558
-0.6774439 1.8408594 0.18037955
0.27788568 -0.08359006 -0.69675267
-0.89494324 -0.40747046 -0.53542566
0.0060760286 1.1909883 -0.64582103
-0.28058589 1.4663265 0.6668489
-0.05360525 1.2685657 -0.47417653
0.89288616 -0.40797338 0.73457783
0.2253125 -0.08539142 0.1248927
-0.2331486 1.2750072 -0.41170755
0.059277505 2.1134026 -0.08711301
-0.4480077 -0.25210953 -0.28741872
0.90161467 -0.08999408 0.53295267
0.8884251 -0.40122455 0.9068265
-0.059919275 1.7820709 -0.050235223
-0.5087751 1.2876685 0.48367605
0.5720081 2.1830935 -0.3499422
0.3068521 -0.40348157 -0.91671026
-0.29987848 2.0699286 -0.12215324
-0.55983067 0.9081215 0.2959066
-0.3848176 1.4219012 -0.39155865
-0.14485705 -0.41005027 -0.90858495
-0.17000374 2.0867991 0.27687597
0.41390967 1.2932872 0.26457387
0.29182503 2.0915337 0.6906885
-0.36701697 -0.4158606 0.5484755
0.5368967 1.1044009 -0.30952004
0.20610869 -0.41387773 -0.7603097
-0.13234442 2.2681847 0.1534054
-0.5330093 -0.08594867 -0.14551862
0.5400796 -0.10299696 0.91726243
0.73049104 1.0251243 0.107726514
0.5377592 -0.07424387 -0.1246862
-0.21158993 -0.2582913 0.7669749
-0.046163075 1.6100694 -0.91841346
0.11990239 -0.41951495 0.7533841
0.2665719 -0.24636939 0.013779737
-0.32978463 -0.4188082 0.15374443
0.22146642 0.8948282 -0.19857632
-0.00527984 1.4039888 -0.8893391
0.24727419 -0.25736952 -0.61332107
-0.107070774 1.9956129 0.79418325
-0.04967177 2.2711437 0.5722373
-0.23031591 1.7285945 -0.8714436
-0.45241192 -0.2587157 0.4082896
-0.15179914 2.4658108 0.09431915
-0.12852776 -0.25922936 0.48114434
-0.35975656 1.389929 -0.62504554
0.07675564 1.2068049 0.17336474
0.23046654 -0.2632374 0.77693576
0.93408877 -0.24862024 -0.7825166
0.4471012 -0.25497526 -0.6220423
-0.30136752 -0.2544822 0.03078609
0.2928117 1.8496978 -0.44073555
0.723886 -0.3997838 -0.9193729
-0.718807 2.0761535 -0.23400752
0.08759734 2.2726598 0.15196854
-0.3760891 0.95883834 0.107575856
0.17571256 2.2121825 -0.61901176
-0.9261873 -0.26095134 0.43128172
0.4565422 -0.24883732 0.53014493
0.40752953 -0.2552239 0.3591637
-0.9130273 -0.106357366 0.17292252
-0.5094421 1.2580359 -0.6929151
0.40344933 0.7752551 0.16587931
0.3726346 0.9960259 -0.2940399
-0.30804026 -0.0870952 0.12349258
0.019922704 -0.08451703 -0.477704
0.6828917 1.3563337 -0.009453156
-0.40813538 -0.24175343 0.7604307
-0.26637226 0.89541304 -0.19237626
-0.065904886 -0.25169584 0.29488665
-0.22828913 2.0551786 0.0872381
-0.43243915 1.479625 -0.09980242
0.7585648 1.1494483 -0.28694177
0.904109 -0.08858747 -0.48866498
-0.30810893 1.7699811 0.49251127
0.1074624 1.2692504 0.6814882
-0.30753624 1.9673612 0.7633985
0.5186597 0.9997502 0.4692536
0.22725932 1.127504 -0.2212888
-0.65586734 1.4168129 -0.61641186
-0.19966772 0.8169979 -0.4903156
0.38834035 -0.41997403 0.017495671
0.08728388 -0.40555352 -0.9113537
-0.15430623 1.8483553 -0.2210995
-0.7368457 1.3859544 -0.04055738
0.38735837 1.0249281 0.60785675
0.012181882 -0.4112848 0.9084325
-0.026100606 1.6901894 0.9030687
0.4824382 2.3078551 0.23570083
0.40064037 -0.08538224 0.21823362
-0.41996258 1.7862377 0.31992203
0.036570217 1.0067234 -0.71593946
-0.4702741 1.2511683 0.13305436
-0.19871831 1.4566774 0.19036047
-0.0965929 0.8190061 -0.09947272
0.26990387 -0.0898468 0.73369193
-0.91123915 1.5396261 0.066936865
0.4780898 1.7865734 0.7501309
-0.74733365 1.5367342 0.12997487
-0.0011502018 2.4322858 0.27112132
-0.73060894 -0.086608335 -0.90172946
0.41076446 -0.41957837 -0.17966926
-0.11359967 0.9751508 -0.22007081
0.13000673 -0.25525182 0.61299586
0.8956594 -0.088766664 -0.0907858
0.89006877 -0.08397967 -0.70693475
0.56375515 -0.41504723 -0.2927161
-0.1529735 1.8398998 0.6447794
-0.49432638 1.5609663 -0.30152082
0.33657148 1.4887941 0.22765559
-0.29546046 -0.24744272 0.5823029
-0.40222275 1.0106401 -0.28454447
-0.42625785 0.9171885 -0.47731858
0.37223908 1.2427905 -0.7650547
-0.65392685 1.2089711 -0.53813845
0.5585935 1.2024672 0.35907516
-0.64050984 2.211782 -0.06597537
-0.08020398 1.9054453 0.43427062
-0.60492617 -0.09594598 0.1558178
-0.7325094 -0.086212404 0.80126846
0.4982663 -0.2502058 0.22925022
-0.039930537 0.6680862 -0.18018153
0.17572585 0.97060657 -0.3982957
0.18526769 1.3192253 -0.86058336
-0.028066166 2.2591147 -0.59570014
0.73909605 1.834191 0.4721657
0.31189567 1.1095088 -0.4296172
-0.36139125 -0.08706696 -0.25352496
-0.8280147 1.888218 0.24661773
0.16210455 1.4028745 0.52295196
-0.125608 0.9312186 -0.626596
-0.42564535 0.7849083 -0.1668995
-0.84136856 1.515423 -0.32633752
-0.57579637 1.2225282 -0.3746019
-0.40101734 2.1025915 0.61902595
-0.20342624 1.0537102 -0.053041384
-0.10665435 2.3739595 0.43567353
-0.92376155 -0.25588456 -0.21900149
0.5676404 -0.4080689 -0.075305775
-0.8716002 1.705636 -0.23493734
0.8579227 -0.250768 -0.9294186
0.4643925 1.76958 -0.5286403
-0.2269766 0.96498084 -0.39575118
-0.39962098 1.2007622 -0.10268972
-0.32919073 1.3246905 0.22774123
-0.12314754 1.6284038 -0.14577767
0.042804576 0.83838755 -0.23083615
0.5790508 1.6860132 0.42771053
0.7553849 -0.2514214 0.54420197
0.895192 -0.40804678 -0.6858765
-0.06106093 1.5880473 -0.37601474
-0.3995449 0.9827653 -0.090788215
0.3628554 2.132386 -0.62027216
0.40874243 -0.25574005 -0.10583252
0.41026768 2.320178 -0.31594533
-0.23103471 0.77311397 0.36982638
-0.23300314 -0.08586258 0.516091
0.22052038 -0.41259068 -0.093992345
0.09721618 0.66173494 -0.039692096
0.6479398 1.2849817 0.18444562
0.3571307 2.4016597 -0.10721725
-0.9016881 1.5182197 -0.13837934
-0.025222024 -0.098486885 0.9158293
0.8941754 1.4112457 -0.0076989
-0.021478992 1.1574821 0.028774712
-0.24838237 -0.08700575 0.71616554
0.36640447 0.96791303 -0.10595844
-0.3144142 2.2309117 0.04191973
0.34328496 1.1658342 -0.058812104
0.19713202 -0.2462043 -0.9267508
0.08141649 1.586973 -0.22632842
-0.22533722 2.42482 -0.23812395
0.572669 -0.08674833 -0.53911924
-0.33320433 1.9563477 0.21263413
0.43795943 2.2006938 -0.471882
0.5822214 1.6950352 -0.38863677
0.90157056 -0.088013165 0.11203815
0.59577924 1.3953743 0.3393165
0.58039 1.1011522 0.1829175
-0.3560667 0.9863689 0.60051715
0.22139797 2.193032 -0.3351115
-0.42647803 -0.40840113 0.8965822
0.12254393 1.942976 0.45415217
-0.7325039 -0.2519083 0.919849
0.35550034 1.4399667 -0.82936275
0.5711681 -0.24729827 -0.41990036
0.6893728 1.6008672 -0.23932916
0.5644852 2.05851 -0.5208052
0.35182643 2.0231996 0.17640819
-0.847327 1.3436227 -0.23437044
-0.8160505 1.1748235 -0.12575558
0.39616215 -0.41153252 -0.764873
-0.66839683 1.2875168 -0.21760498
0.7114455 1.9887141 0.36838776
0.7282937 -0.41753748 -0.18553364
0.7320829 2.0686688 0.17923531
0.73843706 -0.08544965 0.6498424
-0.6164367 -0.2550897 -0.61621094
0.018609196 1.5723417 -0.015269799
-0.2548096 -0.41537854 -0.2596187
-0.4121426 0.7912742 0.23695126
0.20724043 -0.08723366 -0.49679983
0.14896509 1.114773 0.78064597
0.09810026 2.3453948 -0.45274422
0.43678635 1.5675035 -0.2812274
-0.646381 -0.08367811 -0.7412417
0.16590098 2.2246757 0.33960468
-0.58474016 0.88730955 -0.09095736
0.31661913 -0.2514701 0.62013364
0.008852552 2.4334664 -0.2856856
-0.33163378 1.2903776 0.41861045
-0.32879806 2.186183 0.23669611
0.9016237 -0.40817082 0.32698965
0.21579689 1.6817226 0.2552597
0.029314384 -0.2446248 0.7737212
-0.7896186 1.8785394 -0.3204955
-0.53491515 1.6723809 -0.14762071
-0.5088854 1.7609974 0.5299005
0.22231251 1.3221457 0.21297595
0.6284435 1.2922589 -0.36202744
0.5710803 -0.2065418 -0.04596284
-0.71205384 1.0211345 0.1900293
-0.622311 1.4407048 -0.3789423
-0.31852356 1.3537872 0.025834605
-0.28050488 2.3301067 -0.39874184
-0.84309864 1.9058745 -0.14090475
0.16275546 1.4540904 -0.08310939
0.67482704 2.1506891 -0.20581757
-0.9319018 -0.2577752 0.63838947
0.48762053 -0.41451994 0.90645456
0.70714176 1.7282045 -0.061017945
0.16859451 2.0508788 0.26117688
-0.33284688 -0.0865241 -0.071375996
0.03691071 1.8719807 0.85058916
-0.76863027 2.0673683 -0.029807005
0.05826854 1.6426294 0.38546538
-0.2318997 1.4519627 -0.51261175
0.06759432 -0.08746111 0.2533787
0.10992451 1.0682203 0.4681622
-0.12624791 -0.41643268 -0.61194855
0.27019972 2.062912 0.47827882
0.9003732 -0.40702152 -0.4847929
0.20087801 1.9458452 0.6178627
-0.44545108 1.6500425 0.012731647
0.39184117 1.89588 0.5224558
-0.20221895 1.0035515 0.38639882
0.08711462 1.0176508 0.14552581
0.4422329 1.9051013 -0.1748602
0.73645926 -0.4202624 0.022179259
0.0066424794 1.1140093 0.62804544
0.08081892 2.1250925 0.49577233
-0.26135623 1.9216753 0.38257688
-0.047606174 1.7998364 -0.8763601
-0.3377989 1.3532043 -0.81365585
0.14515339 2.2096052 0.63579214
0.5299065 0.92687476 -0.38637587
0.896903 -0.40838057 -0.28469026
-0.57567227 -0.41573405 -0.31691915
-0.05082249 0.9018855 0.2931422
0.032321 -0.092021964 -0.9164891
0.56780964 1.6046042 0.033576917
0.110119194 2.357436 0.4526533
-0.7505555 1.1606479 -0.33416688
-0.1878752 -0.41287068 0.62042916
0.5690117 1.9485016 0.22371145
0.2264616 1.7583959 0.48446882
-0.4298647 0.772089 0.025235487
0.52246106 1.3745639 -0.5240315
0.011985153 1.5549192 0.19520468
0.7641803 -0.24233817 -0.7422476
-0.13186184 2.157483 -0.040712513
-0.3239096 -0.41574833 0.7399417
-0.085181326 -0.41525063 0.76125836
-0.61520916 -0.253889 0.7254819
-0.15977734 1.4599231 -0.70401293
-0.25167564 -0.25721264 -0.9230873
0.7325673 -0.41467452 -0.58324367
-0.60432005 -0.2511466 -0.42318535
0.7716191 1.1557928 0.2560109
-0.13126047 -0.08663255 -0.5906745
-0.014775629 1.9549882 -0.60101795
0.658041 1.1170144 -0.45474994
-0.3640203 1.7817558 0.10597155
-0.18801822 1.4711514 -0.33038005
-0.55071926 -0.091570675 -0.9144145
0.25943375 1.5709814 0.4515772
-0.8652755 1.3723526 0.18775323
-0.27878255 -0.2473647 -0.37510067
0.53026164 -0.41109812 -0.8996927
0.37653017 -0.25459266 -0.46806172
-0.7006613 -0.41859335 -0.7982639
-0.319744 -0.2535506 0.92591345
0.38320893 -0.41785175 0.22444767
-0.011454882 1.3302609 -0.06467013
0.014340712 1.0465345 -0.5090238
0.81145 1.9866834 0.02836261
0.70373935 -0.41730362 0.87986726
0.47873294 0.80250263 -0.009941582
-0.5599191 -0.08732444 -0.3342148
0.6271789 1.2314063 -0.17209393
0.53456736 2.285326 -0.1680398
-0.10835972 1.7942009 -0.6858272
0.6383208 0.9930319 0.3121138
0.06946058 2.1076407 -0.49483413
0.8960799 -0.40677708 -0.88087994
0.5388848 1.1919641 -0.62887484
-0.7854564 1.208462 0.2846074
0.43444467 1.5122035 0.39342237
0.5462282 -0.25501412 -0.7777343
-0.35639596 -0.089129835 -0.91189265
-0.14905679 1.0883576 -0.7564493
-0.04526052 0.9901017 0.48254997
-0.20994362 -0.24808374 0.17967984
-0.2534368 1.9047601 -0.07060154
-0.039488204 1.1383886 0.80727494
0.1520706 1.4778857 0.30797994
0.29335207 1.0035317 0.42399722
-0.9243684 -0.25007302 0.0064653363
-0.042447947 0.9128271 -0.39081788
0.12084843 2.0305886 0.77675736
-0.8296014 1.894718 0.050069712
0.36697906 1.6270652 -0.6502508
-0.1114086 1.4441136 0.04108721
-0.6479645 1.4749392 -0.18462947
0.5948137 2.0182495 0.5233602
-0.05438952 0.79231167 0.47062194
-0.51902294 -0.41980958 0.70789814
0.7090229 1.4661617 0.15390223
-0.28517717 2.2494617 -0.17619461
-0.6471201 1.196565 -0.048847884
-0.1806319 1.8393598 0.089268215
0.4819175 1.3737806 -0.2762792
0.9037012 -0.08897153 0.32235244
0.25149962 -0.25202286 0.4453095
0.2391966 1.5024548 -0.30772626
-0.5471872 1.1194246 0.56986547
0.13530858 2.4587448 -0.122589335
-0.0032631145 0.9367194 0.6679396
0.029680451 0.84424126 -0.5534581
0.50244606 1.8160932 0.020383522
0.32487273 1.3011382 0.6149258
0.6293329 -0.2525973 -0.61338615
