0.620345 1.3189738 0.47921687
0.51782477 0.4071746 0.05616413
0.47864202 1.4514731 0.22278175
0.74356604 -0.2526353 0.75723934
0.434894 0.94257724 0.5147741
-0.5533005 0.8883027 0.38266718
0.113555044 0.098657876 -0.3680769
0.6905541 1.1388221 0.5223415
0.28221232 1.6195519 -0.6420146
0.76530874 -0.24811372 0.9338798
0.45661896 -0.08468013 -0.7251938
0.00064828293 -0.40570444 -0.4689287
0.045709364 1.3071766 0.006832761
-0.71180356 0.92311966 -0.16893879
0.32294333 1.3106434 0.21630761
0.081947856 -0.1862735 -0.51425093
0.37103024 0.35732633 0.21869351
-0.3295002 -0.07667141 -0.57988906
0.15749255 0.51815754 -0.4093436
-0.9043094 -0.09410999 0.72412646
0.48786712 1.6559176 0.25735867
-0.5879742 1.3526635 -0.1089863
-0.4643365 -0.2522943 -0.924835
0.4215296 -0.08284207 0.64043385
0.2816258 0.25562462 -0.6402323
0.8883595 1.2332432 -0.21673569
0.9108908 1.0621884 -0.29933771
-0.26965895 0.93191385 -0.04001591
-0.20409983 1.4622701 -0.50029427
0.254093 0.092691675 -0.22202328
-0.40967202 1.1871133 -0.25565824
-0.7246805 0.6331165 -0.4781022
0.024277693 -0.112060815 -0.1556642
-0.72157395 1.4025245 0.03624113
-0.724513 -0.08494127 -0.42914027
0.35183054 0.97281873 -0.5455588
-0.5840851 -0.41383672 -0.10910939
-0.32249635 1.246912 0.5154083
0.11795701 1.2453486 -0.5320431
-0.24309376 0.6918082 -0.25686744
-0.04627291 1.1033335 -0.59248
-0.2080503 1.1019902 0.5717232
-0.74340636 -0.07908091 0.20853408
0.26560614 0.41150326 -0.80099523
-0.060809437 -0.0888535 -0.76541114
0.76254624 -0.2509434 -0.49250102
-0.51740575 1.1587532 0.6127495
0.6202688 1.2237203 -0.7221682
-0.0958944 -0.21413939 -0.45833078
-0.13081357 0.9085469 -0.8239977
-0.09515508 -0.053024024 0.17333968
-0.7555214 0.9915268 -0.5247054
0.4170798 0.89948106 -0.11333269
0.15740678 1.2810653 -0.1504085
0.2459338 0.7931192 -0.6051795
0.9231363 -0.2479997 0.014873675
0.081527114 0.472735 -0.87211716
0.8622585 0.6780201 -0.39696598
0.70570004 1.5466152 -0.19388574
-0.20166211 0.10361564 -0.084865734
-0.40613002 1.3343849 0.35755563
-0.10783102 -0.2196509 -0.2721938
0.8915106 1.1452962 0.18468812
-0.7252214 -0.42052984 0.77639914
0.3725782 1.1592503 0.73324555
-0.49718577 -0.41870606 -0.73117566
-0.71130186 0.80802345 -0.56752074
0.2010284 0.2461591 0.17198156
0.3383955 0.7841509 0.7640913
-0.56961775 -0.08708835 0.51444185
0.7395961 -0.08684378 -0.5820763
0.8612553 1.0193818 -0.46694553
-0.11134637 1.3992864 -0.65942997
0.34093148 0.12821633 -0.023197534
-0.01995765 -0.41419178 -0.7618929
0.7261549 -0.4187119 0.6500368
-0.10608098 0.5440196 -0.8928465
-0.44269407 0.60149604 -0.5461896
0.03796863 0.87011486 0.35978243
0.57434404 -0.066553414 0.12181905
0.19744492 -0.4108767 0.28569788
-0.35062099 -0.4148794 -0.59266096
-0.34130016 1.2210134 0.6975504
0.13270634 1.2106106 -0.9531219
-0.8903128 -0.098611236 -0.91404295
-0.7400047 0.9583901 0.38085055
0.07933895 -0.43141153 -0.25513443
0.42773682 1.0441236 0.030012436
0.53458285 0.2998783 0.32856846
-0.072823934 -0.07609205 0.56364876
0.1163764 1.610455 -0.36971766
0.1473006 1.0720387 -0.20480993
-0.76234573 -0.24483705 0.30952337
-0.49431223 1.6590596 0.0811798
0.44149917 1.0786475 -0.18652532
-0.45404023 0.39464378 0.45598546
-0.8571888 -0.07881366 0.014674405
-0.4826964 0.69770455 -0.09911489
0.77446437 0.9661141 -0.6136061
-0.18794572 1.2322738 -0.7233745
-0.1919511 1.5734924 0.51882
-0.3391215 1.7549689 -0.026103953
0.5829766 0.68587834 -0.7771294
0.35185993 1.5679746 0.165798
0.71073043 0.8160612 -0.6930884
-0.39917338 -0.08194302 0.40294677
-0.6220696 -0.09079343 0.91329825
0.40854228 -0.07783178 0.43371695
0.585829 -0.26830003 0.9004755
0.92217106 -0.24689896 -0.38857096
-0.8953939 -0.40596232 0.10008422
0.7814139 0.9263476 -0.1350558
0.9198372 -0.24771352 -0.18590349
0.5713785 0.37818766 -0.5560789
-0.5427768 -0.42224187 0.49012625
-0.09472373 0.13132891 -0.30486453
-0.7194783 -0.41638625 0.40098885
-0.069350205 0.44080156 0.13391471
-0.30949 0.9157168 -0.53084046
-0.86607707 1.0529027 -0.13061315
0.00028674142 -0.41370967 0.5733223
0.17874444 0.2583765 -0.04116083
-0.68159854 -0.08198632 -0.03995496
-0.71385384 -0.41768593 -0.62549734
0.06336017 0.6537261 -0.7654758
-0.89970833 -0.40436733 0.71598303
-0.9036067 -0.092550665 -0.53105676
-0.6000002 -0.24452156 -0.20973128
-0.31919393 0.81874156 -0.9147524
0.42640597 -0.25453162 -0.9231019
-0.5563084 1.4589821 0.3621612
-0.0104543995 -0.41042614 0.3692947
-0.18651319 0.6851397 0.7610197
0.36484075 0.9364159 -0.9305438
0.41673744 1.2975245 -0.6394019
-0.4941054 1.3641639 -0.29925352
-0.5253837 -0.24596068 0.9148091
-0.435014 -0.22794655 0.092032515
0.6546163 0.8444938 -0.46191996
0.033244 1.443541 0.17794189
0.011490608 0.25173843 0.11084166
0.15680555 0.15052694 0.36352706
-0.25567958 -0.42032376 -0.75248384
0.37713313 -0.25594288 0.92473924
-0.21404232 1.4041859 0.43699914
0.36068952 -0.072243005 -0.54910046
-0.14409414 0.928584 -0.6245862
0.8821868 0.6194252 0.01606404
-0.4560535 1.4155922 0.1919317
0.39549494 -0.07579754 0.86256707
-0.029408155 0.80320716 0.81218696
0.29670885 1.2946376 -0.4280834
0.32668155 1.7677059 0.16213949
-0.35402915 -0.25982624 -0.7687416
0.74143404 -0.08287208 0.22468066
0.3140425 0.9761758 -0.25986105
0.44215196 0.9546498 0.72810614
-0.4566009 1.6096985 0.27664098
0.5466911 -0.41873556 0.1302841
-0.6730719 1.1253955 0.43149176
-0.10251738 1.1459558 0.3370614
-0.033897534 -0.2472188 -0.6300596
-0.535568 -0.081548795 0.72967565
0.8029884 1.3788426 -0.32543698
0.22425227 0.6243236 -0.07447322
0.9475579 1.0210268 -0.1244563
0.58333045 0.44398555 -0.14749223
0.6022005 1.3657329 -0.3997041
-0.08310775 1.6009326 -0.3753894
0.43484062 0.25114942 -0.5238793
-0.09733473 -0.41851974 -0.14400509
-0.7398193 -0.4159475 -0.21575192
-0.2684433 -0.4089703 -0.07395251
-0.22723982 0.5180217 0.23653917
0.9031975 -0.08870033 -0.89749444
-0.3689078 -0.4112233 -0.90222406
0.11886559 -0.23922947 0.31783268
-0.8960574 -0.09247328 -0.33614284
0.00862231 0.8061929 -0.27440935
-0.12255808 0.49762422 0.69395995
-0.623921 0.7216084 0.07524878
0.03734012 1.8453507 -0.11206801
-0.08085779 1.2811779 -0.5153152
0.92624867 -0.24759178 0.23021732
0.1513648 -0.40890533 0.45551217
-0.03123816 -0.2566647 -0.91595644
-0.9153103 -0.25981098 -0.8726133
-0.17675301 -0.40491956 0.25390267
-0.6422382 0.64013696 0.4389355
0.057386942 0.860307 -0.83653295
-0.23006248 1.1810914 -0.91931164
0.7407748 0.78116727 -0.2773202
-0.30103064 0.13121057 -0.33416232
0.6621991 1.3112257 -0.2195624
0.43957525 -0.24223827 0.7559376
0.021555182 1.3920159 0.49319574
-0.40143543 1.4871485 -0.65467656
-0.1064367 -0.2500713 -0.08249833
0.78856564 0.9335171 0.44141594
-0.20295417 0.11967865 0.16943052
-0.19233492 -0.41793728 0.4422847
0.24353775 -0.08058849 0.53643453
-0.25339597 1.054776 -0.2028594
-0.27905506 1.2612568 -0.4072131
-0.47789726 1.2708614 -0.4639932
-0.35885358 1.0251156 0.7249863
0.40071586 0.6201949 0.68515015
-0.54737675 -0.08387005 -0.55186975
0.08152416 -0.065579146 -0.66691256
0.23992568 0.95647204 -0.015423634
-0.7774693 1.1575332 0.2793568
0.4128028 0.7426299 -0.70635986
-0.6401378 0.8132523 0.5157753
-0.42208272 0.9854314 -0.6783949
-0.06461535 1.0090365 0.45946443
0.054104634 -0.28636104 -0.18475774
-0.7626973 -0.24741921 -0.1073952
-0.007935129 1.5175666 -0.52185655
-0.27644938 0.8951026 -0.31574625
0.31017253 1.0765343 0.5696051
-0.2580822 -0.22923973 0.36602694
-0.4407419 0.44767505 0.1787404
-0.50332177 1.049262 0.09038848
0.30906677 0.10159609 0.1801271
-0.09759055 1.3040552 0.12362212
-0.8979874 -0.4049447 -0.10762407
-0.57801855 -0.40495282 -0.91665095
0.5835866 0.62246335 0.5650161
0.113008484 1.0927163 -0.81578946
0.2633608 1.3364645 -0.8839679
0.45102203 1.2663827 -0.8265609
0.0875363 1.2506754 -0.32393605
0.37859133 -0.057064366 -0.1803262
-0.5328872 -0.41521496 0.29200673
0.0887943 -0.042027045 0.43616837
0.109011374 0.08517721 0.18070143
0.9254672 0.86087716 -0.28963232
0.7346913 0.36206073 -0.25639576
0.7350589 -0.08575463 -0.90102434
-0.41346154 -0.24719083 -0.47690496
0.21787041 1.8203578 -0.13854721
0.10172692 -0.2371384 -0.032245602
-0.21485218 -0.40371394 -0.45482045
0.4682916 0.5646113 -0.27771217
0.4221526 1.1233714 0.23844422
0.33302385 -0.41602647 -0.5790856
-0.25537163 0.28697792 -0.6474916
-0.49203256 1.674617 -0.12265527
0.4190368 -0.41283083 0.6158005
0.52788615 1.6936224 -0.16435009
-0.090479046 -0.051512025 0.3802404
0.4235921 0.7818179 -0.5086469
-0.30846328 1.7706807 -0.22662476
0.2303196 -0.3965007 0.9147024
-0.20153332 -0.0188623 -0.42282826
-0.035624385 0.10831003 0.29607034
0.18144885 0.62186 -0.57011795
0.42898926 1.1072881 -0.40915683
-0.61737716 1.2437532 -0.2743394
-0.26695302 -0.21813506 -0.18285495
0.85033727 1.2147582 -0.42418665
0.54064065 -0.4113462 -0.49106103
-0.3852525 0.83833104 0.26982543
0.15832064 0.93318295 -0.5241035
-0.4073039 -0.24421732 0.26001126
-0.41354424 -0.057296406 0.20296901
-0.17180654 1.0188252 -0.4253617
0.8935987 -0.095635995 0.9093161
-0.028125618 0.452939 -0.38772666
0.9274678 -0.25103918 0.8620789
0.10723812 1.4048941 -0.4249749
0.2054255 -0.4086995 0.098334625
-0.06715636 0.9747722 0.6632363
0.37735245 1.7797532 -0.07114525
0.2876196 0.13157666 -0.45305145
0.6957048 1.1838361 -0.37572554
-0.439184 0.6881758 -0.28938675
0.45638987 1.4331551 0.55305195
0.72791004 -0.41666943 0.42963362
-0.54062295 1.0886528 -0.77830875
0.5374682 -0.06386331 -0.31162414
-0.5035218 0.8775768 -0.8181747
0.7220427 -0.41678572 -0.3877607
-0.8978195 -0.093449704 -0.14820926
0.82511425 0.47993845 -0.11594171
-0.8692244 -0.092673704 0.90926766
-0.842698 1.0745873 0.074123725
-0.1496431 0.8341334 -0.16127291
0.32773334 0.5154394 0.0837992
-0.17559806 0.2694663 0.024098799
0.34513843 1.5874605 -0.33380485
0.2830934 -0.2225384 0.2176247
0.156868 0.78378844 0.040335122
-0.12190542 0.8102487 0.46604377
-0.114631616 -0.26030266 0.9192892
0.5544398 0.8734684 -0.8348005
0.7493824 1.1596804 -0.5942091
-0.09743948 1.517065 0.33717054
0.2364782 1.2718041 0.03473777
-0.15409438 1.284728 0.72869635
0.2997915 1.1345699 -0.07659075
-0.1202602 0.5641047 -0.69699657
-0.4928221 0.22242238 -0.293994
-0.7346172 -0.4146998 0.00027009952
0.16311455 1.2345862 0.58165693
0.71959877 -0.083538815 -0.19065735
0.73227954 -0.0819426 0.01376368
0.5063031 1.4740363 -0.26951152
0.700543 -0.41521764 -0.761765
0.35884246 0.7513268 -0.013302857
0.2717383 1.4195917 -0.28246045
0.5996281 0.23349777 -0.20279014
-0.4541751 -0.08350707 -0.739285
0.6429907 0.2974829 0.1536071
0.3224542 0.6398729 -0.419485
0.72117794 1.3510568 -0.5353271
-0.46032804 1.478131 -0.0064417343
-0.75647783 -0.2506255 -0.32101238
-0.42048186 -0.4094519 -0.19893558
0.8289228 0.752046 0.3323973
0.37748632 1.3315275 -0.13329202
0.20712382 0.80438673 -0.974576
-0.7700963 -0.25389692 -0.526137
-0.3160789 1.3185639 -0.6035442
0.24889718 -0.3990216 -0.2811414
-0.58725256 0.54942846 0.14119624
-0.6506482 0.93799996 -0.37539765
0.47121924 1.1405722 0.44435924
0.10046522 -0.2365525 -0.75878
0.24999021 -0.035239905 0.32782033
-0.09682132 0.9751259 0.22752249
-0.5532923 0.88771087 -0.06427361
-0.89323306 -0.41048712 0.31431437
-0.86410815 -0.40226686 0.9051156
-0.6964298 1.3588035 0.24470818
0.3359209 -0.41630316 0.77526456
0.71165305 0.7671392 0.5079633
-0.5729184 -0.25039935 -0.7896868
0.23605728 -0.22319221 -0.19614428
-0.8937943 -0.4048066 -0.7335032
-0.3976493 1.2021432 -0.82005614
-0.16228166 0.81294763 0.28205127
0.6409045 1.6232995 -0.034041554
0.58465135 1.0869168 -0.27553856
-0.5919864 -0.24698576 -0.006142459
0.7685923 1.0778337 0.024620425
-0.89527404 -0.40838623 -0.3244334
0.84344375 0.8282124 -0.496522
0.34764212 0.200204 0.35147226
-0.63263506 1.5498626 -0.04243964
-0.7267346 -0.4144749 0.20502606
-0.35039967 0.8049629 0.7246342
-0.7429684 -0.08538194 -0.61003387
-0.2150923 -0.41101524 0.9018203
-0.6320323 1.2941617 0.43400854
0.91646516 1.1915495 -0.024529576
-0.7527076 -0.24074385 0.09931849
0.046863835 0.5178647 0.2846739
-0.44176742 1.5028639 -0.21153392
-0.49755484 0.45022705 -0.20525745
0.25180718 0.59059215 -0.73339283
0.22698867 0.770777 -0.7917273
0.31477982 1.1365358 -0.932099
-0.54200435 -0.4156091 -0.52871215
-0.39024216 1.0386399 0.5161637
-0.24495915 -0.027784064 0.29564643
-0.9012295 -0.09462107 0.3384896
0.08426173 -0.08562635 0.65668356
-0.43019933 -0.2284918 -0.102075614
-0.6556417 1.2842289 -0.54868734
0.4984473 0.62818515 0.069832146
0.41760033 -0.019242382 0.028235424
0.20188993 0.28380042 0.52344775
0.7801645 -0.24723926 0.12331849
0.53991115 0.6995859 -0.12786326
0.18611373 -0.079460904 -0.8870182
-0.3826095 1.3284458 -0.10753466
0.59755206 -0.247548 0.427464
0.35142922 0.7814621 0.3441969
0.49507934 1.5455434 0.031030145
0.11105143 -0.23690727 0.14489385
0.7153168 1.2633984 -0.031598464
0.5860591 1.145978 0.09765707
0.039958343 0.94608855 -0.6819324
0.0127004925 0.76660347 0.19836442
-0.39554313 -0.4140972 -0.3953213
-0.7179713 -0.08671659 0.6201832
0.53995466 -0.41423434 0.3317979
-0.8951938 -0.09144577 0.5307939
-0.6108799 1.5167184 0.16030197
0.017113974 -0.41156954 0.18288372
-0.63684225 0.9173335 -0.69567406
0.7562089 -0.25148678 -0.2878875
0.44864053 0.62081814 0.40500873
0.034220297 0.9847026 0.8315792
-0.92075336 -0.2657948 0.2137021
-0.23076296 -0.09215143 0.9004879
0.15734911 1.0898395 -0.62352896
-0.84983754 -0.40572032 -0.9149543
0.3659196 0.7335554 -0.22629413
0.27878135 0.54958016 0.2779495
-0.56083465 -0.41253704 0.10557993
0.5217216 0.5706084 -0.4757523
0.21843381 1.6347761 -0.19685113
-0.36904752 1.070197 -0.40581408
-0.924978 -0.24681933 -0.64649594
0.8966838 -0.08709063 -0.28994077
0.6659516 0.56261945 -0.023344303
-0.67715 1.0912755 -0.23017395
-0.24994537 0.9655378 0.37193337
0.27537465 0.6235151 0.5043503
-0.47409022 1.3539824 0.5505235
-0.0074326666 -0.06290655 -0.35053337
0.5569612 0.8254652 0.019813994
-0.50837576 1.296298 0.064494126
0.16392031 0.6939223 0.3205698
-0.72568196 -0.41724804 -0.42764533
0.3846269 -0.41040277 -0.39209318
-0.09528752 -0.082855314 0.7482774
0.19132951 1.1906825 0.777374
-0.4603647 -0.046662554 0.007318631
0.5392662 -0.41995233 -0.6717138
-0.4114796 -0.08965477 0.5957416
0.005261495 1.4877095 -0.026061347
-0.67053664 0.3677202 -0.023873609
-0.42618233 -0.40778887 -0.007939899
0.25434995 0.43700892 -0.59284174
-0.6417529 0.34720582 -0.2291483
-0.10241149 1.6661693 -0.5999342
0.4840999 0.50993836 0.24695009
0.58698785 0.88074434 -0.20587096
-0.06444437 -0.23781583 0.09053324
0.58102643 -0.084969506 0.5371944
0.1508781 0.8069844 0.8045529
-0.7005793 -0.41193515 0.6010839
-0.18993402 0.90099573 0.79325354
0.53996396 1.2375195 -0.50949454
-0.8892052 -0.088323675 -0.7375271
0.9375082 0.9791604 0.06591502
-0.56809556 1.2244343 0.2529243
0.20980251 1.2692752 -0.73276865
-0.08587295 -0.40367207 -0.326766
-0.2619136 1.0565366 -0.7394169
-0.21961242 1.5309633 -0.7211269
0.6156097 0.9831215 0.4217044
-0.39566833 -0.059610724 -0.42396015
0.24785966 -0.121683255 0.92314625
-0.7667006 -0.24144335 -0.7444561
0.7226202 1.2266012 0.17764692
-0.43269172 1.1478789 -0.6010244
-0.31879553 0.9931776 0.15810776
-0.2980103 1.4940636 0.27250493
-0.2781487 0.43987715 -0.782453
0.103033446 0.7416116 -0.4373994
0.1249889 1.0426191 0.67116314
-0.5701604 1.1155996 -0.4187777
-0.0049923635 1.5843086 0.540147
-0.18359618 1.634167 0.19205865
0.040815875 0.38045955 -0.048860148
-0.07731946 1.8156095 -0.29328814
-0.04566004 1.3262157 -0.17018439
0.05006119 0.5237299 -0.1915825
0.057696708 -0.06856121 0.040480718
-0.4956901 0.91774166 0.6452064
0.2602023 0.90581334 0.6302811
0.72655463 -0.41837573 0.22810355
0.42553753 -0.22562364 0.079133585
-0.84454554 0.6792656 -0.06887285
-0.47601599 0.42481923 -0.0018194664
0.22994632 0.4357893 -0.0757701
0.09946373 1.1152039 -0.007803859
-0.41922474 -0.085813835 0.8888552
0.29293007 1.1980829 -0.2656362
-0.3388692 1.7338257 0.18176863
-0.4588666 0.70617306 -0.80928457
-0.1893064 0.47658932 -0.2539367
-0.92637384 -0.25064012 0.8658422
-0.27251086 0.7134502 0.56513333
0.3570963 -0.41663027 0.4291349
-0.2079843 1.1347942 0.15771592
0.036059193 -0.4151283 -0.014237003
0.40031368 0.31488937 0.4972688
-0.42610016 0.83375555 0.07096526
0.18750086 -0.40617663 -0.4496739
-0.42777157 0.571203 0.30486396
0.20191836 1.4628882 -0.08197674
0.0468667 0.6835464 0.45816088
0.90118015 0.6658453 -0.19010672
0.22050929 -0.05635894 -0.08577475
0.702973 0.3184846 -0.045869734
0.22401804 0.9505075 -0.76227427
0.43466288 0.38589624 -0.6894232
0.13687101 1.0327303 0.48012736
-0.15431607 -0.4112188 0.06749016
-0.16597345 -0.032128498 -0.22392969
-0.49499983 0.7191999 0.61949044
-0.51812226 1.3032391 -0.7014196
0.8996954 -0.4076132 0.12473418
0.8461752 1.3288575 0.10313277
0.5585271 -0.41371316 0.742975
0.06564765 1.3969729 -0.8667285
-0.24058232 -0.24549162 -0.58966815
0.55162144 1.2900956 0.26752743
0.89561814 -0.40835375 0.53619397
0.28585887 1.6314037 0.0022055819
0.35594618 -0.087766245 -0.90774226
-0.05209119 1.2453405 -0.9269482
0.10736887 -0.07480052 0.85584646
0.02170467 1.6619264 -0.19001776
-0.19049546 1.7997428 0.080640376
0.2989376 1.6930327 0.34709382
0.63838017 1.5803483 0.16801384
-0.5379348 0.96644485 -0.53108615
-0.2557473 -0.08838104 -0.74973655
0.72089684 -0.083049476 0.8756558
-0.7233133 -0.082837954 -0.22808605
-0.4464302 -0.24274643 -0.6347425
-0.44800127 1.6738183 -0.310938
0.6576706 1.025764 -0.7431106
-0.5882553 0.87855786 0.19526649
-0.29874656 0.85010004 -0.73169553
0.39727864 0.5807327 -0.60865915
-0.06767377 0.73972607 0.6341702
-0.27907678 0.5118958 -0.6067118
0.45072117 0.12197851 -0.17437561
0.9053352 0.7733501 0.13667387
-0.3563723 -0.4156256 0.3567135
-0.32275426 1.3679566 -0.8002337
0.2521813 0.99264634 0.8061563
0.7403023 -0.083619006 0.43430525
0.39229956 1.5537617 -0.14029044
-0.92381907 -0.25405124 -0.428433
0.4484607 1.567034 0.41576564
-0.12448251 0.32943788 0.57137233
-0.88504183 -0.40996212 0.5195211
0.5447562 0.9047253 -0.6143979
0.5439732 0.79296994 0.43528667
-0.3048877 0.28047985 0.4514686
0.53682965 0.78633523 0.6636609
-0.15026422 -0.25795245 -0.7647238
-0.709767 -0.26141766 -0.9282224
0.4267866 1.2422477 0.06954072
-0.09496097 -0.23983362 0.6301038
-0.16296072 -0.09080522 -0.9182116
-0.82448363 0.93132627 0.20689079
0.13730715 0.38360015 -0.26761013
0.5768221 -0.08896473 0.7466457
0.028419908 0.7716156 -0.62486875
0.18646511 1.8234538 0.056066886
0.23164263 -0.4186877 0.6057246
-0.44293123 0.37537232 -0.6235461
-0.26562515 0.50791746 0.046402004
-0.56770813 1.5325849 -0.3960886
0.040238667 -0.2196028 0.46996936
-0.6084566 1.0053117 0.5362036
-0.74583054 0.7750999 0.32283312
0.74771947 -0.25331867 -0.08429527
-0.2399804 1.1310266 -0.5573355
-0.017236248 1.1345079 0.14253661
0.7202829 -0.08363925 -0.39002538
-0.6514364 1.1230137 -0.6320006
-0.7686145 0.5413121 0.054301046
0.5739503 -0.08151607 0.33052444
0.2674896 1.3988279 -0.5995493
-0.0896476 1.3893281 -0.35483515
-0.25976998 1.6697903 0.36413962
0.42523178 1.4318608 -0.45602232
-0.46531826 1.026902 0.30539384
0.34528616 0.30296096 0.046892956
-0.16180663 0.2949224 0.22652018
-0.3824401 0.8591436 0.4827236
-0.044476062 0.6336819 -0.3129328
0.30971956 -0.23922408 -0.77846146
-0.09021638 0.63267744 0.32518145
0.6172284 -0.26773548 0.07011986
0.6438769 -0.2529199 0.24879058
-0.3829288 1.4388165 -0.43936595
-0.13598654 1.3917507 -0.85310674
0.101958714 -0.4060524 -0.61278844
-0.14319766 0.74647945 -0.96051216
0.64369136 -0.24354254 -0.9184529
-0.60227144 0.47381806 0.354375
-0.592672 -0.25361657 0.2167981
0.56784785 -0.4153747 0.52474463
-0.11550335 1.0151563 -0.0071947174
0.3276612 1.114546 -0.74789906
0.05799389 0.87154794 0.58673203
-0.6556288 1.0480087 0.21019585
-0.12724257 0.57639337 0.5199814
0.89758545 -0.0911205 0.7361126
-0.5540476 1.4403975 -0.55243295
-0.57054055 -0.08895381 0.31737322
0.44381702 0.16668363 -0.3476038
0.34923202 1.253276 0.5431641
0.29224363 1.3646061 0.6848419
0.72737753 1.0227911 0.2162416
-0.12915725 0.620597 -0.10741635
-0.110226795 0.6368661 0.11345592
-0.61412287 -0.25681326 0.41429162
0.17655809 0.66748476 -0.2737338
0.91840774 -0.25065315 0.6494634
0.17243892 1.0001783 -0.9816466
0.41066998 -0.23117441 -0.28821933
-0.5220897 0.24905652 0.10647723
-0.52998346 -0.2594097 0.5943096
-0.30145863 0.5365439 0.44749537
0.9250516 -0.24888109 0.4441399
0.5913072 -0.25289932 0.64745075
-0.53261864 1.1704602 -0.09907803
0.5663056 0.96150744 0.14900897
0.8850267 0.93464553 0.25626242
0.19912365 0.35676318 0.333507
-0.34644657 0.5433914 -0.34009898
-0.7484131 -0.2483676 0.53507614
0.22962186 1.7415844 -0.4663731
-0.0034640313 1.6332676 0.1626403
0.54212457 -0.08671549 -0.9094591
0.267969 0.43863344 0.6341305
0.10003233 -0.24733084 0.9280733
0.6476605 -0.082209274 -0.73341525
0.032787062 1.0904787 -0.41193575
-0.054109126 0.08811453 0.05084295
0.503057 1.0757253 -0.85477483
0.17686296 -0.068658724 -0.29131332
-0.79144263 -0.2513114 0.72863704
-0.7352727 -0.08334777 0.41790673
0.5433519 1.0883801 0.6445642
0.22593835 1.0856965 -0.4115478
0.12041344 1.2378595 0.1956915
-0.33296478 0.5872365 0.6709083
0.58185756 -0.2385418 -0.20596074
-0.1790066 1.0954561 0.7845079
0.81398106 1.1067369 0.3650993
-0.54762834 0.7063484 0.25567332
-0.16735947 1.6765046 -0.20828861
-0.6276493 -0.40321022 0.90734017
0.25698954 -0.21235171 -0.4046119
-0.55046797 0.3415953 -0.43733126
-0.42199093 1.6150591 -0.4866825
0.7788594 -0.24948893 0.34358448
0.9168542 -0.24213484 -0.59550047
-0.12948759 -0.07370992 -0.027829068
0.06465918 1.2047541 0.41526574
0.36415178 -0.023013812 -0.36941192
0.6430658 0.9356152 0.6010562
0.57004166 1.4239064 -0.095580935
-0.6725283 1.0580995 -0.038120158
-0.37501022 1.0159487 -0.89400834
0.8967893 -0.407763 -0.08326051
0.72793233 0.58623147 0.4185446
-0.11227459 0.40415215 -0.5678132
-0.32276547 0.38298807 0.30937445
-0.3390824 0.4160772 -0.47081536
0.08068757 -0.25176042 -0.35069782
0.75328445 0.65377825 -0.5880568
-0.46599156 0.79786134 -0.60947305
-0.016256195 1.1675899 0.6023799
-0.6517212 1.2028567 0.06963357
0.25953203 -0.07963526 -0.70687914
-0.894207 -0.40696996 -0.53376055
0.06424296 0.48440653 -0.67823327
-0.23228665 0.90891826 0.595423
-0.012554698 0.600534 -0.5249394
0.8907166 -0.40809834 0.7352706
0.24054351 -0.05728774 0.11426614
-0.18941098 0.5709932 -0.4465307
0.076726064 1.4679805 -0.23651671
-0.43118608 -0.23491521 -0.29303545
0.90155196 -0.08907202 0.53777164
0.8838775 -0.40154064 0.90729284
-0.028744318 1.1352255 -0.1645309
-0.4585886 0.70314455 0.43302277
0.5871526 1.5349064 -0.511919
0.30274987 -0.40385652 -0.9157002
-0.27551955 1.3993614 -0.26533365
-0.5016949 0.30306476 0.29544437
-0.329057 0.72570246 -0.45838788
-0.14265078 -0.40952748 -0.9095322
-0.14750427 1.4729767 0.12946126
0.4988281 0.75154054 0.21467207
0.29959258 1.5559698 0.5343181
-0.37753865 -0.4144083 0.5587362
0.60234696 0.46111673 -0.34754542
0.20289627 -0.41262537 -0.7522284
-0.12406679 1.6397533 -0.014808195
-0.5224937 -0.067284934 -0.1612095
0.54644704 -0.103944704 0.9200143
0.7902224 0.43898848 0.08635026
0.5484015 -0.027089853 -0.1066485
-0.21518657 -0.25413895 0.7614547
-0.0010887105 0.8746469 -0.9982964
0.11571525 -0.41820273 0.75043213
0.2673335 -0.22507712 0.01392132
-0.34653783 -0.4102834 0.15527606
0.29553163 0.27093798 -0.21006656
0.048972994 0.6733084 -0.95513487
0.23374665 -0.24540856 -0.59610283
-0.088881716 1.4476306 0.6477723
-0.044102907 1.6982853 0.39586598
-0.19674484 0.978785 -0.9695037
-0.44080216 -0.25718844 0.4334042
-0.15006265 1.8266921 -0.09941355
-0.12486511 -0.25545555 0.46279216
-0.3119848 0.67346644 -0.68348634
0.13243541 0.6181148 0.13668278
0.2217163 -0.25387132 0.7823826
0.9319093 -0.24632679 -0.78328884
0.42580032 -0.2528538 -0.6331949
-0.27075833 -0.2315755 0.013276989
0.31741148 1.1727192 -0.563023
0.721674 -0.39904365 -0.9185264
-0.6968992 1.3791965 -0.38084656
0.09576252 1.6565096 -0.014173672
-0.3218161 0.32635775 0.11456382
0.18770297 1.5145099 -0.773165
-0.918327 -0.2570787 0.4235451
0.44644374 -0.2478263 0.526051
0.40127563 -0.24801996 0.3533542
-0.91214097 -0.10313714 0.1597206
-0.45878914 0.53273773 -0.73681533
0.4764228 0.18094732 0.17180234
0.4425913 0.35362887 -0.30426583
-0.2772911 -0.02726619 0.09131138
-0.012108143 0.04068315 -0.5072556
0.7382201 0.7457349 -0.073936135
-0.41385424 -0.24195585 0.7464535
-0.21278669 0.25828826 -0.19656444
-0.06606916 -0.22948784 0.2811916
-0.19704825 1.4117452 -0.05261027
-0.3833363 0.8405652 -0.17347619
0.8176252 0.51923835 -0.31591156
0.9027864 -0.0866307 -0.49219152
-0.28765807 1.1459475 0.36032552
0.16967379 0.7287009 0.62845033
-0.2867661 1.4113655 0.621698
0.5807576 0.4482031 0.44836333
0.29331896 0.496399 -0.25398946
-0.6087753 0.6852149 -0.67631257
-0.17932513 0.15950872 -0.5081566
0.38208517 -0.41128412 0.017503135
0.08634415 -0.405701 -0.90967464
-0.121179745 1.1826026 -0.33977956
-0.6932791 0.7349293 -0.100687325
0.4485556 0.48324227 0.5820192
0.010733814 -0.40772396 0.9077508
-0.001479741 1.1666301 0.7939141
0.49326974 1.7169784 0.06277058
0.41386902 -0.045026105 0.22889715
-0.39342442 1.190841 0.19468549
0.10693978 0.30375317 -0.7382114
-0.4325015 0.6236054 0.07230716
-0.19895712 0.84795976 0.11237755
-0.0319127 0.21337256 -0.09418462
0.2594363 -0.08413863 0.7297188
-0.86899483 0.8828997 -0.009600029
0.5103624 1.2654271 0.6266288
-0.70212996 0.90051675 0.054524384
-0.0009971922 1.8285966 0.07925014
-0.73093694 -0.085213214 -0.90069914
0.39861882 -0.41285923 -0.18033713
-0.04866179 0.33853823 -0.23771118
0.123487085 -0.25963366 0.61175954
0.89800483 -0.08766712 -0.08888154
0.8847085 -0.08147824 -0.7064222
0.55389315 -0.4127265 -0.28739926
-0.129287 1.2686799 0.50950825
-0.45233604 0.87245476 -0.38623363
0.36854666 0.8990797 0.1395314
-0.30055505 -0.2500531 0.57378304
-0.36132663 0.34770194 -0.2893018
-0.37879395 0.22841205 -0.48365283
0.4308539 0.5502417 -0.8125452
-0.604184 0.49972284 -0.57260394
0.62434375 0.64834774 0.31080836
-0.625671 1.542037 -0.23155245
-0.04564251 1.3277673 0.31223834
-0.5928253 -0.0877516 0.12202958
-0.7309029 -0.08162743 0.79419345
0.48990402 -0.23379757 0.22517672
0.027473656 0.052301697 -0.16164741
0.2404302 0.30357087 -0.41033855
0.24152458 0.6011311 -0.9152459
-0.016775101 1.5524857 -0.75602275
0.76445556 1.2894499 0.34773874
0.3809905 0.4421078 -0.45427617
-0.36207217 -0.0359009 -0.26175725
-0.8052025 1.256651 0.1200902
0.21309915 0.8416523 0.453375
-0.05369308 0.2261248 -0.6412747
-0.38949445 0.12951234 -0.15446895
-0.7993175 0.8144754 -0.3974015
-0.5183699 0.522231 -0.3968628
-0.38522086 1.521647 0.46078563
-0.14122987 0.43177164 -0.07291466
-0.10414471 1.7802324 0.24843019
-0.9217655 -0.25634044 -0.22030577
0.5579469 -0.40271974 -0.07412623
-0.8366108 1.0090101 -0.3298449
0.8542123 -0.24914387 -0.92884946
0.49438125 1.0961187 -0.6404261
-0.19012363 0.3196332 -0.4001659
-0.34473115 0.54773986 -0.13093942
-0.29970384 0.6877248 0.17872204
-0.07456695 0.98153216 -0.26272202
0.10756794 0.21547297 -0.23030782
0.61293125 1.13185 0.31903058
0.75267065 -0.25178102 0.5456837
0.891938 -0.4079085 -0.68739986
-0.019264136 0.9085648 -0.47448522
-0.3422826 0.3321194 -0.08917139
0.3745873 1.4434443 -0.7664157
0.40436333 -0.23503031 -0.1022675
0.41625327 1.669238 -0.48293066
-0.16162008 0.19255674 0.3935873
-0.23963194 -0.08305633 0.50984526
0.21592641 -0.408211 -0.09533301
0.14859128 0.09827964 -0.008725839
0.6996887 0.7112938 0.12469937
0.3610142 1.7713101 -0.2909365
-0.85994893 0.83721197 -0.20810652
-0.044219 -0.09710856 0.9146018
0.942479 0.81607807 -0.06805164
0.035304755 0.5640218 0.0025614533
-0.28289518 -0.08296351 0.71397287
0.4321726 0.33807755 -0.11134386
-0.30314147 1.5733285 -0.118118644
0.41446176 0.5452132 -0.0909886
0.19324094 -0.24760942 -0.9264169
0.124744 0.9283904 -0.323665
-0.2263104 1.7429775 -0.41927302
0.54964566 -0.07917467 -0.52374476
-0.30428058 1.3372259 0.08371401
0.44084218 1.536402 -0.62509584
0.61681503 1.0413373 -0.490597
0.9035302 -0.08740015 0.118382156
0.67560124 0.84569967 0.27609503
0.64061433 0.5245316 0.15410635
-0.29164845 0.4228825 0.58990824
0.23541057 1.5305579 -0.4857106
-0.42921048 -0.40783915 0.8972964
0.15497273 1.3614535 0.31857926
-0.7395204 -0.24725729 0.92072093
0.40181243 0.73948467 -0.89845586
0.5941279 -0.2440539 -0.39754522
0.732268 0.97056866 -0.33216274
0.56930923 1.3977101 -0.66224957
0.37433225 1.4198588 0.033605367
-0.79905117 0.65486693 -0.2830782
-0.76167583 0.50310385 -0.155476
0.3923212 -0.41246212 -0.76264036
-0.61469066 0.60966796 -0.25545758
0.7322295 1.4306397 0.22494414
0.7227509 -0.4170183 -0.18332258
0.75307 1.4882145 0.024512539
0.7378812 -0.08394941 0.6505897
-0.61786485 -0.25533757 -0.6167785
0.04433044 0.9308795 -0.10311495
-0.25324714 -0.40224802 -0.26727885
-0.3519503 0.18426853 0.2598312
0.18535635 -0.026931556 -0.50183004
0.21310812 0.59176093 0.74562824
0.1015459 1.6577451 -0.6198809
0.47914556 0.92486024 -0.3687069
-0.64338857 -0.08151828 -0.7417917
0.1765294 1.6290824 0.17900524
-0.5347942 0.23697998 -0.09160686
0.3060075 -0.24873334 0.62022495
0.008166905 1.7583358 -0.46588326
-0.27163488 0.7037676 0.3739418
-0.317353 1.5594344 0.076397344
0.8992321 -0.40794078 0.33109793
0.24879932 1.0864542 0.15009642
0.015820969 -0.24458858 0.7688674
-0.7587043 1.1682929 -0.43932074
-0.4979967 1.0020633 -0.24706605
-0.4854105 1.168839 0.42054597
0.3145169 0.6990653 0.16401674
0.67806673 0.64906704 -0.4108184
0.5638479 -0.17500031 -0.046747036
-0.65316707 0.3934506 0.17292082
-0.5731217 0.73039705 -0.44681758
-0.27595833 0.7196541 -0.031439964
-0.2732659 1.6293213 -0.5680888
-0.81278646 1.2197059 -0.26452887
0.2103108 0.8326334 -0.1637032
0.69471157 1.5193288 -0.37216598
-0.92798275 -0.25221738 0.6235871
0.4703883 -0.41102898 0.9069135
0.74488425 1.1200125 -0.17326814
0.19288492 1.4505355 0.11455211
-0.31507784 -0.04701589 -0.08940719
0.06142779 1.3434398 0.72278434
-0.74638224 1.3965075 -0.17731789
0.09764907 1.0506237 0.2880503
-0.16844256 0.73564065 -0.580353
0.073347986 -0.0698628 0.24890074
0.17454094 0.49743274 0.45189118
-0.12656176 -0.41560248 -0.6106622
0.28845632 1.4952829 0.3236218
0.89923954 -0.40664625 -0.48769045
0.22714075 1.3924121 0.48055512
-0.42136437 1.0161116 -0.080818355
0.4171664 1.3417308 0.38839424
-0.13964093 0.41818255 0.38251936
0.1530484 0.42202088 0.12845892
0.47227752 1.2719815 -0.29939136
0.72995126 -0.41986704 0.024275577
0.06887377 0.5668483 0.6020653
0.09418942 1.5419703 0.34638643
-0.23088989 1.3112524 0.26725045
-0.021280408 1.0669067 -0.98172224
-0.28837758 0.6184526 -0.8711417
0.15235215 1.6585768 0.46083257
0.60826045 0.28408462 -0.39890802
0.89619017 -0.40808016 -0.28614467
-0.5710181 -0.4127626 -0.3178757
0.021122016 0.3095398 0.29614544
0.029882599 -0.0902292 -0.9151386
0.6060536 1.01011 -0.062087312
0.11367907 1.7766323 0.26709497
-0.699973 0.4761309 -0.3652478
-0.19117203 -0.4117201 0.61307263
0.5914856 1.3661296 0.08429256
0.26152074 1.1873028 0.3696646
-0.37573397 0.14154589 0.04345964
0.5747428 0.7103907 -0.5857116
0.05892431 0.9508725 0.10600637
0.7568512 -0.24151462 -0.73530674
-0.116413265 1.5066025 -0.19535834
-0.32222193 -0.41571784 0.7430488
-0.08904983 -0.41500288 0.75598645
-0.62198436 -0.2502876 0.74368167
-0.11965963 0.73600876 -0.775586
-0.25174275 -0.25684598 -0.9236107
0.72528905 -0.4128666 -0.58117115
-0.5940641 -0.25069106 -0.4250165
0.8262507 0.58879375 0.21953173
-0.13041753 -0.06556541 -0.5955388
0.0145001495 1.2507281 -0.7264824
0.72816944 0.47216296 -0.48690823
-0.32982334 1.1519246 -0.010759457
-0.13624963 0.78849137 -0.40678453
-0.5522492 -0.09122358 -0.9157561
0.29894766 0.9971036 0.35544062
-0.81694245 0.73693585 0.13241628
-0.26129472 -0.20947388 -0.3800243
0.52655077 -0.41079032 -0.89862704
0.42637616 -0.23130119 -0.4660017
-0.7010095 -0.41795522 -0.8003117
-0.32441372 -0.25305468 0.92166626
0.372877 -0.40957874 0.21766563
0.04626549 0.71525294 -0.12103231
0.08860218 0.37133276 -0.5347013
0.82999873 1.3912703 -0.11683789
0.694583 -0.41715187 0.8799888
0.5484157 0.19031422 -0.0058699637
-0.5592686 -0.08283784 -0.34346977
0.6817869 0.60474956 -0.21726528
0.5486585 1.6558571 -0.34176487
-0.076924205 1.0804064 -0.79511225
0.70045424 0.42823306 0.29204214
0.087116495 1.4190576 -0.6399127
0.895482 -0.40542424 -0.8817702
0.6017028 0.5263413 -0.66759145
-0.73391193 0.5909683 0.2511369
0.47515583 0.9437628 0.31000727
0.5448051 -0.25474167 -0.77490085
-0.35865635 -0.088306785 -0.91265
-0.088807225 0.36722645 -0.7815976
0.017214544 0.42968374 0.4704765
-0.23395033 -0.21363172 0.1814335
-0.2260288 1.2400932 -0.18966043
0.023623312 0.614363 0.7744243
0.19835988 0.8758619 0.2241148
0.3643247 0.44424176 0.40605298
-0.9256163 -0.24389744 -0.0022176427
0.0063134786 0.25271353 -0.42219177
0.13734253 1.4939373 0.6264393
-0.80061746 1.2360709 -0.07433036
0.39864862 0.92618066 -0.734265
-0.056843527 0.79722285 0.011582682
-0.60678077 0.7993605 -0.2601961
0.61108935 1.4779804 0.37003154
0.016859476 0.22783804 0.48679096
-0.52419233 -0.41842532 0.7157177
0.75371593 0.88808477 0.06825093
-0.27813888 1.5734268 -0.33854178
-0.59838843 0.5548978 -0.062156506
-0.14186415 1.2060343 -0.025089394
0.524953 0.7384219 -0.33929807
0.9044912 -0.08788398 0.3299716
0.24676958 -0.23628922 0.43710804
0.28463438 0.83548903 -0.38680607
-0.49071777 0.54375833 0.54213434
0.13442078 1.8093345 -0.30778807
0.06729125 0.39498782 0.6607759
0.12524064 0.1737438 -0.5682548
0.536967 1.2111082 -0.09468992
0.38249838 0.76245606 0.5545691
0.6110681 -0.24553254 -0.59913063
