0.58957326 2.284771 0.61904836
0.44663417 1.448844 0.07474618
0.45378816 2.4669902 0.38025635
0.74619114 -0.2510026 0.7551582
0.37967545 1.9265931 0.60385036
-0.6086339 1.9102409 0.44510868
-0.0009041063 1.1786178 -0.38152897
0.65112036 2.1006596 0.6348359
0.28434488 2.7431486 -0.4743564
0.77386284 -0.24863297 0.93209016
0.46313637 -0.08417105 -0.7274833
0.0064748875 -0.4162396 -0.46901497
0.023848202 2.3654742 0.13534355
-0.75049525 2.0347266 -0.09141269
0.29027414 2.342145 0.35202736
0.10187685 -0.24513233 -0.52925086
0.29194146 1.387116 0.22335495
-0.33494967 -0.08445934 -0.5818695
0.10118776 1.6255062 -0.36701488
-0.9053606 -0.095372245 0.7340205
0.4637007 2.6776166 0.42945242
-0.60985476 2.453672 0.028797772
-0.46962184 -0.25231475 -0.92483705
0.42631304 -0.08099739 0.6438066
0.20386675 1.3797481 -0.61712325
0.86031914 2.2890418 -0.084500074
0.87406164 2.1340883 -0.19373286
-0.29000944 2.0023928 0.024270408
-0.21455717 2.600968 -0.34928367
0.17939693 1.1498227 -0.23025195
-0.44159693 2.304959 -0.14279413
-0.7631688 1.788389 -0.44130066
0.0033021565 -0.08440621 -0.12869096
-0.7469896 2.4927382 0.17337403
-0.7237773 -0.083183005 -0.4213082
0.3151602 2.0890403 -0.4562077
-0.5912109 -0.41515696 -0.10589503
-0.3728528 2.2680209 0.656229
0.09527186 2.3657827 -0.4057797
-0.30112794 1.7849292 -0.2238589
-0.058903165 2.2364163 -0.48503885
-0.25425157 2.107134 0.6713456
-0.75383997 -0.07712379 0.22133633
0.20708603 1.5644673 -0.7662854
-0.055068396 -0.0876072 -0.7621157
0.7557381 -0.24999012 -0.4923456
-0.5590693 2.1688452 0.71416235
0.59267294 2.34302 -0.6074957
-0.103152916 -0.24606371 -0.4613918
-0.16683501 2.0819368 -0.73934096
-0.11311336 -0.080241755 0.18811187
-0.7878606 2.1605601 -0.43658662
0.37478805 1.9544418 -0.006489168
0.13483062 2.3616848 -0.0211304
0.19360052 1.9264266 -0.5311079
0.92101294 -0.24753621 0.007113999
0.03014436 1.6488774 -0.8327452
0.8163067 1.7663751 -0.337419
0.68989706 2.6010685 -0.0146563
-0.25922745 1.1456012 -0.10680154
-0.44005698 2.3787947 0.48324537
-0.12770608 -0.24489331 -0.2640413
0.85585976 2.1480153 0.29976332
-0.7189382 -0.4202104 0.7736097
0.3322521 2.1102784 0.8439114
-0.49719793 -0.4188596 -0.7300287
-0.7482225 1.980483 -0.5029162
0.120184205 1.2884927 0.1731259
0.27154616 1.7425103 0.8267699
-0.56312424 -0.08401861 0.5504917
0.75103563 -0.08709496 -0.5891775
0.8225751 2.1162674 -0.36575097
-0.1267126 2.549528 -0.514539
0.28591394 1.1557117 -0.019002775
-0.0249352 -0.41429245 -0.7668862
0.73040915 -0.4178453 0.6462054
-0.15204567 1.726285 -0.8451655
-0.50175834 1.7740909 -0.51202154
-0.019377526 1.8962799 0.42899904
0.56394815 -0.08331767 0.10921778
0.20815286 -0.41594124 0.2921038
-0.3531063 -0.4167774 -0.5864203
-0.37620592 2.2067456 0.8142525
0.11367994 2.3842921 -0.82468957
-0.8909924 -0.09808214 -0.9121115
-0.78390694 2.0096607 0.4542117
0.0911684 -0.42060074 -0.25275826
0.38694972 2.094687 0.1370045
0.45926225 1.3119462 0.33700407
-0.061882958 -0.08101614 0.57158744
0.11461254 2.7151508 -0.20252073
0.11133325 2.1701903 -0.09872252
-0.7630669 -0.24027961 0.32593662
-0.5035417 2.7314444 0.2515915
0.41344398 2.1329443 -0.07938694
-0.5209927 1.4275465 0.45225042
-0.8705827 -0.0821012 0.022637244
-0.53371537 1.7824527 -0.03589353
0.73548794 2.0886688 -0.51789105
-0.2106205 2.392936 -0.59628415
-0.21266833 2.579641 0.6809372
-0.3445981 2.8386533 0.15880981
0.53866184 1.815875 -0.7101088
0.32874328 2.593412 0.33481878
0.67103976 1.9368469 -0.610016
-0.4026218 -0.08721783 0.44728446
-0.6211152 -0.090782836 0.9164215
0.4115228 -0.08196597 0.43276083
0.597193 -0.2631855 0.89907706
0.91848993 -0.24620941 -0.39148843
-0.8976462 -0.40688777 0.10790016
0.74322 1.9822848 -0.041508224
0.9164878 -0.24703926 -0.19307634
0.49971688 1.4861469 -0.5257375
-0.53410107 -0.41978994 0.47403246
-0.18012297 1.1882594 -0.29738164
-0.70574987 -0.41451332 0.3991583
-0.138512 1.4898593 0.14500204
-0.3470201 2.0728965 -0.44313985
-0.89901197 2.1679034 -0.04180505
0.006298567 -0.41588694 0.5795057
0.10838659 1.2845716 -0.031819146
-0.6925279 -0.0774618 -0.013808778
-0.71387386 -0.41677958 -0.62318444
0.025656637 1.8310814 -0.6911309
-0.89660215 -0.4070065 0.7198967
-0.90248585 -0.091148615 -0.52922547
-0.612422 -0.25002503 -0.21225318
-0.3531335 2.0157862 -0.8401828
0.42854348 -0.25374538 -0.9246391
-0.58211625 2.5069752 0.50317264
0.00017626586 -0.416722 0.37433857
-0.25704908 1.6643329 0.8022468
0.33545554 2.0905604 -0.8400751
0.4053468 2.4232283 -0.5077009
-0.5168849 2.489499 -0.16495964
-0.5239724 -0.24448165 0.9117446
-0.49081743 -0.25386196 0.11697956
0.61374485 1.9426926 -0.3801587
0.0028514839 2.482417 0.3248297
-0.064582154 1.2934647 0.09909777
0.07952438 1.1749984 0.33871287
-0.26197374 -0.41861755 -0.7499465
0.4007159 -0.26852512 0.9217745
-0.24802563 2.4199836 0.57161736
0.39675996 -0.08294678 -0.5346199
-0.17427091 2.0883994 -0.53436327
0.828513 1.6577206 0.061441094
-0.4749949 2.4802637 0.32965606
0.37435448 -0.075200245 0.8753975
-0.09491642 1.7672573 0.8637457
0.26447946 2.3993053 -0.2874957
0.3138168 2.8006854 0.35060507
-0.3563457 -0.2541212 -0.7723863
0.7357935 -0.08041753 0.21696079
0.26866645 2.0566926 -0.14346719
0.38684678 1.9057372 0.81165963
-0.47150677 2.657958 0.44398397
0.55539215 -0.42276382 0.1275464
-0.7097651 2.167877 0.533844
-0.14444667 2.176103 0.45676416
-0.032847166 -0.24922276 -0.6353118
-0.54776436 -0.08364834 0.7457272
0.7845811 2.453053 -0.16526486
0.16354185 1.6858504 -0.030629614
0.90967494 2.0710816 -0.026918495
0.52123755 1.522085 -0.10877909
0.5840543 2.4485836 -0.24847938
-0.08564341 2.716429 -0.20880684
0.35566998 1.3560531 -0.5057204
-0.09025351 -0.41670197 -0.13906682
-0.7443296 -0.41521716 -0.21523646
-0.2706865 -0.41648018 -0.059617907
-0.28778678 1.5808532 0.24994558
0.9031733 -0.0888792 -0.8964259
-0.37188447 -0.41048032 -0.9021288
0.11869374 -0.25352818 0.31771642
-0.89589036 -0.090754345 -0.33282173
-0.028350562 1.9082451 -0.1937797
-0.2016148 1.4857659 0.70472705
-0.67220885 1.8033844 0.124586836
0.03404004 2.921062 0.08163673
-0.098553464 2.4129763 -0.3845485
0.9236988 -0.2463648 0.22231755
0.16055503 -0.41394913 0.46431357
-0.03515808 -0.25615036 -0.91522634
-0.91525936 -0.25924402 -0.8725987
-0.16360591 -0.41442314 0.25970575
-0.70242524 1.6786976 0.46955934
0.025765717 2.039998 -0.76381683
-0.2550614 2.374649 -0.79727674
0.69770515 1.8583357 -0.2037616
-0.35027456 1.2508695 -0.35275263
0.63653934 2.3747149 -0.07642292
0.44497445 -0.23872665 0.7563356
-0.011953168 2.4007778 0.6286026
-0.41196042 2.653685 -0.4987157
-0.11801432 -0.25081912 -0.062668204
0.7393336 1.9131147 0.5247971
-0.26616493 1.153345 0.12588611
-0.17937884 -0.4208012 0.44707245
0.2547831 -0.08295338 0.54078317
-0.288971 2.1721482 -0.0969169
-0.3040779 2.3970442 -0.28193176
-0.5019095 2.417903 -0.34103945
-0.40877676 2.011136 0.81024146
0.3255954 1.5864649 0.73265994
-0.548414 -0.083155155 -0.5468374
0.093578234 -0.081609525 -0.6668229
0.19869588 1.9980752 0.09136842
-0.8112998 2.2161765 0.381783
0.36709473 1.8914933 -0.63008237
-0.6985122 1.8427192 0.5712396
-0.454827 2.158095 -0.58842987
-0.12493693 2.015421 0.54514
0.041894995 -0.2602238 -0.18588269
-0.77118284 -0.24173343 -0.10403673
-0.01685381 2.650735 -0.36683464
-0.3264014 2.0215805 -0.22104388
0.25761503 2.0597172 0.67374057
-0.26067045 -0.25278223 0.37974232
-0.50983894 1.5088083 0.18819144
-0.5348892 2.1165712 0.18701994
0.22657037 1.1466098 0.16230796
-0.12898675 2.3706257 0.23333824
-0.9032105 -0.4035542 -0.10949209
-0.5821735 -0.40579903 -0.91586107
0.5271933 1.5988343 0.6047068
0.08601153 2.248204 -0.6978756
0.2517398 2.4926357 -0.7404522
0.4344927 2.4135618 -0.6967937
0.060022876 2.3566122 -0.19581774
0.35459512 -0.08338404 -0.18592075
-0.51679635 -0.42134726 0.2631213
0.09744543 -0.08191447 0.4541183
0.042650353 1.1182294 0.1423424
0.882819 1.9342498 -0.2115266
0.66790247 1.4384933 -0.23559633
0.736943 -0.08570766 -0.9045923
-0.4299909 -0.25532737 -0.4758275
0.21404271 2.8944042 0.05134456
0.0938699 -0.24127828 -0.031459644
-0.21408163 -0.41386724 -0.45254058
0.4017036 1.6511939 -0.23082292
0.38322502 2.150536 0.35336953
0.33755124 -0.42105064 -0.59017867
-0.30266356 1.4346528 -0.6314807
-0.5000339 2.7749915 0.053190645
0.42847502 -0.41240606 0.61914873
0.5270951 2.7518272 0.021702051
-0.082667306 -0.08489233 0.3816771
0.37880617 1.8918717 -0.42956156
-0.30682796 2.881275 -0.041390263
0.2375071 -0.4014131 0.91172993
-0.20250222 -0.080769 -0.4091791
-0.10624174 1.1489844 0.25176436
0.14179502 1.7508457 -0.51089865
0.39095837 2.1964426 -0.29574227
-0.64558804 2.370527 -0.14560282
-0.28326786 -0.2509725 -0.16722408
0.8256612 2.3048372 -0.29784596
0.5462646 -0.41255707 -0.503266
-0.44656885 1.8956609 0.32813546
0.114869334 2.0587974 -0.42567712
-0.37762898 -0.25818443 0.23835707
-0.44247586 -0.08635382 0.24942367
-0.20344415 2.1396093 -0.31861413
0.89279544 -0.0935681 0.9069127
-0.09708612 1.5633132 -0.36075094
0.9268425 -0.24898803 0.8560276
0.08570614 2.5196214 -0.28073165
0.21459806 -0.41530353 0.09917669
-0.1236549 1.9564106 0.74349433
0.37128085 2.8392868 0.11462468
0.18641368 1.2367733 -0.42623472
0.67718875 2.2663112 -0.24875909
-0.49086842 1.7975271 -0.23857734
0.43510777 2.4081774 0.6990016
0.7328225 -0.4162084 0.42619678
-0.56770754 2.2783341 -0.67034775
0.5250412 -0.08134784 -0.33387554
-0.53833485 2.0665588 -0.73614466
0.7224835 -0.41617233 -0.39519477
-0.8975087 -0.09218051 -0.14400664
0.76657766 1.5342282 -0.08639622
-0.8676441 -0.09411408 0.9122286
-0.87992454 2.1640205 0.16590649
-0.20628262 1.8966852 -0.12381482
0.27012628 1.5704173 0.11857715
-0.24254608 1.3195205 0.00654268
0.33433962 2.672106 -0.17241952
0.28938898 -0.2488168 0.21581408
0.07187816 1.8333396 0.09569059
-0.18233183 1.8209739 0.52740306
-0.109308444 -0.2594119 0.91614926
0.5197631 2.0102367 -0.74844956
0.7167008 2.284544 -0.4766258
-0.11621639 2.53996 0.49420053
0.2112307 2.3247902 0.16169298
-0.18540809 2.2642937 0.84957385
0.265795 2.1905694 0.03747159
-0.17003673 1.7328273 -0.6454615
-0.54004616 1.3438069 -0.29747298
-0.75319135 -0.41290474 -0.0039820736
0.117801264 2.2229648 0.6997442
0.7146324 -0.08345264 -0.20171875
0.7221403 -0.08148873 0.0034822794
0.48757327 2.545224 -0.11222951
0.7047081 -0.4147551 -0.76421404
0.30241767 1.7922521 0.057741288
0.25292873 2.5083613 -0.13249367
0.5264175 1.3094385 -0.19779126
-0.4601922 -0.08303198 -0.7355182
0.5726737 1.3311965 0.16335802
0.2733342 1.7510725 -0.3592738
0.70805347 2.4596567 -0.3752091
-0.47372085 2.5620434 0.13923264
-0.76434094 -0.24764872 -0.31927663
-0.4242499 -0.41620463 -0.18515468
0.77123505 1.7604109 0.38710213
0.35314834 2.3989415 0.006323696
0.16925535 1.9755445 -0.8998263
-0.77122915 -0.2528341 -0.52642816
-0.3328405 2.475924 -0.46853834
0.26484233 -0.41101092 -0.28159273
-0.64169574 1.626067 0.13616653
-0.6869629 2.080976 -0.29087538
0.42858696 2.131009 0.56054866
0.10156344 -0.24129567 -0.76584446
0.24647155 -0.08541003 0.32827312
-0.13838978 2.0313342 0.3207001
-0.5947269 1.9823079 0.011037538
-0.89144135 -0.4111933 0.32462966
-0.8584919 -0.4051011 0.90498006
-0.71816206 2.4243765 0.36936277
0.3487625 -0.4175744 0.7783211
0.65642023 1.7453256 0.5655776
-0.57426286 -0.25099018 -0.78750086
0.23078111 -0.24097721 -0.18926997
-0.8942567 -0.4045823 -0.7341691
-0.42085597 2.3885927 -0.69709414
-0.23876573 1.8890932 0.37249976
0.6283752 2.6640134 0.15506901
0.5498517 2.1726525 -0.16996697
-0.61300576 -0.24313867 -0.014529052
0.7276604 2.1041527 0.14228773
-0.8975333 -0.40703708 -0.32607627
0.7997134 1.9283247 -0.42025357
0.2700048 1.2241504 0.34756178
-0.6475509 2.6462326 0.117757745
-0.73471606 -0.4145763 0.21464276
-0.41354087 1.7945242 0.7785245
-0.74008024 -0.084555805 -0.6033609
-0.21347028 -0.41226357 0.898527
-0.66275465 2.3357053 0.54626644
0.8816662 2.2233715 0.101940155
-0.74599576 -0.24202502 0.11550327
-0.027792513 1.5627775 0.30999407
-0.45525306 2.6116877 -0.05580136
-0.5381638 1.559961 -0.21334462
0.20597684 1.7432665 -0.68152654
0.19233903 1.9317665 -0.72499293
0.29238558 2.2951064 -0.81355834
-0.54621214 -0.416553 -0.5264832
-0.4362686 2.0596948 0.60903656
-0.26076597 -0.08455609 0.3117
-0.9026371 -0.09441687 0.3520953
0.09628682 -0.08291418 0.6710832
-0.44907558 -0.25023687 -0.087184355
-0.6780856 2.4534073 -0.416527
0.45242554 1.6565163 0.104912974
0.38859695 -0.08124523 0.00953934
0.12621942 1.2856405 0.5170118
0.7822845 -0.24203593 0.1149409
0.48668748 1.7613885 -0.062403355
0.1880944 -0.07776531 -0.8779543
-0.41072136 2.415399 0.020731391
0.60219836 -0.24667543 0.4234109
0.3029604 1.80826 0.4130638
0.4801107 2.5818415 0.20434588
0.12265153 -0.25086868 0.14472294
0.68476397 2.3017635 0.10367641
0.54946077 2.1818113 0.21168089
0.011301001 2.0589511 -0.59281164
-0.02522371 1.801537 0.2684784
-0.39851946 -0.41804257 -0.3889566
-0.726694 -0.08849202 0.62374353
0.55020154 -0.41569853 0.33134586
-0.90036875 -0.092352554 0.54328454
-0.6305845 2.5888004 0.310566
0.029896315 -0.41618294 0.185422
-0.6704035 2.1064272 -0.6101266
0.74943584 -0.25093076 -0.2999702
0.3714257 1.6213708 0.4524563
-0.024035271 1.941594 0.9125204
-0.9192042 -0.26816142 0.22127937
-0.21989048 -0.091300935 0.9003584
0.13697267 2.2168632 -0.51350987
-0.849844 -0.40577358 -0.9144703
0.32393408 1.8280013 -0.16032758
0.2220228 1.5790902 0.3013799
-0.6026154 -0.41017842 0.09858705
0.4688515 1.6727266 -0.42576477
0.21279082 2.712544 -0.024342671
-0.39766583 2.2089033 -0.30078298
-0.9254471 -0.24569233 -0.6469846
0.89363456 -0.08579454 -0.29070354
0.6247394 1.6141322 0.0215464
-0.70987576 2.2135935 -0.12802339
-0.319277 2.040873 0.44377983
0.20591837 1.6148524 0.557392
-0.51021326 2.375165 0.67496777
-0.036945157 -0.08484152 -0.3112117
0.504743 1.857787 0.11730151
-0.53416497 2.3722394 0.19616383
0.12706164 1.7127516 0.38239965
-0.72890365 -0.4167282 -0.42549562
0.39868915 -0.4179356 -0.39941
-0.07353471 -0.08320257 0.75842047
0.15533903 2.1552317 0.88687336
-0.4823667 -0.08336955 0.03793401
0.54337347 -0.4212275 -0.68188334
-0.39873448 -0.08145783 0.64487314
-0.015662502 2.5543747 0.12718269
-0.7234607 1.4621911 -0.018653054
-0.4433272 -0.4159878 0.021230802
0.18900299 1.5666025 -0.56467247
-0.6926683 1.4662033 -0.22069508
-0.103112265 2.8110483 -0.42658484
0.42293924 1.5128901 0.2791955
0.5413631 1.948819 -0.11857892
-0.046265997 -0.24873155 0.10340753
0.5819496 -0.083621636 0.53338724
0.08552161 1.7662022 0.8658825
-0.6935396 -0.41224432 0.5968796
-0.25213718 1.872407 0.8636633
0.5173913 2.3398082 -0.37507933
-0.88767624 -0.08736184 -0.73513937
0.8966175 2.0004258 0.15413043
-0.6006075 2.2784424 0.36258525
0.18340921 2.4115775 -0.6000626
-0.08066742 -0.41301495 -0.32172495
-0.28953427 2.2262545 -0.63389355
-0.22538392 2.694357 -0.5636139
0.5653579 1.9636645 0.5209081
-0.39828682 -0.083855964 -0.42292917
0.25711423 -0.18229644 0.9268316
-0.7672913 -0.24190408 -0.74200946
0.6891111 2.2290363 0.3066868
-0.4489557 2.3080022 -0.48698145
-0.3450978 2.0391507 0.22555879
-0.31734854 2.544759 0.42700344
-0.3250947 1.6096528 -0.74631023
0.067978665 1.8584099 -0.35996515
0.07094731 2.0195088 0.76451576
-0.59988785 2.262515 -0.30837893
-0.024412494 2.5835326 0.70436466
-0.18991348 2.6812952 0.36661583
-0.020321326 1.4287746 -0.042260855
-0.07292895 2.9233108 -0.102768496
-0.07062413 2.4186602 -0.030148938
-0.008549086 1.6026771 -0.16655475
0.039850056 -0.08024425 0.05735508
-0.5513183 1.9249731 0.7138236
0.19867527 1.8831832 0.70888174
0.7314487 -0.41702867 0.222801
0.43193853 -0.2542047 0.07939654
-0.8940033 1.7953093 -0.031622052
-0.5252919 1.5183642 -0.0002098716
0.16429564 1.4897074 -0.049898773
0.069879726 2.174934 0.106624395
-0.40987438 -0.08311567 0.88603044
0.2718544 2.2791142 -0.13844544
-0.3423672 2.7835264 0.36816317
-0.49528074 1.8919549 -0.75074047
-0.24733272 1.5788348 -0.23909119
-0.92342436 -0.25473315 0.86859167
-0.3350445 1.7169547 0.606462
0.3678113 -0.4184543 0.4343264
-0.24448165 2.1969604 0.2743142
0.047917362 -0.41549164 -0.01849364
0.33029857 1.319191 0.5090598
-0.4666981 1.9058249 0.13043427
0.19712391 -0.41343796 -0.45426852
-0.48197088 1.6184716 0.32891095
0.18352336 2.531718 0.07118228
-0.016259411 1.6980765 0.49404442
0.8470135 1.7264936 -0.13523462
0.19520256 -0.079992875 -0.07991935
0.63564825 1.3755627 -0.032106172
0.20019248 2.1027546 -0.66793877
0.36737996 1.5129519 -0.6572079
0.082265295 2.0357125 0.5715902
-0.13563038 -0.4142185 0.066955894
-0.1826505 -0.08205161 -0.19347748
-0.5566295 1.7309685 0.6591483
-0.53632504 2.4813056 -0.5663601
0.8997899 -0.40737224 0.11864428
0.8193991 2.3444128 0.24949291
0.56833434 -0.41206425 0.7416943
0.052420415 2.5582736 -0.7232149
-0.24823876 -0.25107628 -0.58678806
0.52176106 2.2979546 0.4034677
0.89609724 -0.4087844 0.53211206
0.277717 2.6842132 0.17478792
0.35586518 -0.086610086 -0.9074842
-0.07461867 2.4187899 -0.8060731
0.14337364 -0.07565579 0.87559915
0.018239241 2.749617 -0.019090066
-0.19537482 2.8604455 0.27266282
0.28229457 2.701315 0.52780455
0.6116203 2.5932798 0.35402796
-0.56987286 2.1304884 -0.43950003
-0.25560755 -0.08594018 -0.7484016
0.71793234 -0.083188504 0.87728405
-0.72185946 -0.08111942 -0.21628067
-0.4439829 -0.24845195 -0.6366832
-0.4495599 2.7971487 -0.13267437
0.6243227 2.1503172 -0.64396024
-0.6397018 1.9419718 0.25954562
-0.3352639 2.0221138 -0.65474
0.34881485 1.7101381 -0.5611032
-0.13500887 1.7253685 0.67981637
-0.34603518 1.6715994 -0.56080186
0.36755568 1.2047691 -0.16577232
0.85835564 1.7910802 0.19820076
-0.35061383 -0.41970056 0.35327208
-0.33854872 2.5483203 -0.65881574
0.19466457 1.9488425 0.892768
0.7376853 -0.08228755 0.42895335
0.38359958 2.621924 0.024987977
-0.9247159 -0.25221223 -0.43042654
0.43747842 2.5649753 0.57407403
-0.20295417 1.3325658 0.5604424
-0.88227826 -0.41357815 0.5242027
0.5073738 2.0230765 -0.52061945
0.48065448 1.7793449 0.5079637
-0.3763331 1.306866 0.4327649
0.47290742 1.7387114 0.72785485
-0.1546093 -0.25502288 -0.7626618
-0.71091354 -0.26058984 -0.9263612
0.3960148 2.2869232 0.19794738
-0.08250564 -0.24320531 0.64213836
-0.1622499 -0.09005627 -0.9160504
-0.86994743 2.0029054 0.2781695
0.07399228 1.4659867 -0.24842817
0.5760107 -0.08604445 0.74678916
-0.03820046 1.8926351 -0.5160214
0.1834326 2.8737588 0.2453686
0.24111584 -0.41863972 0.61308384
-0.48612186 1.5355277 -0.5942186
-0.31717527 1.5899742 0.06306031
-0.5772058 2.676025 -0.2324548
0.037197176 -0.2454864 0.47318423
-0.6540183 2.0273836 0.6114938
-0.8000132 1.8291308 0.37006134
0.7500777 -0.25234047 -0.09377803
-0.25300995 2.27765 -0.43912742
-0.055337317 2.1958394 0.25353712
0.7144023 -0.083735034 -0.39655113
-0.6762175 2.3041375 -0.52084607
-0.82256424 1.6342697 0.06879519
0.56821764 -0.08221744 0.32154244
0.25496444 2.5185046 -0.4573037
-0.11077763 2.5029564 -0.21090904
-0.27025014 2.7012992 0.54226524
0.4083629 2.525321 -0.30868122
-0.5276818 2.0708365 0.4015109
0.2747379 1.3459992 0.04100402
-0.23490183 1.3354872 0.21052893
-0.43073893 1.8883188 0.53788495
-0.089778244 1.7453377 -0.27272165
0.31876546 -0.23678899 -0.7807799
-0.16313195 1.6921499 0.3517262
0.62632895 -0.27462822 0.07388125
0.6508007 -0.2485869 0.24609596
-0.39800793 2.5811553 -0.2916596
-0.14960955 2.5653076 -0.7108357
0.1021453 -0.41463447 -0.6240451
-0.18473904 1.9366944 -0.8912437
0.6459552 -0.24360916 -0.91796684
-0.66276026 1.5252085 0.3612033
-0.5968424 -0.26330248 0.27516133
0.57452404 -0.41456416 0.52385306
-0.15174985 2.0975816 0.094506845
0.3052789 2.2673144 -0.6295612
-0.0035295011 1.8635074 0.65276456
-0.6996293 2.1149478 0.28941685
-0.18765901 1.5853069 0.5323963
0.8957535 -0.08953247 0.73237073
-0.56788003 2.6032233 -0.40000004
-0.5835403 -0.08776355 0.35711452
0.36129326 1.2538981 -0.34016278
0.30740324 2.236363 0.6698599
0.26239985 2.3321552 0.82091904
0.6811713 2.0110316 0.3325897
-0.18446276 1.6934981 -0.07724193
-0.14343274 1.7031531 0.13621294
-0.62360364 -0.24736968 0.4866467
0.13551193 1.7561798 -0.21398434
0.91589403 -0.24992687 0.6441723
0.14935276 2.1734 -0.8812241
0.4121041 -0.25015706 -0.2908978
-0.5816498 1.3271029 0.09162399
-0.47971767 -0.26091194 0.59342945
-0.36190423 1.5575922 0.4666077
0.9227795 -0.24802706 0.43858927
0.5961491 -0.2503869 0.64803946
-0.55789685 2.2614076 0.013720654
0.52499115 2.0026326 0.24118783
0.8445794 1.9388282 0.33929315
0.12133994 1.3862541 0.33913416
-0.40536755 1.6595917 -0.34471506
-0.77951515 -0.25414094 0.5305009
0.23142074 2.850328 -0.2871323
-0.015882771 2.6755128 0.32876036
0.542942 -0.08610028 -0.9096445
0.19275558 1.4197536 0.6486221
0.09655833 -0.2582376 0.9244143
0.65574753 -0.08213581 -0.74077773
-0.003886162 2.2058325 -0.29428416
-0.105624154 1.1115805 0.020370506
0.47429335 2.2211406 -0.7504997
0.15068793 -0.082126595 -0.28525797
-0.78462255 -0.25372905 0.7244996
-0.7397115 -0.080832385 0.43365514
0.49781996 2.0473738 0.7459191
0.19337486 2.191356 -0.2996371
0.09169544 2.2799015 0.31697506
-0.40308672 1.5842326 0.6975228
0.5855871 -0.24442577 -0.22222148
-0.22045645 2.0664701 0.8795427
0.7753822 2.0949006 0.47485012
-0.6005798 1.7542584 0.2949723
-0.16681084 2.7798324 -0.03481982
-0.6198541 -0.4044942 0.9028111
0.22328515 -0.24432746 -0.37383723
-0.5902475 1.4837694 -0.42581266
-0.42614102 2.765346 -0.3151487
0.78091943 -0.24766058 0.33936882
0.91359675 -0.2422772 -0.5937523
-0.15422298 -0.086412944 0.0035919938
0.0225172 2.2220297 0.53245056
0.33373117 -0.08328389 -0.36021245
0.58675873 1.8899859 0.688842
0.54670644 2.4746296 0.059964184
-0.7056073 2.151097 0.056722958
-0.40266043 2.2092566 -0.79244083
0.8977299 -0.40833667 -0.08836715
0.6775812 1.584587 0.45264095
-0.16668347 1.5580921 -0.5545817
-0.38390207 1.4306906 0.30111197
-0.3389124 1.5384216 -0.44909954
0.052495435 -0.254753 -0.35778373
0.70516324 1.7569597 -0.5287348
-0.5042638 1.9703121 -0.54052675
-0.06224524 2.1519926 0.70724416
-0.6792517 2.2856576 0.17421705
0.27662826 -0.080871835 -0.6965934
-0.8947144 -0.40660316 -0.5355069
0.01408409 1.6386976 -0.6477902
-0.28940433 1.9105973 0.66190827
-0.045997582 1.7139156 -0.47679392
0.89074206 -0.40856296 0.7330737
0.22604796 -0.08237457 0.12293354
-0.2274065 1.7252865 -0.41781527
0.059901927 2.5599358 -0.084276125
-0.446595 -0.25021946 -0.28428167
0.8993964 -0.0878274 0.5324824
0.88707966 -0.40123683 0.90598774
-0.05951506 2.2286692 -0.04954642
-0.51520133 1.7334073 0.47597712
0.575217 2.6315408 -0.34091514
0.30378813 -0.40265977 -0.9173617
-0.2989915 2.517137 -0.12325616
-0.56388617 1.3534262 0.28449154
-0.38071996 1.870461 -0.39686632
-0.14827523 -0.40890855 -0.90901136
-0.17359984 2.5320268 0.2772641
0.40511072 1.7353964 0.26730102
0.2860182 2.5338984 0.695832
-0.36592013 -0.415106 0.546365
0.5417212 1.5549438 -0.303414
0.20472269 -0.413344 -0.7615414
-0.13305062 2.7142644 0.15464725
-0.531886 -0.0832735 -0.1446136
0.53735125 -0.099977925 0.91498977
0.72951484 1.4720483 0.1138069
0.5374037 -0.07120621 -0.12756476
-0.21127619 -0.25693864 0.7643912
-0.037816614 2.0595288 -0.91876173
0.12004785 -0.41870928 0.7510221
0.2671863 -0.24441648 0.011345294
-0.32511547 -0.41813272 0.15389992
0.22433925 1.3421199 -0.19877711
0.0034615048 1.8533795 -0.88965255
0.24455714 -0.2559681 -0.6162153
-0.11605185 2.4390893 0.7950251
-0.05482634 2.7154965 0.57516956
-0.22063512 2.1812363 -0.87274647
-0.4501726 -0.2567529 0.40740156
-0.1528273 2.911986 0.09618828
-0.12741923 -0.2575643 0.4800809
-0.35223603 1.8387626 -0.6285132
0.077399015 1.6519407 0.1714997
0.23169419 -0.26231217 0.7741406
0.9314088 -0.24801348 -0.7819319
0.4444469 -0.25359744 -0.6226542
-0.30178848 -0.25262794 0.030839678
0.2975857 2.2986753 -0.43615234
0.7227125 -0.3989911 -0.91929364
-0.7165699 2.5242305 -0.2385695
0.08668248 2.7184627 0.1550131
-0.37874305 1.4053067 0.10040916
0.18066412 2.6601415 -0.61561066
-0.926809 -0.25984836 0.4281032
0.45727384 -0.24693966 0.5277792
0.4073798 -0.25342837 0.3573106
-0.91336 -0.10526778 0.17234735
-0.50148106 1.707957 -0.7003478
0.40183097 1.22139 0.16792956
0.37780255 1.4452072 -0.29324755
-0.30775493 -0.08438125 0.12292631
0.018706147 -0.081688866 -0.47826004
0.6824217 1.8048441 -0.0015991271
-0.40769863 -0.23982991 0.7588322
-0.2632836 1.3424934 -0.19863889
-0.065200135 -0.24973238 0.29388684
-0.23041049 2.5019479 0.086391166
-0.43165565 1.9247468 -0.10456471
0.76241845 1.5988251 -0.28025734
0.9022229 -0.085712224 -0.4902318
-0.31684744 2.2169724 0.495093
0.09733641 1.713129 0.6816929
-0.31712228 2.411351 0.7620046
0.5134183 1.4451439 0.47319785
0.22991568 1.5733576 -0.22102508
-0.6489042 1.8668137 -0.62479997
-0.192226 1.2642057 -0.4948129
0.3896231 -0.41895443 0.01461756
0.08384861 -0.40447253 -0.91176605
-0.1526041 2.2954102 -0.22118267
-0.7359786 1.8306836 -0.050142787
0.38245606 1.4745052 0.6127435
0.01220348 -0.4111499 0.90650606
-0.035733327 2.1330912 0.9032991
0.4783703 2.7544734 0.24301285
0.40090442 -0.082384035 0.21636757
-0.42326152 2.230342 0.31711686
0.044757914 1.4547771 -0.7164398
-0.46984386 1.6962786 0.1278396
-0.19419527 1.9007635 0.18922603
-0.09582278 1.2661536 -0.102613494
0.26771224 -0.08745311 0.73087317
-0.9120084 1.986233 0.055687275
0.4687873 2.2285185 0.7569293
-0.7497591 1.9823699 0.12056054
-0.0034796605 2.8777876 0.274414
-0.73124313 -0.08524154 -0.9026836
0.41162127 -0.4187227 -0.18295082
-0.1110243 1.4228518 -0.22366297
0.13095686 -0.25418723 0.61126906
0.89411706 -0.08664639 -0.09194875
0.88872313 -0.08165873 -0.7075691
0.5630777 -0.41430008 -0.29614675
-0.1641166 2.284188 0.64505124
-0.4909572 2.009066 -0.30692726
0.33514124 1.9344373 0.23302618
-0.29380354 -0.24556425 0.58034194
-0.39732838 1.4575229 -0.29299822
-0.41973603 1.3662851 -0.48565543
0.38072336 1.6924391 -0.7622831
-0.64704096 1.6582239 -0.5482439
0.55194175 1.6473088 0.36376396
-0.63952327 2.6588783 -0.069169775
-0.086029515 2.3499627 0.43355483
-0.6048737 -0.09356057 0.16057378
-0.7328317 -0.08375812 0.79748845
0.49740314 -0.24850631 0.22668442
-0.03728511 1.1153178 -0.18252215
0.18150409 1.4186232 -0.39849362
0.19399475 1.7682078 -0.85977554
-0.023326047 2.707264 -0.5940943
0.7335069 2.2779946 0.48173305
0.31656766 1.5589473 -0.42871407
-0.35949305 -0.08414051 -0.25387156
-0.8309367 2.33464 0.2372103
0.15542158 1.8474046 0.5245813
-0.11784324 1.3790554 -0.6298585
-0.42213607 1.2317762 -0.17669758
-0.8372978 1.9644237 -0.3367204
-0.57318 1.6727443 -0.38274097
-0.40749294 2.5479448 0.6167265
-0.20232546 1.5007465 -0.058151122
-0.110349484 2.8188305 0.43788904
-0.92415833 -0.25370878 -0.21964446
0.56802344 -0.40681574 -0.07899387
-0.86904293 2.1535416 -0.24400793
0.8573785 -0.2502708 -0.9287865
0.46963906 2.219059 -0.5229827
-0.22003695 1.4118977 -0.40185022
-0.39840925 1.6483903 -0.1090526
-0.33144432 1.7744188 0.22234768
-0.12219813 2.0751157 -0.14573602
0.045431353 1.2866106 -0.23059884
0.5740403 2.1301715 0.43576205
0.7526115 -0.24996734 0.54187524
0.8935044 -0.40820414 -0.68572634
-0.0572374 2.0355942 -0.37661073
-0.3978399 1.430021 -0.09912023
0.36902773 2.5814908 -0.61476576
0.40890157 -0.2542233 -0.108053714
0.4130155 2.7675028 -0.31006563
-0.23615888 1.2185473 0.3638175
-0.23285377 -0.08300334 0.51381546
0.22203705 -0.41186312 -0.09662624
0.09848733 1.1085726 -0.04067575
0.6458721 1.7310697 0.19208272
0.3577366 2.848649 -0.10155836
-0.8997344 1.9662519 -0.14971134
-0.026007358 -0.095460534 0.9141457
0.8944396 1.8592949 0.0007902573
-0.021961067 1.6041986 0.027013067
-0.24746689 -0.084271505 0.7139052
0.36861718 1.4149843 -0.10506706
-0.3141222 2.6786203 0.041250896
0.3435681 1.612272 -0.056366548
0.19516657 -0.24486747 -0.9266589
0.083698615 2.0345585 -0.22473237
-0.22275746 2.8721375 -0.23766375
0.57082075 -0.08381529 -0.54252756
-0.3357525 2.4016542 0.21026617
0.44347063 2.6480641 -0.46557614
0.5858983 2.143944 -0.38212347
0.8998284 -0.08550389 0.11087485
0.5854008 1.8390203 0.3452837
0.5789305 1.5464966 0.18802924
-0.36606625 1.4300718 0.593022
0.22440591 2.6396945 -0.33190566
-0.4257189 -0.40837866 0.8947098
0.115625486 2.388051 0.45763043
-0.7332492 -0.25076443 0.9158152
0.3631809 1.889184 -0.8258337
0.5673363 -0.24530914 -0.4234249
0.6911334 2.0494056 -0.23161624
0.5714648 2.5057611 -0.5126752
0.3498194 2.4691076 0.18236387
-0.8448655 1.7920816 -0.24623127
-0.81513727 1.6222141 -0.1387982
0.39435822 -0.4106151 -0.7669108
-0.66660905 1.7363026 -0.22825652
0.7066 2.433622 0.37932026
0.7276728 -0.41689023 -0.19032408
0.728915 2.5154243 0.1918081
0.73669773 -0.08272748 0.6488246
-0.6154784 -0.2520578 -0.61490697
0.020204674 2.019411 -0.014718976
-0.25355223 -0.41442847 -0.25850174
-0.41537562 1.2368164 0.22755429
0.20580198 -0.08460663 -0.49768156
0.13476516 1.5575149 0.78067756
0.10226188 2.793024 -0.45002237
0.44047993 2.0152626 -0.27588314
-0.65037286 -0.080896966 -0.7421397
0.16227248 2.6703053 0.3437332
-0.5828616 1.3341578 -0.10212707
0.31681895 -0.24947391 0.615772
0.011680901 2.8807247 -0.28329152
-0.337972 1.7354951 0.41222173
-0.3305797 2.63273 0.23567888
0.89980936 -0.40814614 0.32437247
0.21270767 2.1271577 0.25879008
0.031078782 -0.24182975 0.77186334
-0.78590256 2.3266706 -0.326989
-0.5333253 2.119234 -0.15262824
-0.51633936 2.2068958 0.5257094
0.21561378 1.7727873 0.21563378
0.63320917 1.741622 -0.35660756
0.5704548 -0.2038865 -0.049113855
-0.71479464 1.4678016 0.17710301
-0.61821246 1.890337 -0.38651606
-0.31822437 1.7994635 0.0217502
-0.27722782 2.7778702 -0.39893275
-0.8415817 2.3535433 -0.14850798
0.1634121 1.9002783 -0.081824034
0.6762174 2.5993667 -0.19489615
-0.9319758 -0.25605297 0.63540184
0.4869104 -0.4144564 0.9048917
0.7061355 2.174902 -0.05202799
0.16503677 2.4964094 0.26529425
-0.33417004 -0.083473556 -0.0710132
0.02764497 2.315065 0.8519143
-0.7683606 2.5147471 -0.03589956
0.052231357 2.0892935 0.38685864
-0.22604707 1.9036098 -0.51588464
0.0677814 -0.08475932 0.2508787
0.10342717 1.5124642 0.46750325
-0.12738615 -0.41573817 -0.6127807
0.26491165 2.5068874 0.484378
0.8983353 -0.40722173 -0.48921055
0.19244722 2.3899794 0.6218194
-0.4458303 2.095621 0.008240643
0.38550752 2.3396273 0.52871203
-0.2073974 1.4498446 0.38033268
0.08475968 1.4630883 0.14415334
0.4428599 2.3528662 -0.1687926
0.73583066 -0.41923892 0.017665029
-0.0031089615 1.558325 0.6252785
0.07564976 2.5702755 0.4984792
-0.2664835 2.365892 0.3809166
-0.036679775 2.2479634 -0.87586516
-0.32925364 1.8038528 -0.8179132
0.13929659 2.6524668 0.64071476
0.53605795 1.3764722 -0.3829016
0.8956498 -0.4085183 -0.29094005
-0.5739565 -0.41488165 -0.3156623
-0.054699123 1.3477244 0.2903517
0.0321372 -0.090672374 -0.9157295
0.5672525 2.0494924 0.04086193
0.10573491 2.802236 0.45704025
-0.7465884 1.6092193 -0.3459925
-0.18737623 -0.41232514 0.6200981
0.56604254 2.3937733 0.23235697
0.21947357 2.2037764 0.48825127
-0.43021357 1.2188195 0.015670123
0.5281378 1.8235426 -0.51964056
0.010769776 1.999486 0.1962431
0.7625934 -0.24113664 -0.74185395
-0.13156176 2.604237 -0.039677147
-0.32472116 -0.4148925 0.73750925
-0.083235085 -0.4141745 0.7585007
-0.6137754 -0.2523625 0.72305024
-0.15162814 1.9091761 -0.70600724
-0.25488356 -0.25524616 -0.9236585
0.7299763 -0.41394144 -0.5857096
-0.60422987 -0.2493859 -0.42140573
0.7697233 1.6027205 0.26205048
-0.13205454 -0.083837606 -0.5922688
-0.011368019 2.4037657 -0.60066986
0.6635885 1.5663247 -0.4491367
-0.3661604 2.2271929 0.10347137
-0.18597025 1.9201291 -0.3321557
-0.55295175 -0.090238206 -0.91335994
0.25425005 2.0174618 0.45644754
-0.86812425 1.8177018 0.175309
-0.2783356 -0.24602047 -0.37483096
0.5283582 -0.41020662 -0.9001932
0.36990985 -0.25311047 -0.4700057
-0.70165455 -0.4179495 -0.7963697
-0.31907284 -0.25254494 0.92281175
0.38377312 -0.41688776 0.22168802
-0.011114659 1.7765568 -0.06833054
0.020065486 1.4934434 -0.50949395
0.81012875 2.4339828 0.040848453
0.70211875 -0.41705078 0.8783223
0.47935462 1.2494483 -0.0074515343
-0.5579003 -0.084434256 -0.33313826
0.62997174 1.6808995 -0.16522801
0.5351736 2.73327 -0.15941542
-0.102188624 2.2430873 -0.6862133
0.63488466 1.4386172 0.3176366
0.073124185 2.5553255 -0.49275196
0.8950718 -0.4071077 -0.8791343
0.54626805 1.6414657 -0.6244439
-0.7890095 1.6538429 0.27154768
0.4301806 1.9599769 0.39999795
0.54383695 -0.25301754 -0.77855706
-0.36021733 -0.08749829 -0.9110648
-0.14048024 1.5373528 -0.76005596
-0.052318264 1.4348831 0.47913563
-0.20800036 -0.24613208 0.17732735
-0.2529503 2.3520498 -0.072197735
-0.053143807 1.5812037 0.8044002
0.14871973 1.925421 0.3133015
0.28822795 1.449013 0.42636353
-0.92399806 -0.24887511 0.005792495
-0.036703818 1.358989 -0.3920275
0.11264387 2.4736 0.77991337
-0.82988816 2.3412347 0.04177306
0.3746978 2.0790606 -0.64633334
-0.11271593 1.8914034 0.03582491
-0.64531004 1.9222734 -0.19180459
0.5894352 2.4597201 0.53391165
-0.060323488 1.2373304 0.46735215
-0.519503 -0.41903782 0.7050854
0.7070626 1.9121752 0.1629037
-0.28323758 2.6968799 -0.17649749
-0.6460366 1.6414993 -0.063533165
-0.1829632 2.284469 0.087810114
0.48601568 1.820864 -0.2709999
0.90194905 -0.08651203 0.32253194
0.25079155 -0.24971928 0.44202965
0.24338117 1.9517733 -0.30465287
-0.55508006 1.564246 0.55955213
0.13663906 2.9054575 -0.119142234
-0.012638958 1.3808007 0.66449285
0.03728252 1.291894 -0.5542192
0.5011119 2.262344 0.026790503
0.3162046 1.7443525 0.61814475
0.6262808 -0.2511347 -0.6154733
