0.5950451 1.9677355 0.61172605
0.44740862 1.127423 0.07249374
0.45725587 2.147101 0.37368822
0.7483333 -0.25194788 0.7562634
0.38654292 1.6073741 0.5995244
-0.6028596 1.5899509 0.45231128
-0.005559585 0.8560587 -0.38045067
0.65735126 1.783931 0.6271191
0.28052557 2.4204872 -0.4781244
0.77499306 -0.2495385 0.93404424
0.4641809 -0.085610196 -0.7263563
0.0061299633 -0.41666162 -0.469018
0.02510944 2.04471 0.1340223
-0.7511998 1.7134631 -0.08483009
0.29393187 2.0212417 0.34772092
0.102120444 -0.24604334 -0.52801335
0.29444748 1.0663264 0.22244981
-0.33465528 -0.0860441 -0.58131635
0.09733253 1.3026028 -0.36679754
-0.9056742 -0.09666893 0.7352389
0.46911538 2.355748 0.42358407
-0.6096165 2.131928 0.031907693
-0.4657302 -0.25257164 -0.9247004
0.42755938 -0.08287208 0.64511627
0.19782767 1.0560546 -0.6175472
0.8602855 1.9663243 -0.094054334
0.87279266 1.8102915 -0.20175782
-0.28975308 1.6814711 0.026020173
-0.21720427 2.2779472 -0.34999987
0.177105 0.8269565 -0.2299295
-0.44249532 1.9828255 -0.14031807
-0.76740205 1.4647601 -0.4325807
0.0029970298 -0.08623226 -0.12818424
-0.74510574 2.1716266 0.17852362
-0.7247559 -0.084911935 -0.42330503
0.31136155 1.7655618 -0.45891023
-0.5932756 -0.41541243 -0.107407905
-0.36180553 1.9464983 0.65322745
0.09263988 2.042946 -0.40744218
-0.3029379 1.4635367 -0.21890089
-0.06337461 1.9132549 -0.4849561
-0.24693814 1.7871737 0.67330205
-0.75309014 -0.07938446 0.22233537
0.20040797 1.2406406 -0.7668919
-0.053599287 -0.08886801 -0.7611947
0.7585132 -0.25085273 -0.4901016
-0.5521482 1.8484058 0.718609
0.5885514 2.0195467 -0.6118109
-0.103095666 -0.24687785 -0.46043476
-0.17220527 1.7578244 -0.7379154
-0.11364567 -0.08208895 0.18887153
-0.7917455 1.8368788 -0.4305073
0.37513965 1.6336089 -0.011521287
0.13474762 2.039721 -0.023567542
0.18901324 1.6030684 -0.5328213
0.92365515 -0.247552 0.010193696
0.02332355 1.3249537 -0.8317867
0.8129668 1.4420581 -0.34350872
0.6898147 2.2786274 -0.024077307
-0.26083484 0.82347494 -0.10174092
-0.43528038 2.0578868 0.48611555
-0.12773548 -0.24618697 -0.26458287
0.8592326 1.8272644 0.29068843
-0.718362 -0.42063448 0.77481365
0.33958477 1.7930977 0.84030056
-0.49721426 -0.41909683 -0.73181593
-0.75253433 1.6562998 -0.49594915
0.12223717 0.96735203 0.17331186
0.2814171 1.4233015 0.824322
-0.5644515 -0.085998714 0.5497882
0.7525039 -0.08879322 -0.5872723
0.81983244 1.7918165 -0.3729864
-0.12962061 2.225998 -0.5155903
0.28531462 0.83334506 -0.018649882
-0.022589806 -0.4146173 -0.76616484
0.73197806 -0.41813308 0.64832175
-0.15883985 1.4020624 -0.84293795
-0.50600374 1.450083 -0.50646174
-0.013953628 1.5758488 0.43009016
0.564078 -0.085099384 0.11032325
0.2065649 -0.4164294 0.29355043
-0.3537973 -0.41705197 -0.5890792
-0.37000763 1.8893028 0.8156568
0.10812475 2.059937 -0.8268788
-0.89088947 -0.09854452 -0.9124229
-0.77861506 1.6891582 0.46218538
0.089670256 -0.42145428 -0.25141114
0.38863927 1.7734201 0.1326721
0.46255994 0.99139327 0.3343588
-0.061830994 -0.08266999 0.573079
0.11207014 2.3930924 -0.20542708
0.11093621 1.8471413 -0.10042783
-0.7639961 -0.24201447 0.32736164
-0.50167435 2.4102063 0.25304246
0.41213572 1.8124049 -0.08382554
-0.5153209 1.1069291 0.4608641
-0.8707497 -0.083478004 0.022328697
-0.5333878 1.4618306 -0.03156066
0.7314031 1.7632984 -0.523983
-0.21378732 2.069576 -0.5965724
-0.2073648 2.2601528 0.6806797
-0.34335798 2.5170832 0.15862167
0.5329927 1.491543 -0.71388483
0.3324583 2.2734923 0.32898554
0.6660762 1.6122687 -0.6152735
-0.4040293 -0.088976614 0.4471517
-0.6206609 -0.09221339 0.91804165
0.41216084 -0.0836377 0.4338221
0.59807146 -0.26469702 0.9012383
0.9227705 -0.24708152 -0.38814127
-0.89808965 -0.40690988 0.10768102
0.74260867 1.6597841 -0.048284706
0.91902375 -0.24711698 -0.18961844
0.494569 1.1620107 -0.52830446
-0.5347842 -0.42051798 0.47475344
-0.18315649 0.86599773 -0.29388258
-0.70629656 -0.41512978 0.39928567
-0.13653357 1.168318 0.14769374
-0.35052538 1.7490164 -0.44043642
-0.8994951 1.8460665 -0.034302615
0.005175409 -0.4161446 0.5817267
0.10803753 0.9625977 -0.031904213
-0.6935961 -0.079136536 -0.015908413
-0.71447 -0.41745958 -0.625567
0.01973733 1.5077573 -0.6914418
-0.89596605 -0.40768942 0.7213094
-0.9032686 -0.09273109 -0.53075296
-0.6136302 -0.2509218 -0.21330309
-0.36001548 1.6898791 -0.8367901
0.42989323 -0.2540825 -0.9244348
-0.57722855 2.1860857 0.507803
-0.0016143492 -0.4172032 0.3760745
-0.24762869 1.3448889 0.80638945
0.3289594 1.7668366 -0.84287095
0.40090382 2.099289 -0.5118655
-0.5177467 2.1670523 -0.16276158
-0.5241813 -0.24506827 0.91381586
-0.48894954 -0.25560808 0.11598836
0.6104543 1.6190438 -0.38497782
0.006404451 2.162119 0.32327133
-0.06312213 0.97190136 0.101647645
0.082733884 0.85399055 0.33997634
-0.25963646 -0.4193859 -0.7504591
0.40102825 -0.26941204 0.9243431
-0.24186203 2.1004267 0.57233715
0.39738825 -0.084574305 -0.5337686
-0.17886502 1.7640485 -0.5331501
0.828686 1.3350897 0.055687275
-0.47313502 2.1588273 0.3323018
0.37673458 -0.07696869 0.87729317
-0.08549643 1.4482074 0.86551106
0.26359248 2.076547 -0.29144108
0.31783545 2.4795716 0.3449582
-0.3540417 -0.25584328 -0.77172506
0.7367116 -0.08227817 0.21716961
0.26808977 1.7339047 -0.14769658
0.39548206 1.5883446 0.8083142
-0.46823436 2.337121 0.4456485
0.5557043 -0.423335 0.1300377
-0.7044059 1.8477359 0.5401855
-0.13733873 1.854689 0.45687222
-0.03192181 -0.25024146 -0.6342806
-0.5485186 -0.0854266 0.746006
0.78315973 2.1298122 -0.17534934
0.16346201 1.3643045 -0.029947523
0.9098803 1.7479002 -0.034741383
0.51985925 1.1987476 -0.1125305
0.58193505 2.1260436 -0.25566897
-0.088037185 2.3940692 -0.21052623
0.3504297 1.0321193 -0.5068039
-0.09251189 -0.41730624 -0.13891953
-0.745712 -0.41578168 -0.21645558
-0.27294117 -0.41694495 -0.060899153
-0.28445554 1.2582734 0.2544117
0.9030613 -0.089118004 -0.89652646
-0.369466 -0.41091573 -0.9024353
0.11859706 -0.2543081 0.32099128
-0.89672554 -0.09234464 -0.3338024
-0.029447401 1.5854707 -0.19291589
-0.19221783 1.1664321 0.7096964
-0.6703495 1.4815724 0.13116339
0.034860924 2.5995588 0.0786196
-0.10131815 2.0900555 -0.385239
0.9266999 -0.24679703 0.22475216
0.15924087 -0.41443342 0.46550244
-0.03196923 -0.257094 -0.9152396
-0.91496503 -0.25993186 -0.87379515
-0.1660966 -0.41485018 0.26005885
-0.69722855 1.3586792 0.47842452
0.019714333 1.7158926 -0.7641785
-0.25907326 2.0491781 -0.79737425
0.6954164 1.5346936 -0.2094031
-0.3545136 0.92748827 -0.34577322
0.6363243 2.0525122 -0.08387321
0.44560897 -0.23987335 0.7583246
-0.0049308576 2.0820627 0.6269037
-0.4149387 2.3301535 -0.4982124
-0.11946079 -0.25185645 -0.063556656
0.74460804 1.5934111 0.51793647
-0.26501957 0.8318528 0.13201313
-0.18095821 -0.42130244 0.44739884
0.25547868 -0.0846829 0.54232645
-0.28952712 1.8500001 -0.095777124
-0.30602896 2.0741842 -0.28095227
-0.50433296 2.094877 -0.33866385
-0.40029573 1.6925142 0.81438875
0.3368852 1.26721 0.7288035
-0.5490746 -0.084981374 -0.5484108
0.09468863 -0.08315295 -0.6658697
0.19968432 1.6777997 0.08838418
-0.8077359 1.8953134 0.38918108
0.3619848 1.5654272 -0.6332248
-0.6921747 1.5227957 0.5794591
-0.4594555 1.834094 -0.5849013
-0.11930823 1.694854 0.54643124
0.041036293 -0.2617517 -0.18452176
-0.7716452 -0.24315587 -0.10508303
-0.019743197 2.3275776 -0.3685507
-0.32745785 1.6988688 -0.21909842
0.26476088 1.7403184 0.6704531
-0.262482 -0.25376832 0.38151008
-0.50632787 1.1868794 0.1950497
-0.5337161 1.7961987 0.19065079
0.22798741 0.8249913 0.16280219
-0.12624402 2.0492728 0.23451853
-0.9032666 -0.40407568 -0.110640034
-0.5792568 -0.4054937 -0.91647285
0.5306774 1.278661 0.6026899
0.080982015 1.9252472 -0.70008516
0.2467106 2.1682675 -0.7441984
0.42950156 2.088698 -0.7010323
0.059091248 2.03418 -0.19766802
0.35484672 -0.085195936 -0.18455726
-0.51873934 -0.4214105 0.26408434
0.09764696 -0.083747104 0.4559044
0.0440768 0.7967558 0.14397073
0.88101196 1.6101735 -0.21853094
0.665082 1.1151004 -0.24009296
0.73668444 -0.086333826 -0.90491813
-0.4299574 -0.25674328 -0.4777632
0.21466729 2.5725994 0.04761136
0.093276545 -0.24227288 -0.029824644
-0.21539986 -0.41416228 -0.4541647
0.40096134 1.3279345 -0.23365355
0.38705963 1.8293908 0.34872907
0.33882406 -0.4213006 -0.58790857
-0.309295 1.1112664 -0.6265061
-0.49971235 2.4533336 0.054375697
0.42819047 -0.4129441 0.620314
0.526978 2.429996 0.014317498
-0.08332628 -0.08655891 0.38294914
0.37412888 1.5681925 -0.433132
-0.30768746 2.5590951 -0.041678652
0.23720378 -0.40103465 0.91387695
-0.20360425 -0.082372636 -0.4081351
-0.10360603 0.82780063 0.25516543
0.13683026 1.42767 -0.51128304
0.38979304 1.8738085 -0.3000759
-0.6466309 2.0484667 -0.14201735
-0.28420186 -0.2522579 -0.16840053
0.82324713 1.9804444 -0.30635244
0.5475318 -0.41297713 -0.5007258
-0.44226563 1.5734234 0.3327399
0.111419156 1.7360601 -0.427225
-0.37857845 -0.25847438 0.2400145
-0.44397193 -0.08774841 0.2488041
-0.20593897 1.8171659 -0.31776127
0.8946614 -0.09490724 0.9082092
-0.10008761 1.2404625 -0.35836673
0.92939615 -0.24961114 0.8581285
0.08409209 2.1970077 -0.28299043
0.21283674 -0.41572088 0.10112217
-0.115978435 1.6367791 0.7452818
0.372509 2.5176883 0.10938513
0.18142426 0.91365814 -0.42667502
0.67460096 1.9432521 -0.25563625
-0.49306536 1.4753227 -0.23327802
0.44069403 2.0899596 0.69332707
0.7341052 -0.4165253 0.4288864
-0.57258487 1.954228 -0.66718125
0.52661127 -0.083115056 -0.33137956
-0.5440834 1.7423182 -0.7317642
0.7242942 -0.41659766 -0.3916058
-0.8985884 -0.09407331 -0.14425136
0.7655146 1.2112962 -0.09187986
-0.8678337 -0.09552801 0.9141042
-0.878443 1.8429465 0.1736604
-0.20575671 1.5752882 -0.12063506
0.27123725 1.248941 0.11762541
-0.24214023 0.9969429 0.011080895
0.3329983 2.350432 -0.17663673
0.2887197 -0.25033957 0.21720605
0.07546486 1.5126477 0.097040206
-0.17655416 1.5006511 0.5302079
-0.110074215 -0.26028383 0.91931534
0.5138652 1.6859775 -0.7523032
0.71341753 1.9587901 -0.48349535
-0.112432964 2.2204056 0.49281597
0.21269055 2.0035298 0.15862265
-0.1778998 1.9449756 0.8501079
0.26620477 1.8691506 0.03407059
-0.17605284 1.408784 -0.6432197
-0.5435947 1.0209091 -0.28917414
-0.7540209 -0.41341084 -0.003959949
0.12493749 1.9037578 0.6982088
0.71593815 -0.085255966 -0.19784057
0.7231345 -0.08340039 0.0057836194
0.48672685 2.2230787 -0.11849257
0.7061417 -0.4150936 -0.76332414
0.30420074 1.4721632 0.054828048
0.2520824 2.1862352 -0.13660827
0.5239132 0.9863374 -0.20002252
-0.4569778 -0.08439033 -0.73682046
0.57420695 1.0098988 0.15991071
0.2696778 1.4271243 -0.36083865
0.7044219 2.134993 -0.3845991
-0.47328264 2.2405329 0.1414184
-0.7644383 -0.2487337 -0.32130542
-0.42610607 -0.4165599 -0.18770726
0.77529 1.4380101 0.38202265
0.3533105 2.076794 0.0015002901
0.16246453 1.6512959 -0.9008875
-0.77190185 -0.25416 -0.5283915
-0.33599547 2.1522422 -0.46815437
0.26373732 -0.41125542 -0.27971488
-0.6402011 1.3034458 0.14763471
-0.68948054 1.7581996 -0.28539044
0.4342484 1.8115652 0.5551081
0.1032793 -0.2419245 -0.7644881
0.24646185 -0.08736504 0.3295458
-0.13536376 1.7095745 0.32134712
-0.59423167 1.6610647 0.01638142
-0.89163053 -0.41146576 0.3250058
-0.8577657 -0.4053256 0.9068918
-0.71474636 2.1035476 0.37554628
0.34794223 -0.41769844 0.77954876
0.6611226 1.4254315 0.5616137
-0.5734057 -0.25114465 -0.7892114
0.23011234 -0.2423349 -0.18900858
-0.8939707 -0.40502778 -0.73635674
-0.4247936 2.0641048 -0.69589907
-0.2335693 1.566776 0.37417406
0.63012457 2.3425398 0.14555182
0.54919446 1.8487368 -0.17466927
-0.61340415 -0.24440488 -0.014211828
0.7294548 1.7833037 0.13439657
-0.8975408 -0.4074819 -0.32814187
0.796199 1.6034734 -0.42633966
0.27302855 0.90287894 0.34633845
-0.6468241 2.324871 0.12032259
-0.73557013 -0.4148884 0.2143313
-0.40477335 1.475009 0.78411776
-0.7413218 -0.08626544 -0.60571915
-0.2144658 -0.4118903 0.9010924
-0.6565652 2.0153317 0.5526906
0.88298833 1.9018179 0.0925095
-0.74768794 -0.24270046 0.114839986
-0.024881104 1.2411854 0.31217477
-0.4562022 2.289692 -0.05449497
-0.54156756 1.2378614 -0.20503205
0.19941285 1.4193387 -0.6823418
0.18697783 1.6085317 -0.7258656
0.28667563 1.9707038 -0.8167924
-0.5467473 -0.41715348 -0.52854794
-0.42976397 1.7390265 0.6124621
-0.26148194 -0.086117275 0.31266963
-0.90310955 -0.0959257 0.35138616
0.09687343 -0.084588744 0.67352664
-0.44975573 -0.25100106 -0.08948946
-0.6810212 2.1302032 -0.4135351
0.45269662 1.3357806 0.10138753
0.3883172 -0.08317171 0.011121113
0.13117966 0.964977 0.517669
0.78396964 -0.24337077 0.11748335
0.48667908 1.4394234 -0.067174256
0.18797927 -0.07876514 -0.878009
-0.41006193 2.0944242 0.022781305
0.6027808 -0.24759586 0.42578387
0.30529773 1.4853792 0.40998656
0.48177904 2.2610545 0.19635698
0.12022954 -0.25209427 0.14794034
0.68597865 1.9804778 0.096036
0.5520113 1.8606589 0.2063466
0.0066507524 1.7370996 -0.5934477
-0.025963716 1.4827816 0.26821613
-0.39965266 -0.41852483 -0.3910446
-0.7267276 -0.090330645 0.6260686
0.5506761 -0.41586727 0.3335618
-0.9009552 -0.09383164 0.54352355
-0.62803686 2.2679343 0.31443465
0.027499221 -0.41673243 0.18679738
-0.67541754 1.7820687 -0.6050384
0.75137854 -0.25186133 -0.29785615
0.37771887 1.3003664 0.4502272
-0.015057538 1.6229084 0.913187
-0.9193412 -0.26840973 0.22178808
-0.22009093 -0.09294092 0.902542
0.1324901 1.8942454 -0.5157523
-0.848626 -0.405921 -0.91556156
0.32191485 1.5044358 -0.16309634
0.22577606 1.2594904 0.3017428
-0.6026138 -0.4105955 0.09854953
0.4648546 1.3495939 -0.4290238
0.21202701 2.3909922 -0.028370878
-0.40021753 1.8860066 -0.29859367
-0.9258022 -0.24680069 -0.64851475
0.89512897 -0.08735305 -0.28938586
0.624199 1.291484 0.016416656
-0.71094775 1.8918607 -0.12283568
-0.31406677 1.7182755 0.44684413
0.21261117 1.2957691 0.5553673
-0.5023302 2.0531 0.6799021
-0.036639623 -0.086813554 -0.3109696
0.506842 1.537301 0.11101285
-0.5322691 2.0509706 0.19896474
0.12707615 1.3931919 0.38044
-0.7296264 -0.4172631 -0.42751706
0.3987552 -0.41859034 -0.39650285
-0.074246734 -0.08484028 0.7598795
0.16268495 1.8366897 0.8853434
-0.48184252 -0.085263014 0.03582319
0.54498255 -0.42145765 -0.67985153
-0.4001444 -0.083580434 0.6447903
-0.014321068 2.2332635 0.12538403
-0.72392243 1.1406008 -0.008363776
-0.44505835 -0.41659856 0.018013682
0.183972 1.243023 -0.5647894
-0.6952565 1.1437023 -0.21075273
-0.10608439 2.487846 -0.4281279
0.42573637 1.1931746 0.27656245
0.54044044 1.6266862 -0.123649836
-0.04878939 -0.2501912 0.103036314
0.5829136 -0.08536695 0.5341658
0.094937935 1.4475207 0.86579895
-0.69290423 -0.41276157 0.5979013
-0.24274722 1.553255 0.8671638
0.5144837 2.0166807 -0.38104194
-0.8884442 -0.088612035 -0.73606014
0.89794266 1.678349 0.14651366
-0.5976472 1.957751 0.36727965
0.18123947 2.0883412 -0.60235554
-0.08164672 -0.41350743 -0.32238263
-0.29420435 1.9026538 -0.63216
-0.22886528 2.3708272 -0.56407034
0.5707688 1.6449637 0.51431894
-0.40039054 -0.08565585 -0.42297417
0.2578913 -0.18262196 0.92919475
-0.76699454 -0.24216574 -0.743868
0.69293094 1.9097912 0.29907006
-0.45327634 1.9846171 -0.48481464
-0.3443879 1.7192993 0.22929204
-0.31448358 2.2240489 0.427581
-0.33182025 1.2855216 -0.7418996
0.06362325 1.5355415 -0.36089748
0.07928144 1.700064 0.76410604
-0.60238695 1.9396826 -0.30463645
-0.018986627 2.264422 0.7023981
-0.18763067 2.3607779 0.36539796
-0.020518824 1.1067454 -0.040190734
-0.074217975 2.6009953 -0.10495101
-0.070425525 2.0967984 -0.031638913
-0.010109026 1.2804451 -0.1644564
0.039458863 -0.08202332 0.058557726
-0.5429357 1.6042017 0.72049546
0.20689455 1.5638664 0.70704985
0.732703 -0.41750816 0.22582568
0.43219548 -0.2557723 0.08109417
-0.89426994 1.4729757 -0.021536177
-0.525689 1.1964805 0.007095646
0.16420859 1.1680984 -0.04918334
0.07075463 1.854018 0.10494203
-0.41058946 -0.084479466 0.8869002
0.27029747 1.9568305 -0.14254366
-0.33984077 2.4626899 0.36803487
-0.50210136 1.5674875 -0.7460674
-0.2491745 1.2561333 -0.2349228
-0.9231592 -0.25593925 0.8711469
-0.32809705 1.3969103 0.6114119
0.36733854 -0.41903535 0.43580097
-0.24147765 1.8759055 0.27559322
0.045676164 -0.4159804 -0.01724908
0.33419818 0.99687785 0.50584614
-0.46478623 1.5847279 0.13542192
0.19703591 -0.41404867 -0.45256633
-0.47812885 1.2979784 0.33426523
0.18415102 2.2102733 0.06748149
-0.011529319 1.3776685 0.49626595
0.84541523 1.4030867 -0.14160684
0.19507189 -0.08195569 -0.07896521
0.63515973 1.052985 -0.036106173
0.19425377 1.779763 -0.6703187
0.36134392 1.1882668 -0.65891224
0.08838601 1.7158647 0.5708827
-0.13862307 -0.41474664 0.06738959
-0.18342401 -0.08396487 -0.19403817
-0.5489925 1.4109358 0.66600955
-0.5400429 2.1573768 -0.5645324
0.90144557 -0.4071791 0.120064706
0.82230806 2.0234904 0.23960882
0.5686517 -0.41253558 0.7429429
0.048399735 2.2348304 -0.724514
-0.24780506 -0.2521912 -0.58711946
0.5256913 1.9782821 0.39712453
0.89796597 -0.40819976 0.5328927
0.27870068 2.363378 0.16981256
0.35498017 -0.0873425 -0.90754825
-0.078878894 2.096434 -0.80531037
0.14387706 -0.077231936 0.87748575
0.017478785 2.4278378 -0.02137911
-0.19339055 2.5395622 0.271227
0.28672305 2.3817637 0.522113
0.6158946 2.272965 0.3433889
-0.57372355 1.8067696 -0.4352407
-0.25345868 -0.08780995 -0.7476508
0.71983725 -0.08490743 0.87846804
-0.72347844 -0.0829498 -0.2175427
-0.4450472 -0.24817812 -0.63799757
-0.4508562 2.4745474 -0.13227624
0.6196302 1.8263156 -0.64904356
-0.6367295 1.6211159 0.2663105
-0.34043938 1.6984402 -0.65165347
0.34330314 1.3851113 -0.56293684
-0.12706766 1.4056292 0.68266094
-0.3509161 1.3486415 -0.5561773
0.36545807 0.8821704 -0.16612417
0.8597538 1.4692388 0.19168141
-0.35236967 -0.42016885 0.35376066
-0.34260768 2.2241518 -0.6585387
0.20395434 1.6298141 0.8909902
0.738992 -0.08391413 0.42898047
0.38328415 2.3001268 0.019296251
-0.92479706 -0.2532918 -0.43151182
0.44079423 2.2451625 0.568887
-0.19567487 1.0122749 0.56530845
-0.88183165 -0.41404384 0.52507097
0.50297076 1.6989956 -0.5249627
0.48618692 1.4598033 0.50248253
-0.37094885 0.9861436 0.4400638
0.4817285 1.4229317 0.7238785
-0.15199903 -0.2561947 -0.7625017
-0.70922935 -0.26089805 -0.92721057
0.3981834 1.9659157 0.19293544
-0.08453061 -0.24387065 0.6431159
-0.15999824 -0.09080911 -0.91578233
-0.8669815 1.6822218 0.2869928
0.071881264 1.1435935 -0.24647138
0.5775093 -0.08791739 0.7481147
-0.04205173 1.5712185 -0.5175434
0.1853438 2.552625 0.24183074
0.23995739 -0.41882777 0.6141817
-0.49274498 1.2119968 -0.5886518
-0.31691667 1.2690378 0.06795667
-0.5790081 2.3530521 -0.2310847
0.035830773 -0.24682531 0.4742988
-0.647203 1.7068617 0.6186095
-0.795966 1.5090986 0.37935913
0.75153375 -0.25327146 -0.09144041
-0.2569644 1.9544874 -0.4384949
-0.05259885 1.8744553 0.25335932
0.71634203 -0.085354105 -0.3928755
-0.6806886 1.9801992 -0.5168577
-0.8216313 1.3128638 0.07954474
0.5690212 -0.08379703 0.3221667
0.25204274 2.1960835 -0.4598146
-0.112289056 2.180593 -0.21200088
-0.26642632 2.3809414 0.5420157
0.40629345 2.203508 -0.31338853
-0.5230154 1.7499626 0.40503877
0.27504647 1.023784 0.040781
-0.23222303 1.0142527 0.21496658
-0.4245078 1.5671353 0.54291683
-0.09245744 1.4221411 -0.269538
0.31998444 -0.23758714 -0.77994895
-0.15911809 1.3698558 0.35505807
0.6275631 -0.27548212 0.07646969
0.6516823 -0.24982959 0.24884191
-0.40003785 2.2580612 -0.29095772
-0.15407652 2.2419705 -0.7112068
0.10412485 -0.4147675 -0.6229929
-0.19136378 1.6117246 -0.8895245
0.64641166 -0.24417867 -0.9181151
-0.65839946 1.2046127 0.37091485
-0.59819925 -0.2630256 0.27194932
0.5751116 -0.41497272 0.52569604
-0.15131475 1.7766716 0.095004715
0.3008856 1.9421128 -0.6329193
0.0038076239 1.5439785 0.6539258
-0.6968269 1.7945619 0.2954355
-0.18192601 1.2643911 0.53698736
0.8973075 -0.09118981 0.7336422
-0.57043254 2.2799573 -0.398494
-0.5856439 -0.08929525 0.35550535
0.35679597 0.93001616 -0.34097296
0.31433675 1.9171485 0.6657959
0.26970702 2.0138192 0.8174465
0.6849031 1.6934172 0.32454214
-0.18518963 1.3716229 -0.07361155
-0.14254123 1.3816283 0.13883023
-0.6244191 -0.24872568 0.4839997
0.13243717 1.434242 -0.21428378
0.9201304 -0.25028133 0.64497936
0.14187476 1.8496038 -0.8830637
0.4131996 -0.25137487 -0.28892875
-0.5806387 1.0055523 0.10068287
-0.48246863 -0.2621854 0.59428
-0.35702986 1.237945 0.47125334
0.92627245 -0.24830219 0.4392332
0.5971283 -0.25147364 0.64952636
-0.55748206 1.9400048 0.01712998
0.5271824 1.6805367 0.23572442
0.8469739 1.6168382 0.33200765
0.12475555 1.0656903 0.33959258
-0.4077498 1.3375535 -0.33714265
-0.7784159 -0.25551903 0.5348366
0.22903071 2.5280156 -0.29054555
-0.013339251 2.355166 0.32702583
0.54221475 -0.08658515 -0.90972126
0.19909179 1.099683 0.6483705
0.09648703 -0.25893214 0.9268427
0.6565521 -0.08357354 -0.7396878
-0.005429607 1.8832657 -0.2950717
-0.10580043 0.7898559 0.023886599
0.46911836 1.8965552 -0.7541796
0.15143812 -0.08394956 -0.28446966
-0.786307 -0.2546203 0.7285961
-0.7411006 -0.082936965 0.43564463
0.50508535 1.7299722 0.7405998
0.19179997 1.8684074 -0.30223045
0.09462561 1.9588892 0.31522036
-0.3945478 1.2644475 0.7032882
0.586706 -0.2457544 -0.21923885
-0.2129598 1.7482163 0.88115823
0.7803905 1.7754698 0.46654052
-0.59794235 1.434066 0.30232793
-0.16788971 2.4576633 -0.035951927
-0.620345 -0.40423566 0.90508115
0.22649473 -0.24501857 -0.3750281
-0.59517527 1.1599174 -0.4177669
-0.42841113 2.442258 -0.31476128
0.7828318 -0.24858427 0.34098297
0.91697 -0.24291053 -0.592394
-0.1543056 -0.088010415 0.00366802
0.02930329 1.9020283 0.5314289
0.335584 -0.08489148 -0.35931456
0.59502846 1.5736537 0.68282497
0.547253 2.1529317 0.05268814
-0.7055229 1.8301766 0.0623371
-0.40856245 1.8842938 -0.7900943
0.8989457 -0.40754324 -0.084798425
0.68019104 1.2633171 0.4501723
-0.1725966 1.2344515 -0.55054677
-0.3804836 1.1090105 0.30773565
-0.3472733 1.215611 -0.44462854
0.054690436 -0.2565006 -0.35647303
0.70025164 1.4325373 -0.53389454
-0.5088908 1.6463027 -0.5360808
-0.054687336 1.8316779 0.70740175
-0.67771214 1.9653306 0.17901401
0.27742207 -0.0824365 -0.6962799
-0.8948605 -0.40704653 -0.53761506
0.007703362 1.3158913 -0.64627075
-0.2823665 1.5906308 0.6657963
-0.051965985 1.3928632 -0.474831
0.892843 -0.40785146 0.73396224
0.22529869 -0.0842579 0.124174766
-0.2320164 1.4006405 -0.4131729
0.05936581 2.2380805 -0.08680233
-0.44820076 -0.25127107 -0.28674424
0.901007 -0.08916669 0.5331725
0.8886322 -0.4010449 0.9068713
-0.059728086 1.9067285 -0.05017992
-0.5099702 1.4122856 0.48207593
0.57279253 2.308468 -0.3483987
0.3063118 -0.40308625 -0.91682255
-0.2997063 2.1947038 -0.12263684
-0.56072766 1.0325933 0.29370546
-0.38405108 1.5471249 -0.39272392
-0.14474714 -0.40962398 -0.9089973
-0.17073128 2.2113776 0.27673844
0.41211843 1.417 0.26496428
0.29069084 2.2158022 0.6910354
-0.36724454 -0.4155134 0.54774594
0.537918 1.2299607 -0.3082193
0.20646891 -0.4135121 -0.76052713
-0.13229609 2.392891 0.15335098
-0.53324294 -0.08491723 -0.14566207
0.53962636 -0.10192838 0.916932
0.7304262 1.1501782 0.10882285
0.53777254 -0.07311976 -0.12531978
-0.21218912 -0.25753838 0.76632667
-0.04445868 1.7354894 -0.91857886
0.119202375 -0.41904438 0.75279486
0.26654184 -0.2456241 0.013062792
-0.32888466 -0.41843396 0.1535027
0.22201252 1.0196921 -0.19848306
-0.0034609954 1.5291381 -0.8894716
0.24634062 -0.25667447 -0.6137934
-0.10903969 2.1199722 0.7941977
-0.050932556 2.3956296 0.57274795
-0.22819042 1.8544896 -0.87180257
-0.45225912 -0.25793445 0.40768445
-0.15193886 2.590455 0.0943064
-0.1288293 -0.25841403 0.48074645
-0.3582299 1.5151699 -0.6258953
0.07708442 1.3312696 0.17298289
0.23042095 -0.2627532 0.77636105
0.93342817 -0.24805874 -0.7817371
0.4461732 -0.25424942 -0.6219311
-0.30195904 -0.25368893 0.030533422
0.29391742 1.9748292 -0.4398116
0.72352725 -0.39942795 -0.91933656
-0.7182003 2.2013762 -0.23506054
0.08753528 2.3973203 0.1522297
-0.37670565 1.0836618 0.10617033
0.17698148 2.3368034 -0.618508
-0.9264318 -0.2605816 0.43001604
0.4564628 -0.24804395 0.5293964
0.40736914 -0.25440782 0.358584
-0.91327333 -0.10590475 0.17173335
-0.5079133 1.3837608 -0.6945981
0.40326995 0.8999676 0.16665927
0.37373734 1.1211902 -0.29380664
-0.3083691 -0.08600675 0.123125345
0.019572265 -0.08337408 -0.47759777
0.6829785 1.4817433 -0.007966122
-0.40877277 -0.24102078 0.75995433
-0.26587707 1.0202541 -0.19353607
-0.06608768 -0.25083703 0.2945419
-0.22872914 2.1800303 0.08679907
-0.4323718 1.6039495 -0.10078977
0.7593785 1.2749457 -0.28560585
0.9037404 -0.08735453 -0.48872945
-0.3098932 1.8949625 0.4928903
0.10572793 1.3936155 0.68156165
-0.3096106 2.0915852 0.7630857
0.5177664 1.1245731 0.47000805
0.22783789 1.2520366 -0.2211614
-0.65458524 1.5423669 -0.61827004
-0.198129 0.9418049 -0.49133903
0.38865596 -0.4196689 0.016925074
0.087353036 -0.40491116 -0.91163015
-0.15392502 1.9730785 -0.2212073
-0.7367767 1.5103393 -0.042501334
0.3865296 1.1504729 0.6088283
0.011505774 -0.4112445 0.908268
-0.028001918 1.8142681 0.9032282
0.4813754 2.4330087 0.23648933
0.40063784 -0.08434746 0.21772864
-0.42057627 1.9104791 0.3192334
0.038241066 1.1317711 -0.71600866
-0.4699996 1.3752584 0.13199602
-0.19736603 1.5808434 0.19006711
-0.09658513 0.9438753 -0.09982644
0.2692061 -0.08886066 0.73323023
-0.9114174 1.6646314 0.06460198
0.47632867 1.9106932 0.751391
-0.7478514 1.6614181 0.12805375
-0.0015438031 2.5568986 0.2714864
-0.730139 -0.08577494 -0.90213704
0.41092408 -0.4192325 -0.18052664
-0.11327052 1.1002692 -0.22069804
0.12978002 -0.2546926 0.612485
0.8957639 -0.087781735 -0.09080359
0.889524 -0.08287409 -0.7069509
0.56374764 -0.41460773 -0.293297
-0.15527384 1.964283 0.644711
-0.49369287 1.6860557 -0.30266908
0.3365989 1.6134336 0.22871152
-0.29565814 -0.24663995 0.5816902
-0.4013639 1.1354433 -0.28637466
-0.42521077 1.0424303 -0.47912568
0.373923 1.3680611 -0.7644541
-0.6525909 1.3345932 -0.54019177
0.557446 1.3270159 0.360085
-0.6402215 2.3368697 -0.06705762
-0.081383415 2.0299063 0.4338858
-0.60526204 -0.09499511 0.15623522
-0.7334014 -0.0852371 0.800054
0.49809784 -0.24942693 0.22845098
-0.039424166 0.79288507 -0.18028398
0.17688297 1.0955491 -0.3981992
0.18699434 1.4443958 -0.8605844
-0.02697746 2.3839557 -0.59566855
0.73796684 1.9588685 0.47347012
0.31282565 1.2347494 -0.429362
-0.36159095 -0.085834526 -0.25356632
-0.8283619 2.013494 0.2444562
0.1609481 1.5273871 0.52324927
-0.12425507 1.056178 -0.62743306
-0.42506248 0.9096659 -0.16884285
-0.8404149 1.6407945 -0.32843733
-0.5754863 1.3482976 -0.37629944
-0.4025454 2.227237 0.61859345
-0.20326369 1.1786395 -0.054039605
-0.107476115 2.498414 0.43582404
-0.9240104 -0.25523525 -0.22080469
0.5677991 -0.4076051 -0.07613118
-0.8711811 1.8308207 -0.23686379
0.85782135 -0.25053042 -0.9290364
0.46540302 1.8947761 -0.52759904
-0.22566298 1.0897138 -0.39709425
-0.3994614 1.3258505 -0.1040983
-0.32950163 1.4503157 0.22652617
-0.12286262 1.7530832 -0.14578709
0.042931475 0.96373427 -0.2305935
0.5782803 1.810616 0.42913035
0.7549181 -0.2507317 0.543391
0.89495957 -0.40771633 -0.6841759
-0.060365815 1.7129022 -0.37631282
-0.39935255 1.107682 -0.09250951
0.36434922 2.2574372 -0.61930686
0.40873313 -0.25519353 -0.10641691
0.41067016 2.445331 -0.31512722
-0.2319634 0.89784694 0.36887807
-0.2337006 -0.08466963 0.5157293
0.22062099 -0.41227192 -0.09476298
0.09763374 0.78643167 -0.03943052
0.64773566 1.4098421 0.18599588
0.35690123 2.526595 -0.10640578
-0.9012385 1.6435457 -0.14074348
-0.02586176 -0.097271815 0.91572845
0.8944975 1.5364857 -0.0061473213
-0.021469887 1.282407 0.028555354
-0.24891588 -0.085935116 0.715909
0.36695522 1.0927579 -0.10569848
-0.31433272 2.355961 0.04143832
0.3434192 1.2905369 -0.058272228
0.19704984 -0.2453979 -0.9266859
0.08192141 1.7118274 -0.2262055
-0.22481291 2.5495281 -0.23848775
0.572116 -0.085595325 -0.5397328
-0.33368927 2.0808725 0.21192077
0.4392241 2.325601 -0.47093773
0.5829804 1.8201962 -0.3874612
0.9011022 -0.08687463 0.11174381
0.5936805 1.5196416 0.3403889
0.58039224 1.2257618 0.18390903
-0.3577128 1.1105638 0.59911716
0.22196236 2.3177035 -0.33472538
-0.42645204 -0.40828896 0.89661705
0.121113464 2.0675788 0.45464486
-0.73296857 -0.2513302 0.9190475
0.35689396 1.565103 -0.82905287
0.5702984 -0.24643698 -0.42062575
0.6897917 1.7260666 -0.23796752
0.5661276 2.1832361 -0.51937604
0.35142922 2.1479678 0.17732963
-0.8470738 1.468939 -0.23687467
-0.8161068 1.2999715 -0.1284145
0.39583963 -0.41093463 -0.76482964
-0.6681926 1.4128546 -0.21978737
0.7105393 2.11371 0.37011808
0.7283726 -0.41717684 -0.18653657
0.7312243 2.1938615 0.18138659
0.7380421 -0.084409565 0.6495991
-0.6163579 -0.2540419 -0.6166414
0.019163776 1.6972287 -0.0152582675
-0.25489664 -0.41495866 -0.2599898
-0.41282266 0.91591245 0.23522359
0.20684195 -0.08620985 -0.4967406
0.14626902 1.2387481 0.7804571
0.0989846 2.47011 -0.45261148
0.4376592 1.692385 -0.28024244
-0.64721304 -0.08260785 -0.74195063
0.16522156 2.3494396 0.34011298
-0.58456194 1.0121491 -0.093140796
0.31630105 -0.25059527 0.6191002
0.009321503 2.5582108 -0.28571686
-0.33282736 1.4148529 0.417217
-0.3290999 2.310999 0.23619217
0.9016202 -0.4076599 0.32561904
0.21531448 1.8062472 0.2558698
0.029208925 -0.24361217 0.7733531
-0.788625 2.0036473 -0.32184595
-0.53459555 1.7971685 -0.14863789
-0.510488 1.8856122 0.52895117
0.22090264 1.4480321 0.21348381
0.6295232 1.4175756 -0.36097455
0.5710351 -0.20549433 -0.04676117
-0.71250355 1.1461444 0.18734825
-0.6215316 1.566143 -0.38049915
-0.31841326 1.4783316 0.024981935
-0.2797606 2.4548192 -0.39926478
-0.8425704 2.0312135 -0.14249472
0.16300946 1.5787024 -0.082909584
0.6748496 2.2758837 -0.2038576
-0.9320024 -0.25724053 0.6374024
0.4870268 -0.41446555 0.906296
0.7069908 1.8530755 -0.05936277
0.16790509 2.175543 0.26171488
-0.3336369 -0.085324004 -0.07141529
0.034994088 1.9962026 0.8505559
-0.76849055 2.1926708 -0.03127804
0.057100743 1.7675589 0.38564873
-0.2308495 1.5780797 -0.5133256
0.06737348 -0.086373344 0.2527118
0.10883573 1.1926291 0.46809992
-0.12625821 -0.41616195 -0.6127327
0.2691561 2.1873403 0.47915453
0.9003948 -0.40662053 -0.48443747
0.19907504 2.0702496 0.61832273
-0.44550055 1.7744977 0.011774723
0.39059657 2.020312 0.52339447
-0.20312956 1.1284652 0.3851543
0.08674887 1.1421618 0.1453203
0.442325 2.030026 -0.17389187
0.73656964 -0.41957456 0.020842034
0.0048654536 1.2384862 0.6273654
0.07971153 2.2497666 0.4960571
-0.2623645 2.0460289 0.38198835
-0.045175493 1.9247766 -0.8761721
-0.33608705 1.4789441 -0.8147907
0.14377692 2.333851 0.63640344
0.531106 1.0519965 -0.38552395
0.8970988 -0.40813252 -0.28470725
-0.5754986 -0.4153411 -0.31758487
-0.051483303 1.0265691 0.29268664
0.032694712 -0.091207534 -0.91598177
0.5678943 1.7291234 0.034933724
0.10930092 2.4819748 0.45326948
-0.74974024 1.286003 -0.33649117
-0.18832648 -0.41246796 0.62018263
0.5683505 2.0733614 0.22513989
0.22509485 1.8830292 0.48512977
-0.4301396 0.89700013 0.023510445
0.52359617 1.4997272 -0.5231614
0.011849077 1.6792924 0.19534208
0.7637806 -0.24167977 -0.74164605
-0.13182724 2.2822018 -0.040797267
-0.32457647 -0.41530317 0.7394148
-0.08544958 -0.4147926 0.76045287
-0.61564815 -0.25325477 0.7244934
-0.15806766 1.585163 -0.7044804
-0.25115937 -0.25650638 -0.9232259
0.731995 -0.41415414 -0.58340156
-0.6046264 -0.25043678 -0.42375898
0.7713712 1.280972 0.25729102
-0.13144642 -0.085508406 -0.5908745
-0.013723666 2.0801787 -0.60120165
0.6591542 1.2420588 -0.45359963
-0.36446744 1.9062529 0.1053337
-0.18767355 1.5963991 -0.3307734
-0.54930675 -0.09056172 -0.9142853
0.25872862 1.6958784 0.45250994
-0.8660382 1.4970134 0.18521753
-0.27931887 -0.24681595 -0.37518096
0.52937376 -0.4106387 -0.8994869
0.37473837 -0.253963 -0.4684254
-0.7008567 -0.41815224 -0.7990187
-0.3201366 -0.25294054 0.9252841
0.3832078 -0.4173413 0.22388378
-0.011356361 1.4549539 -0.06551024
0.015404178 1.171243 -0.509059
0.8108772 2.1118326 0.030392911
0.7032378 -0.4172505 0.8795047
0.47887883 0.92736495 -0.009237889
-0.560035 -0.08628942 -0.33410573
0.62793636 1.3568406 -0.17077279
0.5344911 2.4104915 -0.16661012
-0.10698715 1.9193306 -0.68599874
0.637712 1.1179258 0.31335533
0.070362456 2.2324328 -0.49458063
0.8959253 -0.40675738 -0.8795458
0.5403586 1.3172795 -0.6278198
-0.7861672 1.3332281 0.28174812
0.43401837 1.6374865 0.39462095
0.5453491 -0.25407094 -0.7777084
-0.35549444 -0.08856249 -0.91163516
-0.1474671 1.2137063 -0.75723827
-0.0465454 1.1146424 0.48179215
-0.20984583 -0.24726406 0.1788542
-0.2533276 2.0296288 -0.07112479
-0.042131692 1.2623537 0.8065352
0.15159392 1.6030259 0.30909604
0.29249132 1.1281939 0.424505
-0.92432094 -0.24967778 0.0052003544
-0.04136339 1.0374624 -0.39100286
0.11928718 2.1547523 0.7770276
-0.8294493 2.0196977 0.048224464
0.36852372 1.7528393 -0.64962685
-0.11160298 1.5691073 0.039753333
-0.64752096 1.59991 -0.18604411
0.5939093 2.1423292 0.52503175
-0.05535191 0.9168378 0.47002393
-0.519544 -0.4193942 0.70727664
0.7088635 1.5910518 0.1555766
-0.28492007 2.3741798 -0.17669694
-0.6470982 1.3209537 -0.052045956
-0.18114099 1.963803 0.08876033
0.48289573 1.4985855 -0.27524218
0.9034277 -0.08774398 0.32277
0.2510502 -0.25111055 0.44444954
0.2401167 1.6276958 -0.30721325
-0.548437 1.243818 0.56756306
0.13533658 2.5834439 -0.12228426
-0.0048185615 1.0610274 0.666988
0.031216614 0.96914977 -0.55367315
0.5021095 1.940821 0.021440908
0.3233875 1.4254106 0.6155317
0.6285487 -0.2518407 -0.6135845
