0.6309587 1.3451114 0.46653277
0.5246881 0.43576902 0.034060054
0.47833493 1.4796975 0.21682584
0.7437272 -0.25223932 0.75583327
0.4504054 0.9657962 0.50222576
-0.5396836 0.892663 0.40334833
0.104407825 0.113124326 -0.3800732
0.70406973 1.1647116 0.5034458
0.24768871 1.657206 -0.63865787
0.7686281 -0.24773952 0.9335756
0.45683354 -0.08706245 -0.7257706
8.214709E-06 -0.40726984 -0.46932518
0.040572256 1.3317213 0.014114055
-0.71841 0.93667215 -0.14128828
0.32364032 1.3373395 0.21438581
0.086684555 -0.20374016 -0.52290285
0.38492122 0.37745193 0.20158607
-0.33170837 -0.076070815 -0.57340556
0.14635372 0.544197 -0.4155606
-0.90371025 -0.094347745 0.72879124
0.4869363 1.6837811 0.25457996
-0.5997386 1.3677061 -0.07811265
-0.46617493 -0.2526936 -0.9240155
0.42294544 -0.08415288 0.63992655
0.25731164 0.28645387 -0.64686465
0.8729545 1.2720605 -0.24265835
0.8948976 1.1022849 -0.3282537
-0.26597178 0.9483819 -0.034457654
-0.23193182 1.4906157 -0.48217183
0.25808382 0.110577255 -0.2398643
-0.4242503 1.2087932 -0.23437116
-0.7354499 0.64767385 -0.45339188
0.015718868 -0.08858277 -0.13672477
-0.72945184 1.4145002 0.07294349
-0.72232896 -0.08687507 -0.4253152
0.32807696 1.0073392 -0.55478984
-0.5836214 -0.41375867 -0.10789746
-0.31135613 1.2590547 0.5389473
0.09293097 1.2777894 -0.5282192
-0.25131702 0.71229875 -0.25073087
-0.06876008 1.13241 -0.5844023
-0.19157648 1.1139967 0.584921
-0.741369 -0.08087907 0.2155171
0.2396965 0.44538456 -0.80789506
-0.063512534 -0.092029355 -0.76571286
0.7615433 -0.25242388 -0.4901539
-0.4997885 1.163845 0.6362252
0.58723676 1.2651892 -0.7382796
-0.0960644 -0.21654278 -0.45931873
-0.16275129 0.93848515 -0.8139475
-0.091444716 -0.050042614 0.17544058
-0.7764349 1.0081934 -0.49476713
0.41123316 0.93082094 -0.12230671
0.1466279 1.3103943 -0.1474892
0.21976301 0.82735175 -0.61298877
0.9227694 -0.24831162 0.0138783045
0.055303827 0.50659 -0.8732875
0.8471079 0.7187182 -0.42820406
0.68703103 1.581888 -0.20798738
-0.19229005 0.11486024 -0.08725469
-0.40038323 1.3476324 0.3825423
-0.11077336 -0.22339249 -0.27047038
0.8943026 1.1792812 0.1584883
-0.72024155 -0.42031884 0.77468216
0.39338675 1.1763757 0.72671723
-0.49729657 -0.4195764 -0.72884786
-0.7289597 0.82544565 -0.5400898
0.20922774 0.27586156 0.1622873
0.36406255 0.8006276 0.75037056
-0.5637661 -0.08975455 0.522429
0.7398835 -0.087907895 -0.581144
0.8395382 1.0597105 -0.4938702
-0.14430854 1.4305377 -0.64543086
0.35617477 0.14488813 -0.04345817
-0.021112245 -0.41371495 -0.76056695
0.7270369 -0.4186532 0.6489053
-0.13211277 0.57276034 -0.88607424
-0.45799673 0.6242336 -0.5301353
0.0495047 0.88876146 0.36064148
0.5659904 -0.06442073 0.115620926
0.1996777 -0.41134766 0.28287923
-0.3502679 -0.41395682 -0.58984685
-0.32174164 1.2266335 0.71729386
0.091809005 1.2482065 -0.9493921
-0.8908912 -0.098526165 -0.9131472
-0.7267059 0.9646487 0.4085158
0.079612955 -0.4251911 -0.25248033
0.42522055 1.0748755 0.02026398
0.5514829 0.3276771 0.30283508
-0.06647575 -0.07591089 0.55987644
0.09197676 1.6427004 -0.36086768
0.13718022 1.1014538 -0.20353994
-0.75906813 -0.24654263 0.31549358
-0.504269 1.6746647 0.11483151
0.43185097 1.110265 -0.19740689
-0.429151 0.40547645 0.4650237
-0.8562243 -0.079661496 0.020744946
-0.48385417 0.71267515 -0.08058206
0.74807405 1.0077295 -0.6383613
-0.21988922 1.2615247 -0.70884883
-0.1850416 1.5865458 0.5414882
-0.35506296 1.7762156 0.0041049253
0.55513036 0.7230092 -0.79719126
0.34768534 1.5953529 0.16709563
0.68319225 0.8556168 -0.71609765
-0.3940301 -0.08300961 0.40603223
-0.61504334 -0.09078483 0.9141073
0.41121256 -0.07792367 0.42976484
0.5901001 -0.2664398 0.9003767
0.92174834 -0.24656415 -0.3867213
-0.89532757 -0.40611959 0.104899734
0.7733207 0.96304286 -0.16022368
0.91888595 -0.24757278 -0.18488547
0.5511112 0.41349787 -0.57570636
-0.5346149 -0.42380476 0.48582512
-0.09589423 0.14374846 -0.30596018
-0.71437407 -0.41746283 0.40091032
-0.058641657 0.46324974 0.13423944
-0.33006608 0.94269323 -0.51585424
-0.87280434 1.0637995 -0.09678657
0.003967497 -0.41304964 0.5712416
0.18636516 0.2761882 -0.04692124
-0.67999685 -0.08432182 -0.038043007
-0.71381617 -0.4183278 -0.62359506
0.040150497 0.6900682 -0.763239
-0.8976644 -0.40533122 0.71810687
-0.9030969 -0.0920253 -0.52751124
-0.5987738 -0.2420283 -0.20672157
-0.35121948 0.84311116 -0.8982738
0.42588302 -0.25499043 -0.92288935
-0.5531312 1.4679947 0.39420497
-0.0053848797 -0.4102174 0.3666572
-0.15821114 0.6924678 0.76490223
0.32937336 0.97500914 -0.9401442
0.38677293 1.3362066 -0.6450721
-0.5140734 1.3852614 -0.27313292
-0.5209323 -0.24489439 0.913345
-0.4395411 -0.22237082 0.090405256
0.636481 0.88174963 -0.4832715
0.029870266 1.4656055 0.18868393
0.02135688 0.27538782 0.10264936
0.17948383 0.1683074 0.34965762
-0.2561021 -0.42170498 -0.7508645
0.38847393 -0.26198614 0.92349315
-0.20730118 1.4149737 0.45425922
0.3668586 -0.069002315 -0.5474884
-0.1668033 0.95734954 -0.6137012
0.88390577 0.656308 -0.017814808
-0.456536 1.4285779 0.21934289
0.38286746 -0.073866025 0.8677071
-0.00046331278 0.81204355 0.8127085
0.27446938 1.3291273 -0.42951193
0.3203851 1.7958739 0.16763279
-0.3554508 -0.26338148 -0.76745456
0.7366596 -0.085494295 0.22149709
0.30313128 1.0068126 -0.265639
0.46505618 0.97467303 0.71463287
-0.45817256 1.6213174 0.30946952
0.5469672 -0.41852403 0.12738642
-0.6606343 1.1307633 0.45957989
-0.09499537 1.1635973 0.35138145
-0.04093212 -0.23729965 -0.63082546
-0.53516537 -0.08252284 0.7319019
0.77990866 1.4165578 -0.34605843
0.22413766 0.6512096 -0.082226515
0.9389818 1.0594754 -0.15580618
0.58216304 0.4768405 -0.1702688
0.5790913 1.4033659 -0.41249633
-0.108160414 1.6295471 -0.35910058
0.41619685 0.28582627 -0.540511
-0.09378196 -0.41460544 -0.1442322
-0.7399155 -0.41660142 -0.21288097
-0.26566714 -0.41186112 -0.07286536
-0.21538231 0.5337564 0.24026003
0.9025921 -0.088298835 -0.8970877
-0.37012848 -0.4117772 -0.901796
0.12480166 -0.23844779 0.3150785
-0.89513916 -0.09208387 -0.33126074
0.0024957606 0.8339468 -0.2749051
-0.09419563 0.50759876 0.69273496
-0.6181488 0.7332347 0.09564547
0.017421223 1.8734382 -0.09462109
-0.10530442 1.3105559 -0.50386286
0.92632157 -0.24765098 0.22802241
0.15444943 -0.40950817 0.4533262
-0.032213476 -0.25737676 -0.91485035
-0.9158714 -0.2595299 -0.8711496
-0.17140982 -0.4070517 0.2502303
-0.6227111 0.64786255 0.4585004
0.027352042 0.8954811 -0.83489716
-0.2677154 1.2092917 -0.9044105
0.7288027 0.8181076 -0.3026278
-0.29376668 0.14584418 -0.32496005
0.64612323 1.346487 -0.23528773
0.4400683 -0.2413952 0.75539947
0.030987348 1.4108071 0.5019043
-0.436 1.5141581 -0.6302476
-0.10700393 -0.24189833 -0.08071512
0.80159056 0.96303034 0.4142958
-0.18664622 0.13101207 0.15596321
-0.18444976 -0.4175554 0.43726015
0.2489707 -0.08071804 0.53048706
-0.26416534 1.0805161 -0.18914771
-0.2994437 1.2868001 -0.38893178
-0.500549 1.292895 -0.43970355
-0.3358044 1.0301707 0.7423653
0.42649525 0.6397791 0.6667292
-0.54696244 -0.08678159 -0.54743755
0.08147319 -0.06815979 -0.6716193
0.23702213 0.9828938 -0.01809786
-0.77065974 1.1627097 0.3121428
0.3867284 0.78004885 -0.7185873
-0.6219378 0.8195834 0.53885984
-0.45015043 1.0091851 -0.65987885
-0.052879415 1.0223548 0.4656077
0.05310762 -0.265162 -0.188725
-0.76240456 -0.24877417 -0.10411939
-0.037274834 1.5485897 -0.5094472
-0.28926113 0.91969895 -0.3008888
0.32513535 1.0965922 0.56363285
-0.25302672 -0.22944549 0.36462748
-0.43010837 0.4588991 0.19027272
-0.5029824 1.0634592 0.11284349
0.32074228 0.13177665 0.15682673
-0.100492865 1.3277528 0.1325212
-0.89878553 -0.4049586 -0.104361475
-0.5793855 -0.40515158 -0.9161135
0.6060426 0.64690804 0.5413812
0.07888347 1.1282117 -0.8131459
0.22202629 1.375082 -0.8833087
0.41379476 1.308039 -0.8346764
0.0704238 1.2812619 -0.31839427
0.37808704 -0.054691013 -0.18293062
-0.5255825 -0.4151932 0.2882107
0.09546783 -0.043002307 0.43590397
0.12613359 0.106808625 0.16398576
0.9121176 0.9013449 -0.32222325
0.7284574 0.39936376 -0.28594142
0.7343885 -0.08583789 -0.90076125
-0.41400105 -0.24079552 -0.47350115
0.19794455 1.8514879 -0.12929314
0.102806345 -0.2326374 -0.034381393
-0.21505655 -0.4045372 -0.45411015
0.4600649 0.5942029 -0.29323277
0.42625427 1.150615 0.23009223
0.33292925 -0.416717 -0.5778785
-0.2649449 0.30847406 -0.6342181
-0.5089221 1.6935648 -0.089427784
0.42030543 -0.4128185 0.6141547
0.5098344 1.7267468 -0.16897534
-0.0797489 -0.04871647 0.37309358
0.40218166 0.81593215 -0.52191883
-0.33109593 1.7953336 -0.20003188
0.23247966 -0.39645904 0.9145325
-0.19940165 -0.031875987 -0.41751707
-0.016729658 0.13281819 0.28193122
0.16452982 0.6524822 -0.5744294
0.40917093 1.1413964 -0.4191825
-0.6331738 1.260972 -0.2435664
-0.27002853 -0.22543964 -0.1773795
0.827613 1.2554128 -0.45051748
0.5407609 -0.4113349 -0.4898414
-0.3769319 0.85193944 0.28290495
0.13683525 0.9662098 -0.52363276
-0.39074516 -0.22822875 0.24862546
-0.41877234 -0.0474779 0.20519184
-0.18920282 1.0452577 -0.41289657
0.8931701 -0.09474902 0.90854156
-0.035828825 0.4763633 -0.3896318
0.92820495 -0.24970494 0.8594785
0.083313584 1.4368308 -0.41851968
0.20549959 -0.40940648 0.09552862
-0.046236582 0.9847055 0.6686363
0.36089098 1.8109066 -0.068219304
0.27277493 0.15545207 -0.46385974
0.6767522 1.2214489 -0.39432952
-0.44704938 0.7049881 -0.27350822
0.46846434 1.4550945 0.54885983
0.72816503 -0.41741696 0.42851177
-0.5717338 1.1123817 -0.75403565
0.53131133 -0.062343203 -0.3132128
-0.5325686 0.89932394 -0.79526484
0.7213155 -0.41747174 -0.38621736
-0.89593 -0.09307975 -0.14245793
0.8232045 0.5178443 -0.1489653
-0.8668391 -0.0931755 0.9112793
-0.84319615 1.0835172 0.107664034
-0.15339874 0.8517683 -0.16010803
0.33558738 0.54230344 0.07207357
-0.16470128 0.29047802 0.023245296
0.32264912 1.6217146 -0.33300462
0.2855307 -0.22549975 0.21206418
0.1544969 0.8088991 0.035007842
-0.10656887 0.8239926 0.4712764
-0.112225845 -0.258978 0.9187876
0.52218103 0.9127351 -0.8513292
0.7218791 1.2013624 -0.6161904
-0.095401354 1.5341456 0.35407537
0.2324432 1.299216 0.034359917
-0.13437742 1.2939651 0.74381655
0.29306 1.1630852 -0.0811769
-0.14141396 0.59247446 -0.6903322
-0.48777193 0.23335999 -0.28060377
-0.7353705 -0.41541243 0.00267865
0.17662778 1.2519534 0.58510697
0.7140299 -0.08511096 -0.19004144
0.72615147 -0.08412476 0.012907628
0.4875241 1.508207 -0.27628195
0.70105493 -0.4157669 -0.7608222
0.358738 0.7796556 -0.02498267
0.2532127 1.4524127 -0.28132617
0.5979184 0.2664736 -0.22862282
-0.45609236 -0.0855898 -0.73597443
0.6533884 0.3310969 0.12513436
0.3088097 0.67186993 -0.42891014
0.6930936 1.3922231 -0.5534065
-0.46971428 1.4947368 0.022286449
-0.7564321 -0.25305575 -0.31786984
-0.41848785 -0.4086272 -0.19672409
0.8405468 0.78391314 0.30129474
0.36582744 1.363137 -0.13759473
0.17097175 0.84116435 -0.9798187
-0.7695552 -0.25510287 -0.52347803
-0.3453526 1.3456602 -0.5837858
0.24821919 -0.4006949 -0.28242204
-0.5769985 0.56032103 0.1555894
-0.6649593 0.9555964 -0.34889126
0.48176205 1.1647139 0.43411213
0.100388445 -0.23756711 -0.7559877
0.25300038 -0.042307213 0.31898248
-0.089949064 0.996346 0.23529789
-0.5557573 0.9032515 -0.04234706
-0.8923397 -0.41046208 0.318465
-0.8596125 -0.40327716 0.9058424
-0.6948154 1.3670129 0.27944142
0.33924955 -0.41693577 0.7749615
0.72904575 0.79427993 0.48086023
-0.57366943 -0.25176302 -0.7875351
0.23678069 -0.22297305 -0.20090729
-0.89438903 -0.40465 -0.73101676
-0.43268514 1.2280523 -0.79978323
-0.15674728 0.83679307 0.29326218
0.6291827 1.6562612 -0.044103272
0.5698487 1.1226714 -0.2924744
-0.59249675 -0.24626422 -0.0049959826
0.7651771 1.1125226 0.0030151485
-0.895851 -0.4083346 -0.32241976
0.8228224 0.86831605 -0.52674615
0.36887938 0.21822399 0.33158493
-0.64407074 1.5634699 -0.00625711
-0.7247306 -0.4150917 0.20778514
-0.32571426 0.8104111 0.7379099
-0.7423772 -0.08614008 -0.6064973
-0.21341628 -0.4106744 0.90158355
-0.62205625 1.300736 0.4652503
0.9102293 1.22889 -0.05229574
-0.7486447 -0.24231336 0.10479431
0.06113176 0.5390625 0.28335518
-0.46013883 1.522827 -0.1829046
-0.49470234 0.46558735 -0.19117182
0.22756627 0.6256249 -0.741351
0.20084135 0.80795157 -0.79916275
0.27622426 1.1759024 -0.93615127
-0.5411812 -0.41589534 -0.52550817
-0.37473541 1.0487127 0.5344175
-0.2392028 -0.025676891 0.2936347
-0.89999366 -0.09447252 0.34391457
0.09009196 -0.08739504 0.6596347
-0.43518347 -0.22247243 -0.09971785
-0.6829515 1.3045008 -0.51583004
0.50245094 0.6564207 0.05155753
0.40421453 -0.029334424 0.021371223
0.22774771 0.30309704 0.5074233
0.7798313 -0.24835658 0.12100101
0.53516936 0.7323787 -0.1462096
0.18693319 -0.080539316 -0.8855567
-0.3945638 1.3470567 -0.08523452
0.5959729 -0.24743396 0.42354023
0.3622504 0.8053273 0.33167934
0.48590243 1.5773506 0.025539145
0.11354515 -0.23621954 0.14472216
0.70713246 1.2973981 -0.049574014
0.5848091 1.1774037 0.08319889
0.016394412 0.9727305 -0.678023
0.016654756 0.7903198 0.19845122
-0.39535004 -0.41319734 -0.39347088
-0.7180363 -0.086361796 0.62290424
0.5406979 -0.41418907 0.32865107
-0.8954612 -0.09169025 0.5356302
-0.6155187 1.527457 0.19511682
0.02054688 -0.41158575 0.18002445
-0.66185945 0.93851584 -0.6690612
0.753767 -0.25326115 -0.2865429
0.46523437 0.64407456 0.38783374
0.06072125 0.9928903 0.8331555
-0.9195409 -0.26534298 0.21798849
-0.22297224 -0.09140509 0.8994291
0.13142365 1.1230166 -0.62357914
-0.85075307 -0.40558004 -0.9139941
0.35922235 0.76567066 -0.23842481
0.29549712 0.5756302 0.26468533
-0.56136906 -0.41168475 0.10480912
0.5047231 0.6045395 -0.4929741
0.19967154 1.666101 -0.19061321
-0.38665056 1.0939999 -0.38746244
-0.9252392 -0.24630563 -0.6435106
0.89452946 -0.086963184 -0.28758624
0.6669933 0.59673035 -0.04885552
-0.6886644 1.1064525 -0.20098275
-0.24267402 0.9869861 0.38144678
0.29478502 0.643877 0.4913939
-0.46277308 1.3622674 0.5776521
-0.012746458 -0.06286894 -0.3378344
0.5563825 0.8556691 0.0040055984
-0.5118185 1.3097396 0.09151491
0.17567863 0.7161398 0.3137493
-0.7253389 -0.4179205 -0.42533785
0.38531256 -0.4109449 -0.39224565
-0.08471723 -0.08440986 0.74868953
0.21349433 1.2037718 0.77957904
-0.4636748 -0.037759453 0.009037573
0.5390491 -0.420817 -0.67080796
-0.4038485 -0.08884773 0.6043372
-0.0060515497 1.5127273 -0.014029257
-0.6606524 0.3807654 -0.004053957
-0.42620176 -0.406596 -0.0080605075
0.23512408 0.46825355 -0.60099864
-0.6364182 0.36162668 -0.209837
-0.1370061 1.6982536 -0.58296967
0.49732217 0.5336615 0.22666764
0.5758985 0.9150634 -0.22446024
-0.058807556 -0.23846483 0.08919974
0.5808134 -0.08663319 0.53464204
0.17897946 0.81844366 0.79876304
-0.69382155 -0.4120502 0.59909034
-0.16387773 0.90535975 0.80139184
0.515478 1.2751417 -0.52076614
-0.8891902 -0.08823578 -0.7353108
0.93722904 1.0153058 0.034999654
-0.56445736 1.2358298 0.28006434
0.1766448 1.306159 -0.7320155
-0.083425276 -0.40485635 -0.32704547
-0.29261166 1.0846524 -0.72310984
-0.2572276 1.5611326 -0.70330215
0.6275519 1.0092534 0.403817
-0.39395002 -0.05321125 -0.41800734
0.25143927 -0.15233652 0.9272195
-0.7670046 -0.24196413 -0.7421875
0.72353506 1.2580264 0.16064449
-0.4572248 1.171494 -0.5799482
-0.31525677 1.0090425 0.1692634
-0.2978971 1.5107067 0.29648468
-0.2968562 0.46189278 -0.7691607
0.08981418 0.76986957 -0.43873894
0.14506972 1.0564508 0.6719786
-0.58825594 1.135366 -0.3921613
0.0033019013 1.6015539 0.55544996
-0.18767083 1.6542292 0.21411884
0.04859383 0.40414006 -0.055178832
-0.10281107 1.8457625 -0.27357572
-0.058408253 1.3534358 -0.15796283
0.047908925 0.5493475 -0.19628891
0.058214642 -0.065688476 0.048293598
-0.47403172 0.9228927 0.66452456
0.28064966 0.9237245 0.6227967
0.72598624 -0.41857046 0.2262688
0.4259755 -0.23142135 0.07684183
-0.8435775 0.68992555 -0.040543616
-0.4673435 0.43687466 0.011245277
0.23395756 0.46121886 -0.08551828
0.09578012 1.1409506 -0.0041635586
-0.41119182 -0.084266275 0.88549
0.2788052 1.2295423 -0.26857394
-0.34485543 1.7485412 0.21236926
-0.4845488 0.72787875 -0.78998506
-0.19300011 0.49688762 -0.25164437
-0.92478395 -0.25251758 0.86999094
-0.2513221 0.72386813 0.5738009
0.35886526 -0.41694123 0.42640436
-0.20641151 1.1542207 0.17465743
0.038162082 -0.4120999 -0.018055819
0.42376328 0.33826172 0.4746259
-0.4214257 0.8488182 0.08562032
0.18577862 -0.40844312 -0.44976342
-0.4113477 0.5845458 0.3140172
0.18966275 1.4924047 -0.077366814
0.06404005 0.7003184 0.45457083
0.8933017 0.70490843 -0.2233998
0.21868008 -0.05625293 -0.093193784
0.70516264 0.3542149 -0.07622212
0.19537911 0.9881871 -0.76756823
0.41062617 0.42101896 -0.70371115
0.14922208 1.0515652 0.47995663
-0.14927751 -0.41166103 0.06468025
-0.16784222 -0.034852043 -0.21677887
-0.4715497 0.72519124 0.63515306
-0.5508013 1.3268464 -0.6738536
0.8997162 -0.40802097 0.123414755
0.84351945 1.3628292 0.07983291
0.5604999 -0.4131383 0.7418288
0.02450877 1.4336631 -0.8597606
-0.24297978 -0.24035919 -0.5856994
0.5547025 1.318618 0.256496
0.8961915 -0.40810728 0.53491884
0.27509433 1.6606734 0.0064524985
0.35543638 -0.087632984 -0.90687096
-0.092127874 1.2794771 -0.91775393
0.1270463 -0.073700525 0.863847
0.002515195 1.6905434 -0.17688167
-0.20235199 1.819715 0.105562225
0.30011922 1.7177465 0.35362023
0.63534474 1.6121244 0.15740564
-0.5582863 0.98800015 -0.5075464
-0.26139486 -0.09266223 -0.74830383
0.71883535 -0.083107755 0.87602973
-0.72051466 -0.08529094 -0.22613823
-0.4445234 -0.2421999 -0.63202894
-0.4726277 1.6964754 -0.28012922
0.626217 1.0668716 -0.76265305
-0.58178186 0.88973653 0.21660218
-0.3246121 0.87688977 -0.716179
0.37612557 0.6156477 -0.62167645
-0.044112477 0.75187284 0.6353898
-0.29573166 0.53675175 -0.59438455
0.4502974 0.15707186 -0.19979477
0.90966606 0.8084073 0.10361852
-0.3497781 -0.41391975 0.3502394
-0.3594283 1.3955901 -0.7801634
0.27713233 1.0063181 0.8002669
0.73746717 -0.085260555 0.43063694
0.3766554 1.5854166 -0.1419968
-0.92379564 -0.25336337 -0.42558652
0.45394656 1.5926379 0.41353872
-0.09559867 0.34274247 0.5672308
-0.88297266 -0.41058868 0.5222838
0.5197171 0.94236296 -0.6296891
0.5575006 0.81780005 0.41581672
-0.27974218 0.29100606 0.44877988
0.5564885 0.8095132 0.6434177
-0.15338778 -0.25979367 -0.76398706
-0.71065986 -0.26146907 -0.92738914
0.42361957 1.2724143 0.06270237
-0.090308696 -0.23764026 0.6267352
-0.1649605 -0.09091325 -0.91670537
-0.81858003 0.93824685 0.23779586
0.13454428 0.41018713 -0.27303132
0.5749558 -0.08858975 0.7462933
0.0019344987 0.8001453 -0.6166992
0.17446029 1.8496587 0.06778143
0.23330069 -0.4188425 0.60473967
-0.45308244 0.3953562 -0.60583997
-0.25849694 0.52670985 0.051784936
-0.5927728 1.5544007 -0.3633412
0.042515773 -0.21767038 0.46228105
-0.5904633 1.010946 0.5594184
-0.7334244 0.7822057 0.347813
0.74408424 -0.25336727 -0.084678665
-0.2616694 1.1587319 -0.54167306
-0.017400593 1.1593024 0.15121666
0.7177693 -0.08577145 -0.38819483
-0.67840195 1.1443923 -0.60345167
-0.76028126 0.5517936 0.07705694
0.56974685 -0.08134132 0.3244028
0.23686056 1.4350083 -0.59835374
-0.11120971 1.4169263 -0.34076443
-0.25935763 1.684867 0.39062524
0.40030915 1.4687812 -0.46039477
-0.4594115 1.038595 0.32702813
0.3556503 0.32858664 0.029435188
-0.1470612 0.3101005 0.23003834
-0.36383083 0.86974436 0.49517876
-0.052694842 0.6595303 -0.3129377
0.30964166 -0.23817676 -0.77872074
-0.0780998 0.65278196 0.3232563
0.61560607 -0.26244336 0.0693966
0.6428795 -0.25147283 0.24767765
-0.40808868 1.4629862 -0.4156028
-0.17621577 1.4240642 -0.83941317
0.100504436 -0.40632585 -0.614316
-0.17649144 0.7744324 -0.951519
0.6435447 -0.24424997 -0.9181948
-0.5823879 0.48404658 0.37025428
-0.5853667 -0.25588274 0.2267546
0.5683056 -0.41556317 0.52244735
-0.11864915 1.0398667 0.0024558583
0.2965309 1.153398 -0.7530266
0.077702045 0.886513 0.585673
-0.6518749 1.0582458 0.23468143
-0.10489668 0.5903442 0.5193584
0.89678574 -0.09038862 0.7346939
-0.58479846 1.4633749 -0.52184844
-0.5677534 -0.09322829 0.324813
0.4332013 0.19136027 -0.37181494
0.36171585 1.2745928 0.54005027
0.3080749 1.3819699 0.6858851
0.73164666 1.0532236 0.19543228
-0.12947324 0.64208674 -0.10632272
-0.10282041 0.6581905 0.113144636
-0.6155248 -0.25916755 0.4299457
0.17010894 0.6950761 -0.27908975
0.91836435 -0.2498448 0.6473896
0.13439253 1.0375721 -0.9837405
0.41167033 -0.23384613 -0.28974783
-0.5072703 0.2597137 0.11840318
-0.5113195 -0.2636783 0.5916979
-0.28214 0.54939294 0.45428967
0.92526037 -0.24839398 0.4421611
0.59085846 -0.25343663 0.6452544
-0.53924096 1.1846457 -0.073276505
0.5685001 0.99194634 0.13263713
0.89262635 0.9680592 0.22653231
0.21993424 0.37760526 0.32201952
-0.35235447 0.5627176 -0.33230788
-0.7519064 -0.24977607 0.5404868
0.19954291 1.7771821 -0.4595945
-0.008563442 1.6555147 0.17716448
0.5416802 -0.08685376 -0.9090462
0.2959265 0.45646203 0.6173494
0.095069766 -0.25215885 0.9259169
0.6478938 -0.082950965 -0.73266387
0.014422277 1.1211064 -0.40480253
-0.03663718 0.0991876 0.03853473
0.4681598 1.1169833 -0.8685657
0.1676566 -0.0650558 -0.29115975
-0.7890201 -0.25151014 0.7332563
-0.7323961 -0.08388823 0.42408025
0.5614907 1.1096787 0.6302943
0.20770505 1.118079 -0.41334996
0.122698694 1.2615023 0.19904229
-0.3059265 0.5930698 0.67904377
0.57840264 -0.2328529 -0.20729834
-0.15365878 1.1004918 0.79565996
0.8230244 1.1376565 0.3415646
-0.5363947 0.7162961 0.27250588
-0.18732646 1.7031376 -0.18753001
-0.6217021 -0.40290624 0.9061903
0.2543106 -0.2198964 -0.40370888
-0.5514173 0.3578354 -0.4176479
-0.45189738 1.6389096 -0.45901543
0.7791289 -0.25218183 0.34157556
0.91661084 -0.24201787 -0.5938955
-0.13980775 -0.06689913 -0.013421783
0.0741771 1.2244827 0.4214126
0.35258672 -0.032174446 -0.36861834
0.6615666 0.95853174 0.58040416
0.5582695 1.4575026 -0.105866924
-0.67674446 1.0711498 -0.009523323
-0.4088874 1.0407255 -0.87480843
0.89689064 -0.40796953 -0.08258203
0.7460214 0.61494124 0.38883626
-0.1250975 0.42928952 -0.5658275
-0.3052472 0.39733422 0.31602806
-0.34385264 0.43393695 -0.45947832
0.077262476 -0.24752212 -0.35552055
0.7304565 0.69174767 -0.6153659
-0.48626986 0.8203666 -0.58992267
0.00018246578 1.1787832 0.610342
-0.65453917 1.216198 0.09840468
0.26039213 -0.08087536 -0.7018515
-0.89455056 -0.4067245 -0.5313543
0.04428214 0.5161239 -0.6810173
-0.21325785 0.91985583 0.60462916
-0.026681706 0.6259035 -0.52394956
0.8914126 -0.40770108 0.73434055
0.23912266 -0.055670433 0.11099087
-0.19931692 0.5951992 -0.4409184
0.05864109 1.4975407 -0.22787262
-0.43366826 -0.23529351 -0.29066527
0.90023434 -0.088629305 0.5358269
0.8855938 -0.4006204 0.90704083
-0.037969463 1.1625335 -0.15615907
-0.44015616 0.7118933 0.44825733
0.55866504 1.5735857 -0.5224024
0.30230343 -0.40421203 -0.91534364
-0.29498765 1.4246173 -0.24525116
-0.48115647 0.31519377 0.30450073
-0.34358168 0.74964553 -0.44506162
-0.14336702 -0.40974855 -0.90948856
-0.15306675 1.4950663 0.14621177
0.50245845 0.77467155 0.19790767
0.30954254 1.5750748 0.5386499
-0.3685841 -0.4149711 0.55083513
0.59051687 0.4944437 -0.36872432
0.20288289 -0.41273195 -0.7519616
-0.13704264 1.6637253 0.0042149094
-0.51815295 -0.06090648 -0.15948257
0.5411033 -0.10209533 0.9176822
0.79611915 0.47413263 0.05338058
0.5353548 -0.017154729 -0.10788484
-0.21076635 -0.25660962 0.75949985
-0.039330445 0.90845567 -0.9933138
0.116724536 -0.41916394 0.74870074
0.26686168 -0.22874779 0.010879047
-0.34495014 -0.40924332 0.15289274
0.29342324 0.29882133 -0.22132793
0.015825078 0.7066982 -0.95403904
0.2418054 -0.24588624 -0.5977403
-0.07492085 1.4606018 0.6633204
-0.042471748 1.7169034 0.4147397
-0.23370755 1.0063465 -0.9575083
-0.44078845 -0.25665268 0.41856813
-0.16966513 1.85163 -0.075718105
-0.1220925 -0.2517923 0.46143275
-0.33301395 0.6982096 -0.67232
0.1368474 0.64270604 0.13315816
0.22222845 -0.2587853 0.77698994
0.93228495 -0.24581197 -0.78265905
0.4286481 -0.25270694 -0.6325726
-0.27319157 -0.24078165 0.016820619
0.2913784 1.2089684 -0.56710815
0.7215694 -0.39948624 -0.9181461
-0.7196147 1.3960752 -0.3450863
0.08300534 1.6824901 -0.003268532
-0.30807468 0.34362 0.12251562
0.14822519 1.552201 -0.76796544
-0.91892993 -0.25740224 0.42738613
0.4460315 -0.24748324 0.52261114
0.4000011 -0.24615026 0.34988752
-0.9106997 -0.1024686 0.16524655
-0.47746408 0.5531692 -0.719028
0.4921824 0.20555648 0.14858097
0.43470576 0.37818033 -0.32551524
-0.28641635 -0.044913396 0.10314235
-0.011236512 0.007993765 -0.50263536
0.73416233 0.78157926 -0.09956213
-0.40759933 -0.24123147 0.7482234
-0.2071386 0.28042167 -0.19350433
-0.05984258 -0.22946179 0.2807356
-0.20967004 1.4359028 -0.035623014
-0.39022946 0.85641146 -0.15824161
0.8066442 0.5581827 -0.34810382
0.90205646 -0.08631362 -0.48999673
-0.27790433 1.1681335 0.38046438
0.19188276 0.74510455 0.62137073
-0.27291644 1.4213753 0.6442331
0.6013149 0.47428334 0.42319804
0.289288 0.52461 -0.2655918
-0.6291238 0.7048424 -0.65271306
-0.17211989 0.16808793 -0.49933165
0.3807016 -0.4135148 0.015327401
0.08533545 -0.4060714 -0.9091734
-0.1376268 1.209657 -0.32759705
-0.69412136 0.7466054 -0.07707337
0.47373652 0.50492704 0.5616524
0.010827942 -0.40916324 0.9069761
0.022779929 1.1762836 0.8022221
0.48359814 1.7485003 0.06023343
0.40823036 -0.042882547 0.22098336
-0.3908394 1.2035918 0.21744677
0.08457858 0.33380684 -0.7393638
-0.42450255 0.63734984 0.08810552
-0.19273153 0.8680069 0.12146795
-0.023747388 0.23444062 -0.09967117
0.26286143 -0.08718842 0.7265952
-0.86939704 0.89232326 0.022431087
0.52680135 1.2866433 0.6163981
-0.7010485 0.91037047 0.08009776
-0.013104269 1.8512347 0.09780642
-0.73181844 -0.085207716 -0.8999106
0.3969217 -0.41432887 -0.1814524
-0.047423296 0.3604856 -0.24125284
0.12533438 -0.25660485 0.6048976
0.8951887 -0.0877351 -0.087666996
0.88465774 -0.081428096 -0.7053452
0.55402017 -0.4122343 -0.28561795
-0.11532998 1.2846303 0.52742636
-0.4659962 0.89296025 -0.3668942
0.37264633 0.92704254 0.13022253
-0.29660395 -0.24766895 0.5683823
-0.363873 0.3629251 -0.28148824
-0.3773374 0.2451608 -0.47178197
0.40339673 0.5858623 -0.8264222
-0.61485344 0.5169457 -0.55057585
0.6365537 0.67650354 0.28687972
-0.6448014 1.5604217 -0.19627056
-0.042797476 1.3440896 0.32210988
-0.5930995 -0.0923966 0.12665676
-0.72824407 -0.08205859 0.79827034
0.48949996 -0.22925016 0.22182441
0.033482723 0.073478326 -0.17597018
0.22921741 0.3278741 -0.4190118
0.210511 0.6375959 -0.92217577
-0.05664424 1.587106 -0.7430456
0.77047193 1.3199381 0.32919124
0.36502418 0.4746514 -0.46747774
-0.35671097 -0.04254307 -0.2563846
-0.80549705 1.2647965 0.15588805
0.2276518 0.8622415 0.44697288
-0.06816767 0.24975681 -0.6358632
-0.37801194 0.14983323 -0.146702
-0.81173617 0.82808006 -0.36799154
-0.52435565 0.53905857 -0.3808636
-0.3793739 1.533248 0.49010533
-0.13460821 0.4542439 -0.07200399
-0.10838428 1.7991667 0.27061844
-0.92206544 -0.25589824 -0.2168389
0.55707 -0.40111074 -0.07538226
-0.85076874 1.022212 -0.29685256
0.854298 -0.24908645 -0.92849994
0.4662361 1.1345959 -0.65165013
-0.1920518 0.3362007 -0.39819294
-0.34433362 0.56717896 -0.12214524
-0.28719363 0.70643973 0.18716086
-0.08733575 1.0078301 -0.25237757
0.11091905 0.23688489 -0.24107781
0.61948633 1.160059 0.3038997
0.75201875 -0.25237375 0.5435158
0.8931283 -0.40753418 -0.68639576
-0.0363708 0.93934345 -0.46704882
-0.33466557 0.35351247 -0.08267395
0.33680284 1.4831848 -0.7685995
0.40215477 -0.23978135 -0.1049089
0.38731894 1.7065717 -0.48394138
-0.1373279 0.2024032 0.39500016
-0.23301867 -0.081218205 0.50306684
0.21407281 -0.4067415 -0.09797055
0.16064171 0.10620304 -0.028325532
0.70434713 0.74294984 0.0998704
0.33761853 1.8026927 -0.28752917
-0.8661226 0.8477771 -0.17695266
-0.033861443 -0.09568217 0.9122182
0.9372803 0.854911 -0.10169472
0.040044166 0.5884228 -0.001549131
-0.26776177 -0.08482148 0.709816
0.435326 0.36920798 -0.13181153
-0.31959516 1.5975204 -0.093996584
0.41392133 0.57509345 -0.105765015
0.192039 -0.24878195 -0.92561233
0.112506464 0.9593198 -0.32290897
-0.2542616 1.7719707 -0.3971092
0.5513677 -0.08315024 -0.52364147
-0.30934995 1.3549199 0.10252553
0.40834808 1.5758631 -0.6289946
0.59557724 1.0792053 -0.50850904
0.90114325 -0.08730622 0.11717212
0.6816152 0.87422013 0.25253642
0.64897823 0.55585957 0.12833504
-0.26352513 0.43130332 0.5918603
0.20843133 1.5652614 -0.48123738
-0.42480066 -0.40726155 0.8964503
0.15754576 1.3844116 0.32302514
-0.7333703 -0.24759462 0.9208718
0.36973494 0.7769664 -0.9111241
0.59029514 -0.24352095 -0.39705795
0.71614814 1.0077736 -0.35475284
0.5366411 1.4383838 -0.6741245
0.36704713 1.4497226 0.030762738
-0.8039943 0.6671119 -0.25657234
-0.758714 0.5158816 -0.13243335
0.39118874 -0.41231358 -0.7611455
-0.617909 0.62486625 -0.23602748
0.7323755 1.4618542 0.20861639
0.7221222 -0.41743082 -0.18236238
0.74494356 1.5222441 0.007724371
0.7365161 -0.084001176 0.6489588
-0.6166087 -0.2576842 -0.613683
0.038923733 0.9576627 -0.1016191
-0.25084883 -0.4053538 -0.2662086
-0.3309933 0.19485068 0.26426667
0.18499814 -0.04027958 -0.4984724
0.24250263 0.60565007 0.7334949
0.066963844 1.6928513 -0.6090335
0.46329767 0.9589118 -0.38368055
-0.644531 -0.08205575 -0.73930407
0.17243215 1.6545193 0.18753052
-0.52619815 0.25123554 -0.07812605
0.30752003 -0.24889171 0.61724806
-0.023161434 1.7918031 -0.4507429
-0.25731662 0.71625 0.38132554
-0.32578877 1.578304 0.101560086
0.8998115 -0.4083256 0.32928014
0.25065976 1.1125665 0.14739546
0.01968361 -0.24635778 0.76608515
-0.7797994 1.1835418 -0.40667713
-0.507746 1.0205617 -0.22422723
-0.4739766 1.1801546 0.44380355
0.3159107 0.7283409 0.14926101
0.662865 0.68511975 -0.43554965
0.55577326 -0.16874549 -0.05173587
-0.6390879 0.40424028 0.19107941
-0.58632606 0.7490792 -0.42436105
-0.2745582 0.73826265 -0.022650467
-0.30658633 1.6586058 -0.546328
-0.82863367 1.2345077 -0.22914799
0.20468645 0.861158 -0.16811833
0.6693375 1.5564072 -0.38611948
-0.9286022 -0.25310326 0.62971294
0.4761782 -0.4123663 0.9065186
0.73244154 1.155632 -0.19372877
0.1876602 1.4767529 0.11943893
-0.31749573 -0.049468767 -0.07960917
0.078793496 1.3557837 0.7299863
-0.7610937 1.412429 -0.13991815
0.10424836 1.0728731 0.28990173
-0.1909279 0.7621056 -0.571856
0.08048186 -0.06100948 0.250502
0.19489789 0.517424 0.4403212
-0.12707275 -0.4130934 -0.60945165
0.29095042 1.5197333 0.32651752
0.89945483 -0.4066528 -0.4861333
0.23561347 1.412669 0.4830772
-0.42263967 1.0308473 -0.06013284
0.42392302 1.3664436 0.38387394
-0.120675325 0.43429744 0.3836241
0.16353405 0.44961822 0.11992258
0.4545022 1.306526 -0.30862325
0.72844875 -0.41979745 0.023434509
0.093048126 0.58223796 0.59509826
0.096553 1.564826 0.35542977
-0.22872636 1.3306692 0.28005224
-0.06082754 1.1008365 -0.9753437
-0.31473503 0.64126897 -0.85854846
0.15831232 1.6781967 0.47309977
0.59605056 0.31871444 -0.42181492
0.8964621 -0.4081555 -0.28452992
-0.57068014 -0.41343296 -0.3146847
0.039297715 0.332232 0.29183987
0.029422112 -0.090665385 -0.9139911
0.60016656 1.0421543 -0.078910634
0.11068088 1.7998322 0.28108698
-0.7033729 0.48911786 -0.34269896
-0.18624379 -0.41126627 0.60883665
0.5873324 1.3980355 0.07223436
0.2690571 1.2103767 0.3679697
-0.35756028 0.15896355 0.047752894
0.55206424 0.74749434 -0.60445374
0.05939853 0.97554636 0.10731067
0.7574769 -0.24221125 -0.735309
-0.13422899 1.5329599 -0.17885508
-0.31895718 -0.4158497 0.73855495
-0.087825775 -0.41552985 0.7541162
-0.61730504 -0.25076777 0.7344872
-0.14458968 0.7655996 -0.76763326
-0.25372276 -0.2577315 -0.92349285
0.7261307 -0.41362846 -0.5798911
-0.5936707 -0.25071898 -0.42063302
0.8367824 0.6219609 0.18722308
-0.13977462 -0.061440535 -0.6018981
-0.018370166 1.2846026 -0.7188976
0.7102089 0.50874794 -0.5137649
-0.33383483 1.1699005 0.007816421
-0.15006849 0.8154528 -0.40103066
-0.55367243 -0.09104122 -0.91426945
0.30846536 1.0204358 0.34923065
-0.8100661 0.74472076 0.15975907
-0.26538438 -0.21518677 -0.37459767
0.52591574 -0.41131157 -0.897962
0.4227011 -0.22937363 -0.4675363
-0.70171463 -0.418138 -0.7989123
-0.32012245 -0.2512963 0.92227966
0.3747915 -0.41039643 0.21567425
0.043555006 0.7405755 -0.12394984
0.07478461 0.39467028 -0.5401732
0.81690156 1.4277607 -0.13834685
0.69738686 -0.41677773 0.8795341
0.55539566 0.22160703 -0.029547235
-0.5542361 -0.08378037 -0.3389486
0.67356086 0.6408938 -0.24218161
0.5246881 1.689696 -0.3476423
-0.10856862 1.1102462 -0.784616
0.7147413 0.4592072 0.26220936
0.05491886 1.4535632 -0.6331317
0.89538187 -0.40552068 -0.88101375
0.5777665 0.5621835 -0.6890744
-0.7199826 0.5986434 0.27334058
0.48394722 0.9693477 0.29628527
0.5452024 -0.25649866 -0.77484536
-0.36087096 -0.08845578 -0.9115764
-0.10773778 0.3951909 -0.7770026
0.040707566 0.4438116 0.46620175
-0.21977893 -0.2202625 0.18159385
-0.2380718 1.2658615 -0.17411798
0.05349873 0.6254227 0.76952124
0.20375332 0.90077937 0.2187615
0.38309595 0.4664511 0.38775766
-0.9246446 -0.24451587 0.002741805
0.0002342518 0.2731481 -0.42476887
0.15016803 1.5101328 0.63520443
-0.8093703 1.2479413 -0.03892692
0.37069714 0.96502495 -0.74496937
-0.058004417 0.82191825 0.0111716185
-0.61393404 0.81583333 -0.23678365
0.6159494 1.5062879 0.36004004
0.042808466 0.24276038 0.47718516
-0.51836574 -0.41897896 0.71303725
0.7540462 0.9217104 0.04407505
-0.30207524 1.5998483 -0.3159402
-0.592932 0.56691575 -0.045328356
-0.14909032 1.2294754 -0.012781369
0.5123521 0.771682 -0.35752416
0.902772 -0.087591946 0.32778794
0.2478222 -0.23676836 0.43645287
0.26939613 0.8681593 -0.39449015
-0.46679085 0.5516043 0.5551063
0.10759452 1.8416028 -0.29511988
0.097535044 0.4103192 0.6518057
0.102388784 0.19013068 -0.56877303
0.5272505 1.2436655 -0.10683066
0.40052122 0.7839117 0.53906846
0.6126958 -0.24787363 -0.59910405
