0.5859797 1.4608079 0.5575871
0.48165643 0.5692818 0.08710474
0.44551867 1.6086252 0.304204
0.7464769 -0.2520855 0.75494343
0.396811 1.0871711 0.5716244
-0.5891371 1.0226068 0.41822428
0.044287935 0.24994698 -0.35631207
0.6549654 1.2796563 0.5894724
0.2651714 1.8146472 -0.560085
0.7723373 -0.24901286 0.93241143
0.4645434 -0.08583837 -0.7273803
0.0028486154 -0.41701406 -0.47145283
0.020024626 1.4734533 0.072936445
-0.73758614 1.0943003 -0.13150145
0.28898495 1.4723525 0.28892627
0.09796606 -0.2446231 -0.5330932
0.32807982 0.5146567 0.24144976
-0.3359174 -0.08509875 -0.58050966
0.12895319 0.69713867 -0.36976957
-0.904779 -0.09547125 0.73289806
0.454976 1.8146807 0.34578255
-0.6158925 1.5238582 -0.048893362
-0.46517688 -0.25193846 -0.925847
0.42702854 -0.08314812 0.6440295
0.23962873 0.43559322 -0.60119075
0.86422193 1.4067172 -0.14194529
0.88394105 1.2419093 -0.23280442
-0.28138214 1.0941777 -0.011512393
-0.22370586 1.6556436 -0.43135315
0.22353417 0.23602611 -0.20025134
-0.43814504 1.3702483 -0.20285788
-0.7415775 0.81707835 -0.45167378
0.0027938276 -0.0739456 -0.12642512
-0.7529019 1.56953 0.09671577
-0.72573364 -0.08526564 -0.42571145
0.32666174 1.1610378 -0.49292725
-0.592638 -0.41565967 -0.109958395
-0.36259076 1.3978885 0.5832151
0.09780918 1.4332225 -0.4655802
-0.2731657 0.86270106 -0.2300807
-0.057001382 1.2915275 -0.5345733
-0.24661675 1.2472957 0.62499005
-0.75037086 -0.07919815 0.22120681
0.24115935 0.60869694 -0.7620826
-0.057375766 -0.08942253 -0.7622504
0.7625817 -0.2508018 -0.4890579
-0.55710596 1.2987739 0.66102934
0.6019745 1.4175398 -0.6541989
-0.10068077 -0.24728921 -0.45895243
-0.14891252 1.1104419 -0.7742841
-0.106861636 -0.07543472 0.18008083
-0.7775453 1.1840495 -0.48561537
0.38791957 1.0693285 -0.047477894
0.13298911 1.4575412 -0.08288495
0.21465254 0.98757607 -0.55940795
0.9244212 -0.24851269 0.011174088
0.062807836 0.6796751 -0.83610296
0.8372177 0.86008453 -0.34826022
0.6817385 1.7165544 -0.10158928
-0.21969013 0.22841449 -0.0796544
-0.44267952 1.492228 0.41733533
-0.12098293 -0.24111396 -0.26506853
0.86196494 1.2988918 0.2553777
-0.7196665 -0.42095387 0.7736987
0.33335972 1.2930708 0.79786104
-0.49861303 -0.419006 -0.73391616
-0.73067784 1.0003517 -0.5331737
0.15932325 0.40556264 0.19414896
0.29602444 0.9161056 0.80991495
-0.56363416 -0.086848676 0.53775233
0.74666464 -0.08799976 -0.5839602
0.83622926 1.2049162 -0.40195405
-0.12938252 1.5973269 -0.59067476
0.32200238 0.26259172 0.007410559
-0.021164242 -0.41479725 -0.76729035
0.72991765 -0.4187147 0.6474109
-0.12172666 0.74898636 -0.85548675
-0.46988577 0.7991832 -0.5180177
-4.479607E-05 1.0233883 0.4063211
0.56383467 -0.086328104 0.111729994
0.20127752 -0.41711563 0.28828254
-0.35461152 -0.41689396 -0.5957602
-0.38031626 1.3578122 0.7544947
0.11668977 1.4186382 -0.887015
-0.8907502 -0.098852135 -0.9143076
-0.7718431 1.1090829 0.41848683
0.08273421 -0.42296576 -0.24936123
0.3966329 1.2136316 0.09363887
0.49630415 0.45315108 0.3553362
-0.06463367 -0.08291219 0.5690572
0.095927596 1.7984457 -0.29002866
0.1207851 1.2526019 -0.14394975
-0.7637087 -0.24382329 0.32550156
-0.5233098 1.8226993 0.1537575
0.4183802 1.2477536 -0.12418627
-0.48245072 0.53993255 0.46864873
-0.86839104 -0.08291337 0.02294064
-0.5091932 0.8586247 -0.060518645
0.7494304 1.160008 -0.55221105
-0.20554757 1.432395 -0.6633884
-0.22728798 1.721327 0.5951946
-0.36643982 1.9271562 0.05574973
0.5632682 0.8764514 -0.7265558
0.320404 1.7289326 0.24886256
0.6882529 1.0073371 -0.6361804
-0.40207916 -0.08871338 0.42932385
-0.61801016 -0.09148888 0.9161191
0.4131782 -0.084239975 0.42836416
0.595081 -0.2653588 0.89973116
0.9230274 -0.24615273 -0.38924456
-0.89735854 -0.4070946 0.10794835
0.7539402 1.0989423 -0.073452935
0.92017734 -0.24686687 -0.18888965
0.5339974 0.56029177 -0.5154613
-0.53577816 -0.4220574 0.48210788
-0.13108192 0.26210248 -0.27319404
-0.7095598 -0.41544437 0.40040433
-0.09917344 0.59653723 0.15495184
-0.33280066 1.114326 -0.48449242
-0.89248806 1.2222092 -0.09175727
0.0041446975 -0.41635755 0.5795109
0.14905941 0.3881439 -0.011071181
-0.69230384 -0.079744935 -0.023056803
-0.7164359 -0.418123 -0.62764543
0.04901993 0.8706089 -0.7137855
-0.89676297 -0.40719467 0.7196781
-0.9037658 -0.092434525 -0.5296123
-0.6097784 -0.25194758 -0.21310045
-0.33682907 1.0221469 -0.8710058
0.4302699 -0.25440216 -0.92582285
-0.592396 1.6151643 0.42687565
-0.0061222846 -0.41803372 0.37118283
-0.2292188 0.819365 0.794798
0.34917212 1.137252 -0.87737
0.4017921 1.4927347 -0.5663235
-0.5219685 1.5483687 -0.24256332
-0.52405095 -0.2452321 0.91173816
-0.4718926 -0.2552439 0.10714276
0.62973726 1.0285087 -0.40589964
-0.0024703802 1.6032617 0.25117296
-0.02189216 0.39656484 0.12117511
0.1221506 0.30189902 0.36688817
-0.25737375 -0.4206009 -0.75513893
0.3967678 -0.26712865 0.9228575
-0.25102872 1.5516336 0.5004414
0.38204327 -0.08244003 -0.54264593
-0.16158685 1.1267843 -0.5721314
0.8511443 0.7855042 0.0601784
-0.48893192 1.5750247 0.25482833
0.37681568 -0.07586845 0.8732872
-0.07248126 0.93736863 0.84917694
0.27182028 1.4807624 -0.35477024
0.29753572 1.9314585 0.25253552
-0.35455474 -0.25951433 -0.7711308
0.7373842 -0.08243878 0.21783063
0.28670585 1.15137 -0.1939078
0.40111032 1.08763 0.78381276
-0.48977345 1.7651436 0.35122684
0.5521997 -0.4245155 0.12910756
-0.70686877 1.2764193 0.479501
-0.13428411 1.2997766 0.4047997
-0.03542374 -0.25094151 -0.636413
-0.5433782 -0.084631324 0.73961926
0.7802155 1.5599929 -0.241398
0.19190949 0.7900279 -0.03338868
0.91984725 1.1923112 -0.061033823
0.552811 0.6199564 -0.10551441
0.58132315 1.5463964 -0.31998345
-0.103938505 1.7892239 -0.29884464
0.39236656 0.4292483 -0.48943585
-0.093652636 -0.41691434 -0.14126405
-0.7459866 -0.41621354 -0.21719977
-0.27087986 -0.41704634 -0.06790636
-0.2603046 0.6751146 0.25269747
0.90353334 -0.088864185 -0.89769316
-0.36979854 -0.41091537 -0.9039041
0.11817807 -0.25447035 0.31767702
-0.8961049 -0.09213878 -0.33213186
-0.011280059 0.98707294 -0.22784749
-0.16239822 0.6345053 0.71785915
-0.6490122 0.8796059 0.10291158
0.009966992 2.0200882 -0.025374018
-0.099205256 1.4720681 -0.45058084
0.92662585 -0.24722894 0.2254513
0.15573505 -0.41519654 0.46034867
-0.030494947 -0.2561318 -0.9168818
-0.9154629 -0.2595788 -0.87373537
-0.17303371 -0.4146509 0.25507215
-0.67579526 0.7861239 0.46367574
0.041201703 1.0720634 -0.7968168
-0.24562159 1.3901346 -0.8623169
0.71369714 0.9590446 -0.22349617
-0.30819303 0.30440444 -0.31410187
0.63682014 1.4849 -0.14144053
0.44384983 -0.24109158 0.75679946
-0.014496957 1.5462841 0.55928075
-0.42169943 1.6861446 -0.5880165
-0.11543927 -0.24668688 -0.0705187
0.75306714 1.0794079 0.49752897
-0.22199807 0.25352457 0.15829551
-0.18394426 -0.42213738 0.44316417
0.2594019 -0.084598586 0.5367564
-0.28192607 1.2445779 -0.15038753
-0.30248436 1.4523997 -0.34761366
-0.500159 1.4611769 -0.4103802
-0.40018925 1.1604037 0.7719441
0.36009985 0.756582 0.7254482
-0.5502813 -0.08517776 -0.5511249
0.09301518 -0.08255309 -0.67283785
0.20895368 1.1157545 0.050127532
-0.8104261 1.3066839 0.32594776
0.3906213 0.94068146 -0.6550085
-0.677565 0.95770663 0.5501423
-0.4457018 1.183933 -0.63425887
-0.11062792 1.1494768 0.50964415
0.044457685 -0.25598878 -0.18509474
-0.76845986 -0.2451149 -0.10453374
-0.027282588 1.7122391 -0.44782788
-0.3071273 1.0835528 -0.26288852
0.26851356 1.2197828 0.62990534
-0.2622723 -0.25102255 0.3775887
-0.47308546 0.59518075 0.20015475
-0.53156614 1.2083404 0.13764401
0.27107584 0.26519674 0.19007945
-0.13021141 1.4750652 0.17667973
-0.9016732 -0.4051164 -0.10731654
-0.57906854 -0.40472347 -0.91809607
0.5464593 0.7639674 0.6080317
0.09458789 1.2960061 -0.75382644
0.2506637 1.5374323 -0.81138027
0.43763232 1.4681425 -0.7565416
0.06334324 1.435827 -0.25724614
0.3585552 -0.08512505 -0.18502218
-0.52513266 -0.41967243 0.27865332
0.098731935 -0.08460609 0.45541567
0.08745976 0.22848395 0.174678
0.8987901 1.0393388 -0.23399231
0.7019877 0.5382955 -0.2238158
0.73737264 -0.086455405 -0.90458333
-0.4238391 -0.25957608 -0.48089966
0.1926471 1.9975166 -0.047455683
0.09514512 -0.23362774 -0.031707875
-0.21771732 -0.41451043 -0.45783204
0.43706003 0.7396034 -0.23344903
0.3890499 1.2832835 0.3059246
0.3388824 -0.42029688 -0.58520496
-0.26968068 0.46951234 -0.6142243
-0.51798725 1.8502219 -0.046834975
0.42326313 -0.41362518 0.61693645
0.50910264 1.8635342 -0.072767705
-0.080615 -0.086778365 0.37865835
0.39575016 0.96720415 -0.45740664
-0.33224794 1.9548824 -0.14574802
0.23542458 -0.39996988 0.9137388
-0.20278066 -0.08209379 -0.40901345
-0.063308746 0.26357234 0.28354868
0.1631043 0.8102263 -0.5244014
0.4026693 1.2872417 -0.34590054
-0.6447505 1.4250695 -0.21775007
-0.2780785 -0.24711111 -0.17235371
0.828555 1.4009615 -0.35359228
0.54672575 -0.4134654 -0.4976709
-0.42406198 0.9942095 0.30326068
0.13080932 1.1253552 -0.46528256
-0.3806872 -0.25684923 0.24478123
-0.443029 -0.08695772 0.23593867
-0.19420353 1.2045724 -0.3674736
0.8940811 -0.09503923 0.9077326
-0.05691555 0.62928224 -0.35478866
0.92934155 -0.2498186 0.85825837
0.08359447 1.5930406 -0.35298675
0.20653129 -0.41441005 0.09756358
-0.10798285 1.1102374 0.7135892
0.3536224 1.9534204 0.018844388
0.22850224 0.3098853 -0.40416616
0.67816854 1.3647946 -0.30315018
-0.4665976 0.8593534 -0.25660428
0.42531103 1.5764254 0.63168895
0.73177683 -0.41689298 0.42861652
-0.5585474 1.2927889 -0.72991866
0.52516973 -0.084320806 -0.32991856
-0.52119887 1.0779718 -0.775038
0.7254982 -0.41756743 -0.39084136
-0.8975244 -0.09388232 -0.14348131
0.79413897 0.6501299 -0.07909353
-0.86807775 -0.09477916 0.9124309
-0.8739263 1.2353797 0.11501494
-0.17710209 0.98931694 -0.13719054
0.29666626 0.6858654 0.12346126
-0.19787845 0.41315794 0.03041797
0.3208039 1.7674973 -0.25358102
0.28410557 -0.2483713 0.2109513
0.105103716 0.9436784 0.08244574
-0.16336232 0.95417607 0.5066957
-0.11132488 -0.26004475 0.91837007
0.53662276 1.0690169 -0.7784359
0.7283097 1.3540411 -0.5267508
-0.12979454 1.6710713 0.41186535
0.20941105 1.4388156 0.101862855
-0.19146723 1.4220104 0.7885783
0.27143306 1.3001536 -0.012732595
-0.14413601 0.76464826 -0.6575854
-0.50488883 0.39720765 -0.27492243
-0.74696636 -0.41483712 -0.0014252046
0.12214528 1.3788016 0.6476502
0.71577406 -0.08534716 -0.19640183
0.72283673 -0.08322188 0.007480081
0.48087144 1.648576 -0.18634245
0.705616 -0.41574517 -0.76380277
0.32677066 0.91379416 0.037141107
0.24685916 1.6003597 -0.20601448
0.56387675 0.4089304 -0.17520095
-0.45630407 -0.08387017 -0.74044216
0.60944664 0.46141028 0.18177366
0.2965805 0.82537246 -0.37167418
0.70201206 1.5421107 -0.4554081
-0.48994696 1.6449935 0.059908934
-0.7620181 -0.24950147 -0.32044542
-0.42509586 -0.41608495 -0.19584903
0.7918388 0.90559936 0.38022095
0.35072812 1.5042363 -0.05940893
0.18985948 1.0093611 -0.92766255
-0.7720711 -0.2543071 -0.5274339
-0.3343848 1.5159357 -0.5425043
0.25410628 -0.41000628 -0.28112233
-0.61279017 0.70386827 0.15144955
-0.67457664 1.1222081 -0.33402073
0.43493694 1.2877333 0.51202345
0.10489677 -0.24291377 -0.7636056
0.24500918 -0.087446764 0.3239066
-0.12878495 1.1407058 0.28189212
-0.5798662 1.0550075 -0.024223894
-0.8919072 -0.4114625 0.32400036
-0.8588065 -0.405111 0.90563774
-0.72624946 1.5160254 0.30054766
0.34390023 -0.41791433 0.7771754
0.67313206 0.9123526 0.55673766
-0.5748726 -0.2507981 -0.7914088
0.23080884 -0.23781991 -0.1975348
-0.89466214 -0.40472865 -0.73457545
-0.413588 1.406888 -0.7643882
-0.21427055 0.99116766 0.3391753
0.61767423 1.7911708 0.06122444
0.5590974 1.2684462 -0.2135881
-0.608255 -0.24693014 -0.0107328985
0.73720086 1.2407818 0.09583195
-0.89770085 -0.40762264 -0.3268348
0.8174356 1.0134215 -0.44237053
0.30905047 0.35651037 0.37042576
-0.66256887 1.7215986 0.025467493
-0.73256826 -0.4153496 0.21169367
-0.39271784 0.94066775 0.76181626
-0.7433517 -0.08609453 -0.6083443
-0.21593978 -0.41119868 0.9017627
-0.66396886 1.4456034 0.48620418
0.8867452 1.3576205 0.049673922
-0.74914706 -0.24387667 0.11242066
0.0067958618 0.6768956 0.3165769
-0.46858588 1.680572 -0.1420177
-0.51231956 0.620955 -0.1929565
0.23105085 0.79119945 -0.69173265
0.21354488 0.9776454 -0.7488793
0.29982367 1.3384385 -0.86683166
-0.54698247 -0.41750744 -0.5312855
-0.42775697 1.1860225 0.56523955
-0.25457436 -0.08381787 0.30370423
-0.9026941 -0.09557542 0.3493652
0.09460828 -0.08389476 0.66940486
-0.44364533 -0.24858287 -0.09504679
-0.6785761 1.4800439 -0.49202353
0.47005296 0.784973 0.107141286
0.38818258 -0.08155289 0.010558381
0.16477296 0.42912823 0.53837776
0.78231287 -0.24385577 0.11822188
0.509236 0.871186 -0.07816993
0.19105354 -0.07965169 -0.8848201
-0.41293472 1.498307 -0.048437078
0.59845144 -0.2480894 0.42523047
0.31369078 0.9364071 0.3924331
0.46768904 1.7110388 0.11554082
0.11376696 -0.24542668 0.14502513
0.68659544 1.4301829 0.045505337
0.55513775 1.3107674 0.16624272
0.027132116 1.1200718 -0.6317135
-0.026442055 0.928602 0.2432617
-0.40015656 -0.41952682 -0.39556494
-0.7221541 -0.08923261 0.6260141
0.54749477 -0.4165154 0.3320421
-0.89940953 -0.093099885 0.54186356
-0.64466417 1.679988 0.22649246
0.021351794 -0.41594738 0.1821587
-0.6564434 1.1185004 -0.65444785
0.7550092 -0.25229353 -0.29258114
0.40889868 0.7662586 0.44976595
-0.008497827 1.1173316 0.88247293
-0.9199517 -0.26815808 0.22188035
-0.22069415 -0.09219821 0.90131956
0.14063469 1.2799659 -0.5655288
-0.85057724 -0.4057208 -0.9157661
0.34040546 0.9141543 -0.1786423
0.25236002 0.7144681 0.3104486
-0.58456904 -0.41296154 0.102135465
0.49344334 0.75200117 -0.42952132
0.19391662 1.8121467 -0.11346882
-0.39211285 1.2606187 -0.35461345
-0.9256388 -0.2460506 -0.647171
0.8951525 -0.086698875 -0.28832608
0.6415373 0.73201823 0.01940154
-0.70404595 1.269098 -0.18330884
-0.30133033 1.1444323 0.4091637
0.23571584 0.7682477 0.54508054
-0.5123478 1.499973 0.6103672
-0.030974925 -0.08362578 -0.31345296
0.5238924 0.9874748 0.08315323
-0.53627276 1.4567302 0.12431599
0.12893611 0.8486055 0.36283147
-0.7295835 -0.41731614 -0.4290111
0.3924902 -0.41775912 -0.39622176
-0.07802266 -0.084217764 0.7556216
0.15165898 1.3273252 0.8407885
-0.4782573 -0.08454584 0.026307452
0.5456253 -0.42161828 -0.6773759
-0.4014905 -0.08382942 0.62741625
-0.025163984 1.6585219 0.048480712
-0.6889516 0.5304915 -0.004636961
-0.43899918 -0.41624486 -0.0003800529
0.22267503 0.62380564 -0.56052756
-0.66052675 0.52059555 -0.2076284
-0.12212452 1.8644502 -0.521189
0.45222086 0.6536652 0.2846635
0.5561242 1.055862 -0.14898273
-0.054950126 -0.24437168 0.09363579
0.5810118 -0.08498368 0.53263056
0.108732045 0.9401978 0.84799635
-0.69268787 -0.412854 0.59871423
-0.2350494 1.0331452 0.83931196
0.5204338 1.4242601 -0.4359557
-0.88907945 -0.088402405 -0.737188
0.9072844 1.1393983 0.12699291
-0.6026068 1.3781645 0.30335245
0.19011447 1.468941 -0.66290075
-0.08299543 -0.41211125 -0.3253193
-0.28045154 1.257294 -0.6842356
-0.23659216 1.7326057 -0.65103817
0.5793884 1.1274955 0.48321193
-0.40190855 -0.08716424 -0.42297757
0.25510305 -0.17377253 0.92894226
-0.7678696 -0.24181995 -0.74530834
0.69311976 1.3813579 0.2535175
-0.44730264 1.3421221 -0.548033
-0.34585023 1.1482682 0.1930004
-0.33143923 1.6564425 0.3439067
-0.29446536 0.6315335 -0.74620295
0.08416182 0.9260023 -0.38762295
0.084713444 1.1797037 0.7284576
-0.5945018 1.3044295 -0.3682574
-0.039552037 1.7330146 0.61921287
-0.21063963 1.7958119 0.27195305
0.016720198 0.52673876 -0.02646551
-0.10001773 2.001561 -0.20898357
-0.07186704 1.5068796 -0.100038245
0.022333603 0.69078207 -0.16240568
0.04320714 -0.0668716 0.055071205
-0.53578246 1.0568967 0.6851542
0.21898505 1.0453557 0.6807611
0.7309587 -0.41804516 0.22612765
0.42910552 -0.25576562 0.07844041
-0.87074697 0.84888214 -0.043159388
-0.4930065 0.5914812 0.013156425
0.19914725 0.59377676 -0.04144352
0.072872326 1.2819662 0.05582486
-0.41074198 -0.08386837 0.88546777
0.2705845 1.3746349 -0.19737765
-0.36541963 1.8902085 0.26710308
-0.4763751 0.9045106 -0.77366185
-0.21342945 0.64615524 -0.23179424
-0.92485964 -0.25493222 0.87197506
-0.31169015 0.85516423 0.59778905
0.36315268 -0.42014772 0.43164596
-0.24000025 1.3006091 0.22158131
0.040040918 -0.41383255 -0.017955702
0.3643961 0.46326736 0.5232266
-0.450028 0.99382555 0.104934365
0.19144191 -0.4160491 -0.45278224
-0.45412874 0.723532 0.32443446
0.17312466 1.6370118 -0.004884443
0.005647348 0.83083117 0.49171364
0.869726 0.8393172 -0.14268413
0.19558504 -0.071939886 -0.08885344
0.6702287 0.48901612 -0.015423153
0.2096977 1.1559231 -0.7117368
0.4020152 0.5721096 -0.6505239
0.094279364 1.1809669 0.534855
-0.14614943 -0.41482353 0.06572662
-0.17713946 -0.07434669 -0.19885495
-0.53257436 0.8583953 0.6481777
-0.53700435 1.5036042 -0.6424929
0.90160495 -0.40744007 0.121549055
0.8200737 1.4885664 0.1856943
0.56489015 -0.41279638 0.74116516
0.051250182 1.5995355 -0.79570824
-0.24755335 -0.25210336 -0.58861536
0.5205252 1.4457421 0.3438058
0.89755076 -0.40808678 0.5330374
0.25974897 1.802628 0.085828096
0.35957333 -0.08754392 -0.9088298
-0.06857396 1.4536588 -0.8662843
0.13911942 -0.07599972 0.8729436
-0.0019481502 1.8407453 -0.11036646
-0.21990062 1.9671211 0.16817239
0.26572424 1.8477919 0.43439496
0.6036111 1.7371986 0.26013
-0.5592691 1.1605194 -0.48524457
-0.2560259 -0.08856256 -0.74941075
0.7192763 -0.08405612 0.87712985
-0.7222506 -0.08329988 -0.22052011
-0.44907725 -0.243783 -0.6391406
-0.47005844 1.8579131 -0.23540732
0.6378292 1.2201262 -0.68315434
-0.622799 1.0330973 0.22920367
-0.31707224 1.0512657 -0.6878799
0.37319317 0.7704921 -0.56636125
-0.109083965 0.8775325 0.6701814
-0.30931067 0.7087936 -0.5681999
0.4103986 0.3032986 -0.14034848
0.8744718 0.93200594 0.187218
-0.35412312 -0.4202692 0.35534805
-0.34115916 1.5729283 -0.73813355
0.21111834 1.1249044 0.85972565
0.7372861 -0.084433906 0.4279583
0.36626557 1.7289171 -0.05822327
-0.9246628 -0.2525046 -0.428829
0.41642225 1.7190664 0.49962443
-0.15832177 0.46823996 0.58475995
-0.88245785 -0.4132911 0.5246173
0.5218644 1.0951452 -0.55517006
0.5031816 0.9370506 0.48541492
-0.33204335 0.42481196 0.46285343
0.49717855 0.9230163 0.71275115
-0.15252438 -0.2573998 -0.7658917
-0.71055293 -0.26148134 -0.92928934
0.39663827 1.4095619 0.14134832
-0.08921173 -0.24329142 0.6363578
-0.1603986 -0.09072037 -0.91815084
-0.8573077 1.085063 0.24250047
0.110483766 0.5491872 -0.23033187
0.5774615 -0.08848993 0.7466892
-0.0100013465 0.9573849 -0.5548837
0.15992054 1.991553 0.14695346
0.2347655 -0.4188143 0.6106167
-0.45664662 0.5640818 -0.5914619
-0.28616673 0.6759957 0.064439274
-0.5917125 1.72212 -0.32722312
0.032798808 -0.24813369 0.4685144
-0.6443591 1.1466691 0.57388896
-0.7794531 0.92480433 0.35247603
0.75067604 -0.2539862 -0.08809927
-0.2516927 1.3267161 -0.49833977
-0.0511804 1.304943 0.20361115
0.71551204 -0.08471914 -0.3910369
-0.67087585 1.3221642 -0.5835799
-0.79391396 0.7024286 0.072445974
0.5687685 -0.08382049 0.32002807
0.24986368 1.5905471 -0.52531874
-0.114775866 1.575186 -0.28538638
-0.2920816 1.8252144 0.4464145
0.40357345 1.6166993 -0.37789428
-0.51212466 1.1777349 0.3549558
0.31105042 0.46038902 0.064438544
-0.19181192 0.44374764 0.23299228
-0.41427052 1.0081404 0.5146252
-0.06770777 0.8147718 -0.27984136
0.31895697 -0.23896998 -0.7808052
-0.13322708 0.7959288 0.34822738
0.6244966 -0.27910745 0.07546103
0.649186 -0.2503404 0.2489028
-0.40529335 1.6319962 -0.3746708
-0.15290883 1.5990529 -0.7869272
0.1043198 -0.414846 -0.62352157
-0.16239429 0.9532448 -0.91803205
0.6470532 -0.2441608 -0.9202639
-0.62892866 0.6241076 0.37155432
-0.59564686 -0.25972706 0.25632608
0.5715568 -0.41541147 0.5243922
-0.14586824 1.192801 0.048808683
0.312576 1.3197775 -0.68248683
0.016760327 1.0136256 0.6301087
-0.6915826 1.2046106 0.24459681
-0.16356048 0.72019255 0.5436064
0.8971549 -0.09047644 0.733135
-0.5759284 1.6361387 -0.4871453
-0.5857166 -0.08923474 0.34479496
0.399046 0.33742836 -0.3180619
0.31094486 1.3980114 0.61254096
0.25564054 1.5028701 0.75861394
0.6936008 1.1733198 0.28631783
-0.15634546 0.7834525 -0.08110357
-0.12910748 0.801788 0.1344324
-0.6251136 -0.25149024 0.4677028
0.15331315 0.8438467 -0.22800133
0.91916716 -0.2492951 0.6455208
0.15609232 1.2076039 -0.9266819
0.4139319 -0.25389805 -0.288526
-0.54011405 0.40746504 0.11658628
-0.4929642 -0.26246125 0.59423316
-0.33529252 0.6802739 0.47116354
0.9260392 -0.24790907 0.4398139
0.59473443 -0.25206447 0.6457609
-0.55698526 1.3363242 -0.04704716
0.5335177 1.1266401 0.20817691
0.8530474 1.0871338 0.31508046
0.15752491 0.5160824 0.3533082
-0.36786264 0.722188 -0.32665747
-0.7718271 -0.25497437 0.5435033
0.21013808 1.9308605 -0.38118634
-0.0327496 1.7948637 0.24091858
0.54537606 -0.086978585 -0.9111252
0.22715008 0.57756287 0.6604822
0.09514764 -0.25778526 0.9251931
0.65569115 -0.08275949 -0.7375343
0.007284046 1.2773845 -0.3453907
-0.06638004 0.20604269 0.052867383
0.48577055 1.2756212 -0.7947275
0.15063134 -0.08123836 -0.28827736
-0.78997046 -0.25297108 0.7355771
-0.7411029 -0.083548844 0.43513286
0.50405544 1.2261696 0.7073958
0.20264992 1.2695725 -0.3492275
0.09050462 1.4003559 0.2601186
-0.37178162 0.72364604 0.69787955
0.5863012 -0.2466361 -0.21534598
-0.21802148 1.227993 0.8352365
0.78137594 1.2568195 0.43315637
-0.5788996 0.85463107 0.2818389
-0.18922964 1.8604287 -0.1289548
-0.6224339 -0.40406036 0.90491843
0.24200925 -0.24621019 -0.39336634
-0.5617379 0.5203824 -0.41352782
-0.443811 1.8108717 -0.41337484
0.78164184 -0.25071374 0.340966
0.9160117 -0.24172147 -0.595111
-0.15171838 -0.07806139 -0.00149536
0.029597368 1.3600137 0.47897986
0.3340242 -0.084143385 -0.36107635
0.6043134 1.074417 0.6587285
0.5426038 1.5939429 -0.013761153
-0.7003756 1.2228925 0.0065441094
-0.39185283 1.2212682 -0.84247804
0.89960694 -0.40775096 -0.08633852
0.69492614 0.73787576 0.4605971
-0.13827321 0.59727466 -0.54012686
-0.3479532 0.53163385 0.32388413
-0.339042 0.590307 -0.44244704
0.06602003 -0.25705132 -0.3571589
0.7287337 0.83683914 -0.5397138
-0.48597103 0.99574304 -0.5709834
-0.055384208 1.3015203 0.6583835
-0.680395 1.3677278 0.114270136
0.27311584 -0.08290583 -0.7027682
-0.89554596 -0.40653157 -0.535449
0.040504895 0.6857206 -0.6490284
-0.27260122 1.0513958 0.63705856
-0.03020268 0.78152275 -0.4866409
0.8928751 -0.40792415 0.73273575
0.22354385 -0.077849284 0.11509551
-0.20601152 0.76408446 -0.41731438
0.05092982 1.6492677 -0.16308251
-0.4446342 -0.25117615 -0.29082885
0.9005957 -0.088613726 0.53290963
0.88765407 -0.40152162 0.905954
-0.053934038 1.316179 -0.10241571
-0.4914679 0.8467317 0.46364772
0.565288 1.7180858 -0.4273878
0.30692053 -0.4033215 -0.91812193
-0.30474463 1.5856315 -0.20047063
-0.5238056 0.44953746 0.30764723
-0.35532284 0.9173013 -0.42001066
-0.14309531 -0.408875 -0.9115689
-0.1816273 1.6403294 0.19837496
0.44563466 0.88792765 0.2600044
0.26783407 1.6950538 0.6188196
-0.36908478 -0.41579023 0.5509367
0.57135296 0.63806117 -0.30347303
0.20790702 -0.41366088 -0.76001716
-0.15302855 1.8127149 0.06326179
-0.5307511 -0.085754916 -0.1516144
0.53902686 -0.101481915 0.9163835
0.75804055 0.6031894 0.122979164
0.538738 -0.07274434 -0.124132544
-0.21166186 -0.2564045 0.7636197
-0.020007208 1.0831192 -0.95410585
0.1171881 -0.41910347 0.75200856
0.26414627 -0.24063939 0.008480605
-0.34298387 -0.41918665 0.15183148
0.26060772 0.43251085 -0.17842779
0.029377965 0.87958723 -0.91108334
0.2502507 -0.25648645 -0.6070945
-0.12599611 1.5929471 0.7200947
-0.07551649 1.8525412 0.4802724
-0.21313483 1.1870983 -0.91791105
-0.45334682 -0.25889236 0.41076228
-0.17737682 2.004455 -0.011399584
-0.1303083 -0.26048374 0.4732715
-0.3324336 0.8704365 -0.6503781
0.093648486 0.7727348 0.1753137
0.22627532 -0.2611298 0.77718127
0.933605 -0.24635768 -0.783278
0.44412556 -0.25543106 -0.62942535
-0.2911051 -0.254318 0.0260716
0.29791218 1.3664904 -0.49521837
0.7244976 -0.39927772 -0.92002773
-0.72344273 1.5658617 -0.32022497
0.06780949 1.8279064 0.0659458
-0.33984408 0.49296504 0.12251083
0.17236984 1.7142422 -0.69616735
-0.92364955 -0.25923353 0.43066356
0.4496247 -0.24839646 0.52746534
0.4014271 -0.25654092 0.3548674
-0.91250324 -0.105478555 0.17105436
-0.47426927 0.72706234 -0.70602906
0.44187835 0.3471813 0.19441353
0.40771222 0.52863574 -0.27862582
-0.304327 -0.085470915 0.116897255
0.012007916 -0.08352946 -0.48441765
0.704954 0.9192366 -0.020828195
-0.4081398 -0.23998126 0.7552476
-0.22631207 0.4174314 -0.17462546
-0.06570332 -0.2486878 0.2861948
-0.2327911 1.5893337 0.01243665
-0.4131899 1.0027936 -0.13394293
0.7890823 0.69781655 -0.2767179
0.90311867 -0.086481996 -0.48942646
-0.31344664 1.3256675 0.427948
0.12623146 0.86890095 0.66861594
-0.32422054 1.555844 0.68830705
0.5430149 0.59737456 0.483347
0.2624427 0.6686808 -0.21667267
-0.626862 0.8814126 -0.64386296
-0.15846246 0.32276505 -0.4704163
0.38290203 -0.42010397 0.015336921
0.08787419 -0.40493488 -0.9126896
-0.14572686 1.3674476 -0.2786895
-0.7171963 0.89931387 -0.072610475
0.4089743 0.62580824 0.6166822
0.009690154 -0.41115087 0.90735805
-0.039558414 1.3037236 0.85389423
0.46520048 1.882338 0.15187584
0.39847213 -0.084965475 0.21511239
-0.42323062 1.3396647 0.25769752
0.08081816 0.49945998 -0.7063199
-0.45056576 0.78049827 0.110418305
-0.21245104 1.0114619 0.15707174
-0.05185909 0.35124028 -0.07864696
0.26625377 -0.08824578 0.7288799
-0.89795834 1.0470421 0.022919994
0.47084928 1.4047256 0.7006815
-0.7340429 1.0574317 0.086917564
-0.028884038 1.9912269 0.16890657
-0.7313367 -0.08567289 -0.9020859
0.40357322 -0.42043322 -0.1814807
-0.0714342 0.49775785 -0.20868322
0.12623283 -0.25272492 0.6092686
0.8952161 -0.087768316 -0.08852363
0.8876448 -0.0819087 -0.70657253
0.56085 -0.41627982 -0.2910725
-0.16026098 1.4230123 0.5818616
-0.47569463 1.0575047 -0.34316984
0.3411072 1.0626925 0.19939657
-0.29948294 -0.24804935 0.5768086
-0.373264 0.519523 -0.27226853
-0.38372564 0.405015 -0.4611225
0.40961695 0.74359816 -0.76868993
-0.6200495 0.68663526 -0.5470079
0.5842836 0.79810655 0.35579383
-0.6523179 1.7199681 -0.16228595
-0.08534754 1.4776938 0.37375042
-0.6047758 -0.095878795 0.14356178
-0.7311484 -0.08340373 0.8001978
0.49456108 -0.25032854 0.22698414
0.0040751854 0.19445473 -0.15278718
0.20916869 0.48961037 -0.38174587
0.22249475 0.80542576 -0.87199116
-0.033622317 1.7538686 -0.6804495
0.73221445 1.44024 0.42600852
0.3457111 0.629598 -0.42056674
-0.35867453 -0.085696414 -0.25446546
-0.8333601 1.413088 0.17164892
0.17381606 0.99098265 0.50089455
-0.08073185 0.42390013 -0.6159683
-0.39030945 0.30472824 -0.14211689
-0.8217882 0.9975053 -0.36584663
-0.5355978 0.7013265 -0.37965995
-0.42089838 1.6731601 0.53345644
-0.16303605 0.5899538 -0.049592726
-0.1349844 1.9402947 0.3356953
-0.9236033 -0.2560573 -0.21795346
0.5640567 -0.40810865 -0.076585695
-0.8605709 1.1915479 -0.2917496
0.8575916 -0.2500338 -0.9302547
0.47588634 1.2887578 -0.574064
-0.19828668 0.48165786 -0.37680006
-0.36783594 0.72028315 -0.1093991
-0.3155936 0.8580644 0.20920004
-0.10716267 1.1594877 -0.19548395
0.08568506 0.36542702 -0.21329449
0.5785074 1.2832525 0.38787425
0.7541125 -0.25146884 0.5423076
0.8952197 -0.40747637 -0.6875177
-0.041350774 1.1005955 -0.4140783
-0.358815 0.50522 -0.07715591
0.35960683 1.6412714 -0.69105446
0.4064505 -0.25557357 -0.10752359
0.3953668 1.8552539 -0.39816958
-0.19060354 0.33812916 0.39605457
-0.2341465 -0.085845724 0.51031923
0.21482274 -0.4103953 -0.09643392
0.13377711 0.20787212 -0.0093664965
0.6665136 0.86954427 0.17603177
0.33759528 1.9477035 -0.19706142
-0.88522696 1.010987 -0.17867163
-0.028201569 -0.09687771 0.91414547
0.9112891 0.9850217 -0.014801705
0.008414413 0.7150282 0.028385907
-0.256741 -0.08506128 0.71395904
0.40010864 0.5139761 -0.08819605
-0.33117855 1.7545485 -0.047074825
0.37764165 0.7151924 -0.052398033
0.19721767 -0.24666405 -0.9281144
0.09984408 1.1121938 -0.2642341
-0.2473909 1.9343476 -0.33980748
0.56172276 -0.086331055 -0.5338562
-0.3386193 1.5004456 0.14342064
0.42494446 1.728012 -0.5453242
0.59544766 1.2282512 -0.42586303
0.9016719 -0.086741 0.11423923
0.62739086 0.993479 0.32697684
0.60603285 0.6824721 0.19265658
-0.32556814 0.56312805 0.60894465
0.21299335 1.7190492 -0.4095061
-0.42720586 -0.40798151 0.896454
0.116493836 1.5207732 0.3891812
-0.7330241 -0.24949779 0.9192903
0.3860932 0.937007 -0.849212
0.58568525 -0.2505975 -0.41181266
0.7053207 1.1491103 -0.2684028
0.5555721 1.5896933 -0.5878164
0.34356788 1.5888625 0.10994861
-0.821911 0.8331197 -0.25889072
-0.78543377 0.674809 -0.1367512
0.3972165 -0.41196856 -0.7653872
-0.63769525 0.78311914 -0.23407558
0.7014625 1.5848138 0.30895525
0.72796834 -0.4177196 -0.18619728
0.7237241 1.6485825 0.11181801
0.7373631 -0.08404263 0.64731807
-0.6192148 -0.25698653 -0.6180399
0.019699847 1.1070293 -0.051933654
-0.253928 -0.4140386 -0.26389724
-0.36882848 0.3359936 0.26199716
0.19659865 -0.08493891 -0.4976372
0.17066692 0.7246208 0.7800189
0.08342531 1.8556488 -0.54111063
0.45280907 1.105747 -0.31272227
-0.64578444 -0.08213078 -0.742252
0.14718404 1.7937303 0.25767934
-0.5474342 0.40346837 -0.078114785
0.31154662 -0.25157848 0.6212109
-0.011452111 1.951699 -0.38316178
-0.3099545 0.84886897 0.40303767
-0.3483609 1.7265944 0.14859019
0.9014449 -0.40798938 0.32753277
0.2179163 1.2498298 0.2125412
0.024036601 -0.24487117 0.76933205
-0.7834003 1.3584664 -0.39126748
-0.52315134 1.1803575 -0.19968832
-0.5143494 1.3212781 0.47012702
0.2552657 0.8778676 0.19925019
0.65261483 0.8296391 -0.36467752
0.5685427 -0.20299783 -0.04504194
-0.6782876 0.5487425 0.19112346
-0.5960987 0.9204558 -0.41134438
-0.30078924 0.88612425 0.002693209
-0.29488957 1.8252571 -0.49460205
-0.8407991 1.3998594 -0.21465415
0.18249391 1.0031061 -0.108837605
0.66779506 1.6998065 -0.28139654
-0.93207407 -0.25560826 0.6361524
0.4831738 -0.41435942 0.9055581
0.7162509 1.2920363 -0.101057604
0.1596551 1.6159599 0.19050169
-0.32712293 -0.08359121 -0.07462122
0.0209553 1.4803615 0.7890232
-0.7753414 1.57359 -0.11673128
0.06270597 1.2110596 0.34463656
-0.20148268 0.93323046 -0.5401609
0.06906508 -0.0827243 0.2505715
0.13571554 0.64882016 0.47820884
-0.12779209 -0.41651466 -0.6151642
0.25508022 1.6511731 0.4046442
0.90139544 -0.4061733 -0.48937663
0.1895032 1.5403959 0.5533091
-0.4399432 1.1779401 -0.034282245
0.38243127 1.4928476 0.46373796
-0.17333966 0.5704642 0.39857015
0.12073819 0.5807067 0.1536183
0.44670632 1.450039 -0.22862619
0.7360892 -0.4208416 0.02093602
0.028556943 0.706731 0.63182116
0.061541237 1.7031384 0.41883153
-0.26686144 1.478259 0.31824556
-0.037475415 1.2759229 -0.92571265
-0.30399007 0.81661683 -0.83403766
0.12182301 1.8040783 0.5489013
0.5699955 0.4596284 -0.36627746
0.8981347 -0.40801054 -0.28884888
-0.5765505 -0.4158342 -0.31987745
-0.015890758 0.46615043 0.31023812
0.03351366 -0.090561554 -0.91537297
0.5770209 1.1751525 0.0016773066
0.083276324 1.934964 0.3570869
-0.7185429 0.65064406 -0.34409648
-0.18848768 -0.41258234 0.6148119
0.5615112 1.5283602 0.16409065
0.2252003 1.3418922 0.43545014
-0.3855834 0.3030533 0.0476509
0.54996276 0.8963592 -0.53514695
0.0203558 1.1149731 0.15831399
0.762331 -0.24185519 -0.7413187
-0.14353123 1.6875203 -0.12268529
-0.32182747 -0.41555214 0.7400454
-0.08873731 -0.41545188 0.7584703
-0.6184424 -0.25273034 0.7252687
-0.13360927 0.9384488 -0.73205507
-0.2516817 -0.2565776 -0.9251762
0.7319691 -0.41364074 -0.58331096
-0.60086024 -0.25106353 -0.4256779
0.79208434 0.74480265 0.26387006
-0.13584545 -0.086371355 -0.59412456
-0.0053773103 1.450001 -0.6620777
0.6946385 0.6523657 -0.44609472
-0.35980853 1.3177605 0.045913655
-0.1628849 0.97813624 -0.36411983
-0.5522035 -0.09107788 -0.9165126
0.2638533 1.1516984 0.41475958
-0.84562016 0.89329815 0.16011879
-0.27447033 -0.24545899 -0.37531877
0.5305698 -0.41081175 -0.9007132
0.40677583 -0.24490178 -0.46851254
-0.7018883 -0.41832513 -0.8019255
-0.32129744 -0.25180364 0.92322266
0.3783904 -0.41783544 0.22020161
0.015314148 0.8791659 -0.081506096
0.055487484 0.55636877 -0.5064144
0.807181 1.5589106 -0.032291297
0.70108056 -0.4174468 0.8785296
0.5144251 0.3608147 0.019016873
-0.56096196 -0.08616163 -0.3381412
0.6517441 0.7816442 -0.1723599
0.52231216 1.8320258 -0.2525202
-0.09324995 1.279774 -0.7359779
0.6649272 0.5834106 0.3283816
0.068572015 1.6145525 -0.56690645
0.89658993 -0.40639663 -0.88085735
0.5747347 0.7095287 -0.626343
-0.7613305 0.7418313 0.27139342
0.4416163 1.0948567 0.36680672
0.54825664 -0.25541475 -0.778743
-0.3573259 -0.08842149 -0.9134701
-0.10832098 0.568483 -0.75316983
-0.019824335 0.5727285 0.49401882
-0.21298674 -0.24318218 0.18003696
-0.25202727 1.4265577 -0.132523
-0.018731032 0.7495371 0.80642724
0.16009817 1.0415802 0.2747128
0.32126212 0.5895268 0.43561944
-0.9243738 -0.24922524 0.0055967374
-0.008315756 0.4314491 -0.38028526
0.10041094 1.634696 0.7048816
-0.8302583 1.40574 -0.024071673
0.38219965 1.1273336 -0.6809089
-0.09385382 0.9745995 0.035077773
-0.6293545 0.97547174 -0.22319268
0.5784604 1.6273324 0.4559389
-0.016199186 0.3711428 0.49429184
-0.51906633 -0.4191088 0.7111531
0.7219 1.0494778 0.13029894
-0.29939377 1.7618811 -0.2662155
-0.62172735 0.71425563 -0.048419192
-0.17679857 1.379976 0.032651022
0.50034404 0.9161122 -0.2899382
0.9031229 -0.08763105 0.32510677
0.24815956 -0.251715 0.4432461
0.25881487 1.0240405 -0.3355555
-0.5247946 0.6838895 0.56340665
0.112880275 1.9947854 -0.21987575
0.027666956 0.53324986 0.68195987
0.073335305 0.349705 -0.5323868
0.5072645 1.3801699 -0.024731113
0.34128588 0.9055538 0.6015625
0.62604165 -0.2502601 -0.608805
