0.6227076 1.2883787 0.50190586
0.525277 0.39542827 0.041390948
0.48423138 1.4303248 0.24913466
0.7417888 -0.25417942 0.75563014
0.43598688 0.9118154 0.5195833
-0.5518939 0.86874247 0.3745469
0.12956521 0.11722033 -0.39371604
0.69102204 1.1070087 0.53841615
0.29611033 1.6374042 -0.6072178
0.7598716 -0.24759917 0.9311873
0.4619742 -0.08693727 -0.7248802
0.002759731 -0.4046191 -0.4707818
0.050560325 1.2967341 0.022850014
-0.70345145 0.92342186 -0.17686775
0.32812917 1.2896812 0.23490563
0.08205378 -0.17222595 -0.5136511
0.37793282 0.33784157 0.20229456
-0.32307807 -0.07256608 -0.5812712
0.16628844 0.5256017 -0.42602447
-0.90353465 -0.09507865 0.7223339
0.49353772 1.632598 0.2922014
-0.5797492 1.3515724 -0.09884786
-0.46313632 -0.25288817 -0.9223672
0.418538 -0.08443118 0.6362233
0.29609364 0.27646422 -0.6673515
0.89725167 1.2299514 -0.19531983
0.9214084 1.0617378 -0.28457844
-0.2717255 0.93148965 -0.034728162
-0.19268087 1.47281 -0.47882867
0.26084942 0.099305615 -0.24875033
-0.3998428 1.187906 -0.24920863
-0.7143593 0.6457466 -0.49725747
0.033927526 -0.11775638 -0.1773541
-0.7146498 1.3958077 0.046296913
-0.7217063 -0.08664323 -0.42800778
0.3646207 0.9852073 -0.5381588
-0.58049047 -0.41388914 -0.109716676
-0.3211212 1.2169156 0.5202642
0.13027483 1.2582278 -0.5174396
-0.23263285 0.69473696 -0.2674364
-0.036007658 1.1190786 -0.5851697
-0.20812549 1.0699766 0.5761318
-0.7426417 -0.080796644 0.20235142
0.27789772 0.43476993 -0.81774116
-0.05957155 -0.08937363 -0.7630931
0.76147264 -0.2526284 -0.4913098
-0.51749545 1.1276116 0.61456585
0.63434315 1.2442524 -0.70112497
-0.09549155 -0.21720184 -0.4618122
-0.115383215 0.9325676 -0.82563853
-0.09746658 -0.055016182 0.16350222
-0.74390894 1.0035443 -0.5296621
0.42536455 0.8923998 -0.11453995
0.16524224 1.2770854 -0.1345073
0.26389822 0.80505615 -0.60406303
0.9212972 -0.24865547 0.014532616
0.09597728 0.49662673 -0.88941765
0.8732641 0.6847595 -0.39866957
0.71534324 1.5439975 -0.16271237
-0.21007994 0.108967066 -0.110283546
-0.40276295 1.3096061 0.36898774
-0.101492345 -0.21660087 -0.27676108
0.8954605 1.1268213 0.20311247
-0.724633 -0.4207438 0.7765903
0.36878794 1.1173275 0.7463417
-0.49543983 -0.41897196 -0.7297987
-0.6974422 0.822466 -0.5790788
0.19925737 0.24512753 0.14894143
0.33513004 0.74446726 0.7606665
-0.5678233 -0.08770442 0.5032382
0.73896325 -0.08825953 -0.57931185
0.8732531 1.0295575 -0.45383012
-0.09783983 1.4169304 -0.63866174
0.3467274 0.1337657 -0.060911834
-0.017227724 -0.41456163 -0.7607292
0.72487116 -0.41932875 0.6488361
-0.090824634 0.5702321 -0.9084374
-0.43022597 0.61244035 -0.5625901
0.040062334 0.84656894 0.3562538
0.56453323 -0.05128788 0.11574936
0.19557247 -0.41140994 0.2811311
-0.34924188 -0.4143812 -0.59208643
-0.3435383 1.1854869 0.70288944
0.1505099 1.2435306 -0.9372288
-0.8906301 -0.09931096 -0.91187507
-0.73856556 0.93700194 0.37330934
0.080798805 -0.43378764 -0.26426017
0.43431634 1.0307598 0.03713167
0.53877926 0.2784502 0.30955276
-0.07824917 -0.074963994 0.56065464
0.12797964 1.6159233 -0.33834
0.15544017 1.0697277 -0.19961047
-0.7610512 -0.24616314 0.30518886
-0.48617065 1.6486783 0.10528974
0.44917256 1.0764652 -0.17601609
-0.4560334 0.37252954 0.43205172
-0.8597243 -0.08017269 0.012046144
-0.47570884 0.6946107 -0.11501148
0.78798604 0.9813165 -0.60291314
-0.17454572 1.2521043 -0.71043885
-0.19128965 1.5428679 0.54265296
-0.33089525 1.748934 0.0053347675
0.59771866 0.7094817 -0.7821677
0.3582731 1.5496101 0.19604456
0.7240852 0.83583176 -0.6906267
-0.39783916 -0.08076045 0.38649535
-0.62107146 -0.09137301 0.9108118
0.40696687 -0.07198445 0.4296304
0.5786823 -0.27075106 0.8977317
0.92078006 -0.24775791 -0.3859843
-0.89437485 -0.40683302 0.09883273
0.78989446 0.91999114 -0.12653922
0.9181722 -0.24852821 -0.18394077
0.58460784 0.39519134 -0.57145953
-0.54313344 -0.42116845 0.4882921
-0.09229394 0.14041236 -0.3316909
-0.71903723 -0.41632092 0.40010804
-0.064743 0.43721873 0.11482549
-0.29693186 0.9250374 -0.5351862
-0.85744846 1.0527607 -0.13328558
-6.910389E-05 -0.413317 0.5673748
0.18548886 0.2628827 -0.0694529
-0.683074 -0.0842731 -0.042299308
-0.7126622 -0.4183659 -0.6239551
0.07507129 0.67045957 -0.7780478
-0.8998329 -0.40404597 0.7154725
-0.90309083 -0.09348872 -0.5300481
-0.59604967 -0.24259484 -0.21105097
-0.30307895 0.84773445 -0.92359436
0.42977998 -0.25543323 -0.92091525
-0.55323815 1.4342347 0.3771304
-0.013296173 -0.4090784 0.36679196
-0.18919638 0.64883053 0.7478095
0.3802325 0.96801054 -0.9249953
0.42983145 1.3148181 -0.61901903
-0.48347488 1.3672943 -0.28511155
-0.52180314 -0.24680199 0.91360146
-0.42796552 -0.21790975 0.086088955
0.6659586 0.853989 -0.4580908
0.040086523 1.4252546 0.19914076
0.01361564 0.2525376 0.08366787
0.16545515 0.14079839 0.34766063
-0.25366288 -0.42041206 -0.7514014
0.36582184 -0.25358847 0.92311174
-0.21042424 1.3789899 0.45578605
0.36461425 -0.06794748 -0.55666244
-0.13227794 0.94416106 -0.62722373
0.8889246 0.60784733 0.0146842785
-0.45092186 1.398859 0.20669058
0.401343 -0.079435006 0.85942245
-0.03253148 0.7627156 0.80750895
0.3089005 1.302752 -0.40993375
0.33311492 1.7493052 0.20174843
-0.35228094 -0.2599968 -0.76668656
0.73618853 -0.08432372 0.22198269
0.3220855 0.977501 -0.25635695
0.44055247 0.91608787 0.7352594
-0.45080268 1.5873957 0.29915133
0.54391456 -0.41666228 0.12788117
-0.67200416 1.0995939 0.43063456
-0.09791644 1.1216009 0.33753031
-0.026388254 -0.24781072 -0.62891716
-0.5312792 -0.082202464 0.7243135
0.81319654 1.3816035 -0.2997208
0.23097941 0.6202235 -0.08632627
0.95541286 1.0142171 -0.11048988
0.5905831 0.43903726 -0.1604835
0.6144173 1.3737433 -0.374911
-0.07246058 1.6064836 -0.34640503
0.4491063 0.26954022 -0.5494652
-0.09632711 -0.42160752 -0.14734735
-0.73736596 -0.41669166 -0.21515891
-0.26669544 -0.40962005 -0.07913628
-0.22728279 0.5043186 0.22084823
0.90411353 -0.08938302 -0.8948003
-0.3675775 -0.4117378 -0.90049744
0.115666226 -0.24245939 0.31561017
-0.89526945 -0.09343681 -0.3360892
0.010334266 0.80529994 -0.2780811
-0.12499954 0.46502596 0.6761525
-0.6202896 0.713699 0.060577884
0.047301963 1.8425891 -0.07068569
-0.06924106 1.2920613 -0.50042063
0.92439234 -0.24830738 0.2263432
0.14886169 -0.40737024 0.4499599
-0.028840996 -0.25773805 -0.9140785
-0.91560745 -0.26057097 -0.8706591
-0.17824362 -0.40226695 0.2520028
-0.6397377 0.6176097 0.42000005
0.07285586 0.88408256 -0.8366941
-0.21377444 1.2098505 -0.90890574
0.75068706 0.7816844 -0.27556497
-0.30681407 0.13739774 -0.36258322
0.6720123 1.308969 -0.19780397
0.43755808 -0.2447896 0.7522576
0.023794282 1.3588331 0.513333
-0.3885725 1.5042493 -0.6354427
-0.10178786 -0.25683892 -0.08639628
0.7899115 0.90471137 0.44962558
-0.1993753 0.12783015 0.13713652
-0.19540808 -0.41625994 0.4397207
0.23722625 -0.07763517 0.5264291
-0.24455422 1.0508356 -0.20043835
-0.26789552 1.2674773 -0.39614213
-0.46649545 1.2805711 -0.45380265
-0.36009836 0.98829854 0.7225282
0.3973716 0.58453834 0.6747825
-0.5451203 -0.08565386 -0.5522272
0.08530866 -0.061851226 -0.67325425
0.2480214 0.9479872 -0.014658804
-0.7733592 1.1429212 0.27902073
0.42731157 0.7616385 -0.7093463
-0.6398058 0.7863054 0.50369215
-0.40658903 1.0030534 -0.6797565
-0.06203476 0.9845172 0.46143597
0.05424977 -0.30176008 -0.18406051
-0.7606967 -0.24947864 -0.1093993
0.0042996146 1.5285962 -0.49517298
-0.26593208 0.8971884 -0.32231873
0.3112651 1.0421696 0.57781446
-0.2562335 -0.22157414 0.35913855
-0.4383319 0.4385348 0.15714806
-0.497471 1.0381798 0.08883247
0.3062271 0.11100213 0.14321557
-0.09181567 1.2850327 0.1420629
-0.8965732 -0.4062579 -0.10696571
-0.5775523 -0.40526187 -0.91504955
0.5820528 0.59029543 0.5585799
0.12908638 1.1164386 -0.8078901
0.27788496 1.3686402 -0.8630823
0.465622 1.2909131 -0.80566925
0.09738532 1.2528381 -0.3103126
0.38041323 -0.06309433 -0.18517658
-0.53322256 -0.41624656 0.28985065
0.07965475 -0.018587112 0.43160093
0.108596936 0.084980175 0.15859714
0.93529826 0.8610542 -0.2817729
0.74479705 0.36450708 -0.26891923
0.7372175 -0.086735226 -0.89867103
-0.40875334 -0.24249363 -0.47585672
0.22736022 1.8154497 -0.098261476
0.09739396 -0.23656784 -0.036137026
-0.2147319 -0.40291718 -0.4556618
0.47731513 0.56518257 -0.2879197
0.4264869 1.1022234 0.24961978
0.33451796 -0.41548508 -0.578794
-0.24531041 0.30500877 -0.6726917
-0.48078194 1.6717355 -0.097944185
0.41803488 -0.41272092 0.6094986
0.5353605 1.6909839 -0.12821138
-0.09415852 -0.035564825 0.38126165
0.4384187 0.79315263 -0.507722
-0.29831934 1.7704997 -0.19427386
0.22966406 -0.4017299 0.9096341
-0.19499645 -0.01720345 -0.43247283
-0.03330353 0.113639355 0.26496977
0.19023803 0.6344654 -0.5828671
0.44014078 1.1150117 -0.39687467
-0.606902 1.2458181 -0.2682077
-0.26127964 -0.21868083 -0.1881111
0.8615539 1.2212315 -0.40177602
0.5416516 -0.4111493 -0.48858654
-0.38222283 0.8204932 0.2635813
0.17063317 0.9430875 -0.52471316
-0.41888008 -0.24164337 0.25994676
-0.40750366 -0.04212127 0.18827417
-0.16085228 1.0261471 -0.424936
0.893569 -0.09631716 0.90829134
-0.02067218 0.45939597 -0.40910235
0.92608833 -0.25236946 0.86225307
0.11976352 1.4124296 -0.40284717
0.20353322 -0.4091141 0.09579186
-0.06715078 0.9404917 0.66292506
0.38552558 1.7718835 -0.030939138
0.3061157 0.14099272 -0.48896703
0.7047508 1.1891359 -0.3586436
-0.42877746 0.6932795 -0.30260456
0.4582513 1.3988578 0.58053404
0.72686183 -0.4170976 0.4278809
-0.52583915 1.1104486 -0.7765732
0.54270774 -0.055053897 -0.307545
-0.48785377 0.9012803 -0.82591534
0.72162604 -0.41700664 -0.38659427
-0.8968794 -0.09476813 -0.14968777
0.8326066 0.4768461 -0.124055006
-0.86704403 -0.09267132 0.90839326
-0.83515054 1.0678296 0.07149554
-0.14585233 0.8377779 -0.15996897
0.33460975 0.5048214 0.06998058
-0.17394952 0.2754724 -0.00017083329
0.35779676 1.5921807 -0.30103755
0.28003627 -0.21838686 0.21827897
0.16638514 0.774468 0.035459578
-0.11846464 0.7836565 0.4583502
-0.11085667 -0.26180482 0.9172708
0.5680649 0.8993815 -0.8316616
0.7621733 1.1744336 -0.5753616
-0.093330786 1.4931947 0.35979295
0.24193521 1.2595598 0.05122599
-0.15645874 1.2470161 0.74127907
0.3070103 1.1281917 -0.066034496
-0.1077231 0.5798204 -0.7123687
-0.4924882 0.22915576 -0.3216092
-0.7309698 -0.41525885 -7.8555706E-05
0.16495639 1.1988816 0.59534717
0.7162576 -0.08335765 -0.189259
0.7256191 -0.08174608 0.014211222
0.5182086 1.4754906 -0.24135822
0.70133054 -0.41609842 -0.7599243
0.36618614 0.74144185 -0.01646775
0.28288612 1.4215335 -0.25864226
0.61086094 0.2325306 -0.22348157
-0.4530995 -0.08467054 -0.7378703
0.6499249 0.28416252 0.13627821
0.33152622 0.6466587 -0.4291458
0.73507977 1.3643793 -0.51058185
-0.4522984 1.4704206 0.011749801
-0.7545811 -0.2520066 -0.32069808
-0.41854924 -0.40908864 -0.20049551
0.83148074 0.7277771 0.33395785
0.38616776 1.3265009 -0.11274393
0.22364978 0.8371266 -0.9755022
-0.7690768 -0.25493193 -0.5244461
-0.30387056 1.3336074 -0.5898513
0.2495644 -0.39768022 -0.28388825
-0.5844399 0.53995603 0.122120954
-0.640214 0.94479376 -0.38240278
0.47359705 1.1113551 0.45736647
0.10279367 -0.23545548 -0.7595565
0.24912438 -0.0330773 0.32581946
-0.09336777 0.9532833 0.22596347
-0.54580766 0.88215566 -0.07324359
-0.8927853 -0.4109642 0.3123644
-0.86303246 -0.4029026 0.9045268
-0.6935724 1.3437381 0.25329015
0.33399278 -0.4162889 0.7677021
0.7110496 0.7360709 0.50822216
-0.5721173 -0.25123617 -0.7877706
0.23238015 -0.22289547 -0.20151013
-0.8934333 -0.40553057 -0.73117805
-0.38317534 1.2257518 -0.81307685
-0.15654227 0.7869425 0.2699417
0.64815164 1.6144855 -0.0009019603
0.594095 1.0871325 -0.26246804
-0.5879173 -0.24637027 -0.009725302
0.7749089 1.0655537 0.038205355
-0.89466286 -0.40908128 -0.3232937
0.8565336 0.84014857 -0.4909876
0.35583496 0.1742994 0.32888126
-0.6224606 1.544358 -0.026652528
-0.7253214 -0.4155329 0.2028366
-0.35243666 0.76972735 0.71494377
-0.7422838 -0.08654648 -0.6086223
-0.21187603 -0.4118414 0.9006196
-0.6340418 1.2683624 0.44150573
0.92371607 1.180157 -0.00517617
-0.7547183 -0.24173932 0.09390283
0.05213654 0.50303525 0.26742107
-0.43185177 1.5031976 -0.19312333
-0.49156332 0.45351776 -0.22453168
0.26512265 0.608734 -0.7439039
0.24003242 0.7900572 -0.79277885
0.33210248 1.1695749 -0.9189114
-0.54021907 -0.41544735 -0.527917
-0.38913524 1.0103114 0.51520884
-0.24542156 -0.010282146 0.2886055
-0.90068024 -0.09531881 0.33612794
0.081726015 -0.08748658 0.64954334
-0.42836702 -0.2266025 -0.105354175
-0.64313495 1.2951567 -0.54206896
0.5056782 0.6158006 0.062246647
0.4018588 -0.024458004 0.01885362
0.20249411 0.26148593 0.50446326
0.77465796 -0.24799383 0.11981757
0.5470068 0.6937984 -0.13173477
0.1898463 -0.08096446 -0.8890219
-0.37361476 1.3253026 -0.09439705
0.59681547 -0.24737257 0.42312363
0.35543904 0.75942904 0.34173328
0.50278413 1.5329546 0.061884593
0.106490046 -0.23913443 0.14151102
0.7224441 1.2524188 -0.011415796
0.5913253 1.1304665 0.11207953
0.050165556 0.96932006 -0.6803311
0.019980574 0.7454575 0.19174588
-0.39469117 -0.41327554 -0.39610827
-0.7138459 -0.08851199 0.61542106
0.53782755 -0.41362828 0.3276773
-0.89325845 -0.09190369 0.52865934
-0.6041421 1.5032018 0.17642462
0.013604414 -0.4112411 0.1820477
-0.6215722 0.93491286 -0.70310193
0.7542587 -0.2522602 -0.28607678
0.4502415 0.5959836 0.39502114
0.030190794 0.9418701 0.83339304
-0.92074895 -0.26697215 0.21173432
-0.23082563 -0.09284577 0.8988066
0.16952407 1.1065769 -0.61462665
-0.85011274 -0.40626544 -0.91294074
0.3730222 0.73008895 -0.23082967
0.28162712 0.5271288 0.2652239
-0.55578464 -0.4132465 0.10300743
0.53197014 0.58115494 -0.4838611
0.2286177 1.6322821 -0.1640408
-0.35761923 1.0763986 -0.40426552
-0.92492706 -0.24798237 -0.6446712
0.89577484 -0.08796359 -0.28601524
0.67211574 0.55284667 -0.030609224
-0.6674042 1.0921102 -0.23123935
-0.24435541 0.9354662 0.37226236
0.2763461 0.59462696 0.4933159
-0.4750236 1.3226933 0.5607171
-0.0022707211 -0.051375654 -0.37528506
0.5634991 0.8149207 0.01899162
-0.5033498 1.2867236 0.07327142
0.16971904 0.67212355 0.31364554
-0.72392964 -0.4177078 -0.4265145
0.38511223 -0.41017997 -0.39284095
-0.09918531 -0.08433643 0.7445643
0.18741533 1.1463374 0.790987
-0.46804112 -0.036753014 -0.0028475225
0.5401731 -0.41994363 -0.66844237
-0.41193038 -0.09293468 0.58344555
0.013963845 1.4788121 -0.002705459
-0.67019176 0.3676595 -0.050307162
-0.42122924 -0.4063593 -0.008549249
0.2651704 0.45135373 -0.608294
-0.6364183 0.35527074 -0.25645536
-0.08962525 1.6809527 -0.56906533
0.4876818 0.49170482 0.2345889
0.59811425 0.87838024 -0.2014678
-0.07122373 -0.2377452 0.08966709
0.5794158 -0.08649727 0.53469145
0.14706488 0.76544964 0.80012137
-0.7022591 -0.41300374 0.60117126
-0.19194233 0.86048263 0.7877306
0.5518533 1.2499655 -0.490511
-0.88941103 -0.089304134 -0.7355636
0.94265944 0.96447635 0.07819544
-0.56404805 1.2088666 0.25909686
0.22561774 1.2906028 -0.71687317
-0.08597508 -0.40296066 -0.3291382
-0.24770045 1.0766548 -0.7379256
-0.20604128 1.5518324 -0.69720674
0.6178833 0.9555458 0.43020895
-0.39221162 -0.04708989 -0.42990637
0.24561282 -0.10597951 0.9169261
-0.766533 -0.24246354 -0.7425094
0.7264987 1.2078054 0.19740383
-0.42178118 1.1637169 -0.5968377
-0.31562233 0.9779191 0.16259497
-0.2924034 1.4704095 0.29185247
-0.26455647 0.46242636 -0.80631757
0.11131123 0.74886596 -0.4452275
0.12396819 1.00541 0.6764816
-0.55743456 1.1228403 -0.41781992
-0.0039735683 1.550385 0.56670415
-0.17860556 1.6154861 0.21876603
0.04344318 0.38118064 -0.071596846
-0.06756973 1.8183507 -0.25461838
-0.037390776 1.3219786 -0.15531293
0.05713497 0.5243529 -0.20741363
0.053933825 -0.07027398 0.028427847
-0.49800837 0.8847463 0.64000034
0.2599893 0.8708121 0.63201886
0.72344923 -0.41845247 0.22625649
0.41705644 -0.2176998 0.07740082
-0.83994555 0.6789298 -0.08779536
-0.47418952 0.41943187 -0.023885667
0.23556551 0.43522543 -0.096680924
0.10663664 1.105272 -0.0013866755
-0.4194231 -0.08738911 0.8886187
0.30193794 1.1994967 -0.25215697
-0.33314782 1.7155306 0.21076396
-0.44224402 0.73011696 -0.8224946
-0.18300983 0.47959453 -0.2749064
-0.9251951 -0.2504286 0.86379004
-0.27297497 0.6858807 0.5522636
0.35527194 -0.4160457 0.42312437
-0.20362142 1.11658 0.15873593
0.033987463 -0.41587925 -0.012986191
0.40006357 0.2884531 0.47777343
-0.42381072 0.8238107 0.063480854
0.18979064 -0.40499812 -0.4521596
-0.4292788 0.5526149 0.29013088
0.21074542 1.4555025 -0.05703728
0.048787378 0.65736085 0.44814554
0.90964115 0.6639898 -0.1901494
0.21810791 -0.054484818 -0.09662526
0.7111116 0.3123759 -0.06240255
0.23668522 0.96879137 -0.75613177
0.4486074 0.40910304 -0.707192
0.13908434 1.0031548 0.48524773
-0.15750843 -0.41253787 0.066274494
-0.16264196 -0.027687052 -0.24212328
-0.4964732 0.68836594 0.60647684
-0.5044864 1.3226705 -0.6918615
0.8977009 -0.40830183 0.12494977
0.8507539 1.3121033 0.12670106
0.55612403 -0.41478693 0.7402592
0.07978083 1.4261093 -0.84574616
-0.23753838 -0.24294803 -0.5908982
0.55523646 1.2672316 0.28762853
0.8950206 -0.4088887 0.53410095
0.29392934 1.6199677 0.03542902
0.36108702 -0.08865962 -0.905743
-0.034423925 1.2758849 -0.9129883
0.09928104 -0.077568114 0.84765214
0.0315947 1.6607442 -0.15756346
-0.18407354 1.785924 0.11547766
0.30402964 1.6673627 0.38346326
0.644354 1.5618529 0.19980696
-0.52521724 0.97792864 -0.53585863
-0.25301892 -0.089166135 -0.74893844
0.7221509 -0.08270991 0.8721129
-0.72144234 -0.08476446 -0.22960086
-0.44462764 -0.24219315 -0.6324731
-0.43940827 1.6775811 -0.28564113
0.6715236 1.046973 -0.73050684
-0.58503574 0.86458236 0.18747357
-0.284321 0.8681581 -0.73929286
0.40910965 0.5965036 -0.6174316
-0.0674585 0.7084952 0.62592256
-0.26531863 0.5220793 -0.62678033
0.45965737 0.12867805 -0.21340421
0.9094906 0.7567653 0.14103766
-0.35739395 -0.41445065 0.35507828
-0.30866945 1.3908412 -0.7842719
0.24966952 0.9487613 0.81165016
0.7389802 -0.08507888 0.43340483
0.40208542 1.5481246 -0.109129354
-0.9236139 -0.25498754 -0.4273069
0.4525869 1.5375911 0.44721365
-0.12593457 0.30489868 0.55038875
-0.88536346 -0.40994373 0.5178812
0.5575546 0.92039466 -0.6099154
0.54554117 0.7656606 0.43437564
-0.30918467 0.25768352 0.42432308
0.5311017 0.7522508 0.6607694
-0.14653392 -0.25794363 -0.7625278
-0.70976865 -0.26203674 -0.9259026
0.43238878 1.2271527 0.08591922
-0.09062688 -0.2411865 0.6251889
-0.16117793 -0.09167627 -0.9156305
-0.81943697 0.9193357 0.19719756
0.1419208 0.38602167 -0.29423898
0.5759845 -0.09086719 0.74361914
0.04705069 0.7889856 -0.63593864
0.19408189 1.8084598 0.0964394
0.23128566 -0.41922915 0.5982273
-0.4327032 0.39250702 -0.64998615
-0.2626782 0.49814808 0.029120367
-0.55859345 1.5383614 -0.37859976
0.0446011 -0.20352909 0.46325856
-0.6060482 0.9774027 0.53181046
-0.7435156 0.7581736 0.30894148
0.7425734 -0.25212312 -0.08449979
-0.23046523 1.142772 -0.5521817
-0.010836607 1.1146725 0.14664774
0.7218697 -0.08544381 -0.3888278
-0.63950735 1.1374058 -0.63107204
-0.7664285 0.537238 0.032279387
0.57166886 -0.07909163 0.32656366
0.28091797 1.4147692 -0.57637334
-0.078303576 1.3938187 -0.33620995
-0.25632066 1.6442168 0.3906273
0.43831974 1.4421308 -0.4297416
-0.46142882 1.0072888 0.3030699
0.3519614 0.29964855 0.028893597
-0.16038415 0.29319584 0.20599164
-0.38443726 0.83351827 0.4777519
-0.0363316 0.63467586 -0.3274538
0.31205142 -0.24124685 -0.77774036
-0.08809 0.6088878 0.31531644
0.606028 -0.26010892 0.061689865
0.6372141 -0.25159287 0.24199967
-0.37174493 1.4460618 -0.4211088
-0.12169593 1.4155138 -0.8318093
0.10397532 -0.40655306 -0.6123172
-0.12553962 0.7768043 -0.96876746
0.64628553 -0.24478444 -0.91601074
-0.6031636 0.4553032 0.3309018
-0.5964322 -0.2557295 0.20101431
0.56681466 -0.4155953 0.5207982
-0.1082556 1.0035584 -0.006977754
0.34090948 1.1333234 -0.7366661
0.058288723 0.8394674 0.58401555
-0.65015876 1.0338035 0.20980588
-0.12883973 0.5514267 0.5074917
0.89745045 -0.09255737 0.73467255
-0.54245114 1.4523119 -0.5379337
-0.56857383 -0.08976194 0.30548468
0.45768517 0.17323641 -0.38209537
0.35132366 1.219453 0.56006926
0.29095313 1.3251929 0.70525205
0.73169243 1.0033195 0.2266975
-0.1220462 0.62041765 -0.12085534
-0.11133991 0.6271211 0.10220244
-0.6024041 -0.25689644 0.3976667
0.18301576 0.66986454 -0.28423023
0.9176854 -0.2516535 0.6476469
0.19054355 1.0346594 -0.9766259
0.4093937 -0.22925773 -0.2925011
-0.5250828 0.24222994 0.07828192
-0.53939545 -0.2581386 0.5917758
-0.30276716 0.5143795 0.43028888
0.9238572 -0.24982974 0.44018
0.5899903 -0.25441542 0.64410925
-0.52720976 1.1705296 -0.09499874
0.5716773 0.9442771 0.15527159
0.8887912 0.91334033 0.26643872
0.2050671 0.33718038 0.31472945
-0.3378043 0.5490755 -0.35638925
-0.7429238 -0.24997029 0.526063
0.2430911 1.7527888 -0.4272201
0.0028023436 1.6153759 0.1926493
0.54642224 -0.08762556 -0.90742403
0.26748925 0.40815085 0.6183088
0.110127114 -0.2461439 0.92687255
0.65057147 -0.083490305 -0.73105145
0.043971967 1.0957742 -0.4070588
-0.055922695 0.086565554 0.022364054
0.5195519 1.1030678 -0.8422985
0.18298316 -0.0640353 -0.30924916
-0.78799367 -0.2519189 0.7218363
-0.7332538 -0.08490483 0.41165268
0.5422859 1.0506792 0.65742725
0.23628125 1.0920002 -0.4035728
0.12382653 1.2181568 0.20929506
-0.33497554 0.5558002 0.653725
0.5774895 -0.23626797 -0.20587079
-0.18144599 1.054872 0.78691113
0.815908 1.0806801 0.38112748
-0.54443634 0.6914933 0.24106872
-0.1578854 1.6756294 -0.17614242
-0.6248305 -0.4040556 0.9061276
0.25911644 -0.20941663 -0.4125194
-0.5451527 0.35441688 -0.46446753
-0.4115154 1.6217058 -0.4622717
0.7753048 -0.25028035 0.33912772
0.9167069 -0.24315292 -0.5922519
-0.12468168 -0.07714939 -0.05338251
0.06666674 1.1759784 0.4263838
0.37235832 -0.021506723 -0.381293
0.64282477 0.90103906 0.6075758
0.5794219 1.4169817 -0.07004103
-0.6644496 1.0535517 -0.040955745
-0.3591364 1.0431259 -0.89423573
0.8953192 -0.4084374 -0.079782575
0.7272949 0.5583036 0.41290414
-0.100611046 0.41345638 -0.58908224
-0.32366464 0.3659528 0.28837848
-0.33394933 0.42712677 -0.49329585
0.082861215 -0.2514006 -0.3529254
0.767022 0.6723212 -0.5906811
-0.45234048 0.81197876 -0.6197575
-0.01613985 1.1368911 0.6129372
-0.6469551 1.1924891 0.07613748
0.26372615 -0.08081272 -0.7117311
-0.8936467 -0.40761608 -0.53193665
0.07574822 0.49907595 -0.69503856
-0.23124751 0.876888 0.5905903
-0.0027096644 0.6119972 -0.5403682
0.89034355 -0.40853068 0.73354965
0.2349264 -0.06351145 0.11045733
-0.18130742 0.57748365 -0.46424696
0.08670911 1.4672148 -0.21241808
-0.42714465 -0.23215073 -0.294514
0.90116566 -0.09021218 0.5361444
0.8816881 -0.40258384 0.9056998
-0.021025319 1.1304857 -0.15729797
-0.4576457 0.68139774 0.419929
0.602368 1.5456789 -0.48239636
0.30590212 -0.40467477 -0.91391593
-0.26426 1.3995563 -0.24786818
-0.5027466 0.28937098 0.2666716
-0.3174917 0.7331947 -0.47013366
-0.1402166 -0.4101863 -0.9075891
-0.13990688 1.4556028 0.15081276
0.5059158 0.735728 0.21151981
0.3010158 1.5220505 0.5616851
-0.37820822 -0.41442478 0.5601342
0.6135061 0.4671878 -0.359394
0.20486715 -0.412984 -0.75096595
-0.11601002 1.6301997 0.0146488305
-0.52281195 -0.060187455 -0.16718987
0.5505991 -0.1052867 0.919713
0.7952858 0.4272239 0.07613728
0.54842126 0.0006019144 -0.10403443
-0.2121171 -0.25375256 0.75904024
0.015800765 0.91065377 -0.9962841
0.11559164 -0.41830975 0.74397624
0.26111007 -0.22966492 0.009610298
-0.346894 -0.40809712 0.15574199
0.3017192 0.27721968 -0.24298033
0.0654908 0.7040021 -0.9657004
0.22975707 -0.24398474 -0.59744644
-0.0906934 1.4091556 0.66568375
-0.040260553 1.6708248 0.42663702
-0.18019798 1.0096396 -0.9690167
-0.42847258 -0.25651485 0.4431111
-0.14034504 1.8229375 -0.060910963
-0.121147975 -0.25339806 0.45705622
-0.29670084 0.6896746 -0.69317305
0.14383528 0.60728455 0.123947695
0.22205126 -0.25310928 0.7792939
0.9315017 -0.2468907 -0.780089
0.42337513 -0.25248486 -0.6331806
-0.2644316 -0.23610434 0.00868731
0.3294349 1.1860486 -0.5498688
0.7238578 -0.39993554 -0.91672796
-0.6854743 1.3826201 -0.37010527
0.10376878 1.6465766 0.018424518
-0.32497323 0.3156148 0.0927352
0.20285314 1.538171 -0.74471784
-0.91754293 -0.25711495 0.4211333
0.44511384 -0.246464 0.52152157
0.40357286 -0.24488822 0.34986103
-0.91189337 -0.104290396 0.15807176
-0.44324297 0.5539111 -0.75625104
0.4880615 0.16383168 0.14877729
0.45540816 0.3559525 -0.3233693
-0.26947457 -0.034792125 0.07264632
-0.006918951 0.06478589 -0.53184783
0.7461298 0.73683095 -0.07314114
-0.4129458 -0.24480756 0.7400409
-0.21367775 0.2601567 -0.22573352
-0.06959641 -0.22214228 0.27931693
-0.18706715 1.4022326 -0.03356705
-0.37372494 0.8420769 -0.18041866
0.82536465 0.52438354 -0.3225517
0.9028349 -0.08764568 -0.48944283
-0.28447872 1.1149518 0.36275882
0.16948827 0.69507533 0.62086177
-0.2881968 1.3761837 0.6376613
0.5807854 0.42076582 0.4351728
0.30132827 0.49798244 -0.27120164
-0.59409726 0.703168 -0.69190073
-0.1878286 0.16154999 -0.53764457
0.38109252 -0.41092926 0.0163717
0.089180715 -0.40618074 -0.9082273
-0.11118496 1.185719 -0.33064657
-0.6872213 0.73435086 -0.11493263
0.4482776 0.4523857 0.56848216
0.014050685 -0.40759045 0.9053961
-0.0050935615 1.1258345 0.8037501
0.50075305 1.7041477 0.100672975
0.4114528 -0.028830653 0.2321402
-0.3893662 1.1755348 0.19979528
0.11639279 0.3222023 -0.7615805
-0.43078887 0.61409533 0.052467417
-0.1985305 0.834574 0.10493457
-0.03522118 0.21364146 -0.120498806
0.25744528 -0.08499858 0.7240899
-0.86228335 0.87899625 -0.020051602
0.5113526 1.227151 0.6451344
-0.6949238 0.8944311 0.045806065
0.0057034176 1.8143051 0.11799334
-0.7307402 -0.08569726 -0.8985269
0.39696717 -0.4140012 -0.18277419
-0.045619 0.34307688 -0.2623614
0.12286238 -0.2622022 0.6068603
0.8955628 -0.08857338 -0.08569901
0.8850048 -0.08260585 -0.7033207
0.55327725 -0.41210425 -0.2870081
-0.13004887 1.234423 0.5163429
-0.44153652 0.87864393 -0.39392024
0.3733219 0.88338816 0.14093696
-0.292443 -0.25102013 0.57381654
-0.35881206 0.3531233 -0.31385976
-0.37640214 0.24279417 -0.51076496
0.44568324 0.57647383 -0.82244027
-0.5933404 0.5148942 -0.5952071
0.62747097 0.6266439 0.30540925
-0.6151405 1.5459569 -0.21511087
-0.040391576 1.3069079 0.32958943
-0.5884393 -0.0887121 0.11672571
-0.72897243 -0.08268561 0.78907096
0.48438781 -0.22364362 0.21813515
0.03173005 0.05248119 -0.18646675
0.24984966 0.3083269 -0.43504307
0.25700003 0.6286082 -0.92591417
-0.0034524156 1.574126 -0.72826743
0.76817524 1.2647505 0.37033498
0.3910964 0.45034826 -0.46923086
-0.35857552 -0.034763522 -0.27066037
-0.8005244 1.2513038 0.123107575
0.21451312 0.8146671 0.45143813
-0.04753598 0.23609631 -0.6656772
-0.3998961 0.13010111 -0.18109122
-0.7885729 0.82351065 -0.41006246
-0.5100689 0.53120685 -0.41486424
-0.38387716 1.4927342 0.4803393
-0.13837591 0.43192983 -0.09658936
-0.0978362 1.7582928 0.28293848
-0.9213668 -0.2578476 -0.22025076
0.5557266 -0.40236473 -0.076134115
-0.8276533 1.0148125 -0.33449566
0.8557596 -0.249844 -0.9263129
0.5065733 1.1130683 -0.6275254
-0.18610036 0.32511657 -0.42693043
-0.3373586 0.5444449 -0.14838088
-0.30374977 0.6718348 0.16609907
-0.06427398 0.981884 -0.26499492
0.10659547 0.2192954 -0.24912544
0.6165137 1.1079227 0.33362353
0.75197315 -0.25314724 0.54338825
0.8921697 -0.40848652 -0.6846752
-0.008915724 0.9152674 -0.47831422
-0.3415467 0.3268486 -0.11305907
0.39062634 1.467624 -0.74000204
0.39955306 -0.24233879 -0.10397157
0.43087953 1.6831028 -0.44540107
-0.16197911 0.17810321 0.37577963
-0.24245688 -0.08235899 0.5036996
0.21380867 -0.40990335 -0.09822594
0.14850149 0.10271281 -0.031165047
0.70490396 0.69595224 0.12303636
0.37033445 1.7738982 -0.25114274
-0.8515687 0.8399526 -0.22056264
-0.044913277 -0.09850116 0.91427916
0.9501195 0.8073374 -0.061716452
0.039475933 0.56296057 -0.009445921
-0.28904033 -0.083818674 0.71172583
0.43736595 0.33238924 -0.13073295
-0.29376173 1.5675809 -0.09317383
0.4216932 0.53759825 -0.102761105
0.19649252 -0.24912186 -0.9243863
0.13309772 0.9278896 -0.32421166
-0.21510424 1.7507887 -0.38645315
0.5491203 -0.07753768 -0.51876575
-0.29717514 1.324631 0.098893106
0.45470816 1.5540832 -0.5929806
0.6276841 1.0512394 -0.47933954
0.9010584 -0.0881196 0.1186683
0.680501 0.8247434 0.28007275
0.6454334 0.5088253 0.14580052
-0.29384515 0.39543325 0.56749666
0.24931622 1.5412874 -0.45546293
-0.4272295 -0.4088118 0.89521873
0.16021189 1.335701 0.33794326
-0.73859847 -0.2479848 0.9183942
0.4166136 0.7681733 -0.90182287
0.592959 -0.24093609 -0.39458793
0.7430755 0.9738046 -0.32326102
0.5828742 1.4162666 -0.6368079
0.38210166 1.4065788 0.05800131
-0.79012144 0.66096866 -0.3020435
-0.7568462 0.50767577 -0.17864768
0.3948697 -0.4134925 -0.7613107
-0.60643464 0.61386627 -0.27252913
0.7353749 1.4096782 0.2523886
0.7213212 -0.4171992 -0.18289652
0.7607843 1.4785686 0.05320604
0.7373269 -0.08547257 0.6486326
-0.61710405 -0.25644007 -0.61530346
0.052410014 0.9251483 -0.10375948
-0.25201774 -0.40085596 -0.27063105
-0.3559986 0.17076954 0.234036
0.19172198 -0.017269965 -0.51993245
0.20932552 0.5546683 0.7340566
0.115468174 1.6724417 -0.5847119
0.4894648 0.93006796 -0.3618968
-0.6435272 -0.08292775 -0.7401012
0.18248105 1.609146 0.21200873
-0.53788006 0.23829389 -0.11841649
0.30341387 -0.24759254 0.6139299
0.019666938 1.767773 -0.42829996
-0.27033156 0.68371713 0.36177844
-0.30977196 1.5462482 0.09916465
0.8982109 -0.40846553 0.32885993
0.25389993 1.0694306 0.15780354
0.016623013 -0.24597785 0.76740223
-0.74517465 1.1747816 -0.43610543
-0.48938537 1.0031438 -0.25158238
-0.48507935 1.1435459 0.42365062
0.3247714 0.6820775 0.16123372
0.68775487 0.6573637 -0.41475683
0.5511222 -0.15864632 -0.05697906
-0.65240115 0.38518447 0.146218
-0.5612229 0.73880863 -0.46070272
-0.27177286 0.71360195 -0.042524535
-0.26116487 1.6433349 -0.53989196
-0.8030703 1.2221589 -0.25972086
0.21851069 0.8298316 -0.16687831
0.7092168 1.5249469 -0.34336406
-0.9265106 -0.25210232 0.620376
0.46427324 -0.4111081 0.9046832
0.7537178 1.1152427 -0.15883717
0.20001557 1.4340914 0.13830021
-0.31766683 -0.05481436 -0.09898361
0.061097942 1.3052514 0.7386067
-0.7369895 1.3972993 -0.16786861
0.10177326 1.0276622 0.29291385
-0.15165874 0.7496137 -0.58960485
0.07311634 -0.07379563 0.24839643
0.17549138 0.4714321 0.43745697
-0.1253536 -0.4155156 -0.6103469
0.29302862 1.4701102 0.34952715
0.8987018 -0.40740886 -0.48534778
0.2300022 1.3604555 0.50209427
-0.41962576 1.0159163 -0.08597869
0.4205793 1.3145125 0.41015247
-0.14081511 0.39964813 0.3663966
0.1574912 0.41565925 0.107618675
0.48279563 1.2748841 -0.280038
0.72549784 -0.4190544 0.02350838
0.06773203 0.5370809 0.5886183
0.098672435 1.5145278 0.37464136
-0.22626956 1.286633 0.28457344
-0.0041318885 1.1004333 -0.9759991
-0.2722124 0.6456293 -0.88634694
0.15445557 1.6298217 0.4925942
0.62300307 0.2944737 -0.41832697
0.89581335 -0.4088272 -0.2831192
-0.56905246 -0.41270804 -0.3175776
0.02486311 0.3007034 0.27628624
0.031295404 -0.09090166 -0.9123819
0.61328214 1.0026566 -0.05330547
0.119324446 1.7548789 0.3034885
-0.6928929 0.48723394 -0.38944283
-0.18937883 -0.41321257 0.6104779
0.5980278 1.3509083 0.10695947
0.26484635 1.1608248 0.38237816
-0.37946427 0.13870287 0.018566595
0.58754253 0.7256117 -0.588762
0.066706195 0.93563414 0.106824905
0.7572199 -0.24315275 -0.7318289
-0.106593594 1.5046945 -0.17139885
-0.31871516 -0.41626745 0.74286413
-0.08708593 -0.41555998 0.7532082
-0.6188841 -0.25129217 0.74860954
-0.10537548 0.7567343 -0.7835356
-0.24957114 -0.25839832 -0.92094946
0.7250627 -0.41315138 -0.57976437
-0.5905191 -0.25044158 -0.42408562
0.8302293 0.5697731 0.21615745
-0.12374285 -0.05943941 -0.5974786
0.029528512 1.271508 -0.711962
0.7404268 0.4849141 -0.49698615
-0.32487315 1.1449962 -0.005776028
-0.12709454 0.7938499 -0.41402954
-0.5512505 -0.09168181 -0.9132417
0.30218744 0.97245455 0.3602773
-0.81308615 0.72859824 0.116603546
-0.2584638 -0.2033622 -0.3825459
0.5292216 -0.4115039 -0.89693546
0.42789063 -0.230798 -0.468691
-0.700074 -0.41848403 -0.7987007
-0.3218367 -0.25458157 0.91794103
0.37090474 -0.40715438 0.21393135
0.053691342 0.71371436 -0.12981898
0.09902412 0.38125348 -0.55527705
0.836735 1.384091 -0.090167016
0.6909307 -0.41771364 0.8791447
0.5579895 0.18600176 -0.026218606
-0.5527319 -0.08074468 -0.34569025
0.6892376 0.60400784 -0.22203153
0.5603565 1.6577275 -0.30699748
-0.062114127 1.1049182 -0.78999186
0.7033183 0.407386 0.28023002
0.10099925 1.4362855 -0.61760473
0.8963232 -0.40595734 -0.8792243
0.6176572 0.548712 -0.67650557
-0.7316407 0.57848305 0.2300127
0.47910312 0.92181706 0.3149606
0.5471665 -0.25659794 -0.7725049
-0.35688466 -0.08930509 -0.9106252
-0.07605788 0.38627124 -0.8033324
0.016498735 0.4080886 0.45168513
-0.24323098 -0.20729378 0.18241104
-0.21793789 1.2357234 -0.17879198
0.019860487 0.5769483 0.76186144
0.20353332 0.8558233 0.22393107
0.36729968 0.4198167 0.3906579
-0.9256933 -0.24568495 -0.0043503554
0.008438495 0.26111686 -0.45083934
0.13813213 1.4582392 0.6497692
-0.7914907 1.2336859 -0.0701735
0.411748 0.9459779 -0.7290482
-0.049340084 0.78839374 0.00902853
-0.59782314 0.80237067 -0.27236414
0.61514056 1.4506261 0.39928263
0.016310502 0.20571573 0.46644035
-0.5235388 -0.4189991 0.7133728
0.7592106 0.87415934 0.07406474
-0.26784956 1.577734 -0.3130927
-0.595229 0.55324113 -0.08089658
-0.13447216 1.1961539 -0.015585728
0.53421545 0.74264073 -0.33953062
0.9025797 -0.08880061 0.32827336
0.24710496 -0.23419379 0.43083766
0.2951848 0.8403336 -0.38725024
-0.49230835 0.5176827 0.5227572
0.14463241 1.813175 -0.2679094
0.06587721 0.36475214 0.641673
0.14001152 0.18785512 -0.59916484
0.5449594 1.2045779 -0.07805099
0.3814608 0.73075145 0.54962647
0.60892284 -0.24416685 -0.59614086
