0.62387156 1.2954527 0.5005591
0.5261371 0.40136802 0.040369548
0.4849003 1.4370253 0.24800079
0.7416887 -0.25347736 0.7565825
0.4377548 0.9184222 0.51843786
-0.5505452 0.87450063 0.37479812
0.13079602 0.121299416 -0.39205903
0.6925055 1.1141548 0.5369805
0.29533887 1.6435261 -0.60813856
0.7595685 -0.2462936 0.9333981
0.46178305 -0.08649397 -0.7242712
0.003192909 -0.40453753 -0.47039282
0.050660413 1.3028289 0.02225085
-0.7025727 0.9281055 -0.17673156
0.3289102 1.2961076 0.23391415
0.08227599 -0.17061962 -0.51200795
0.37926143 0.34329668 0.20141831
-0.32251793 -0.074603066 -0.5815327
0.16699047 0.53121275 -0.42595232
-0.90324974 -0.094396174 0.72419643
0.4941523 1.6395535 0.29092413
-0.57926357 1.3570719 -0.099098966
-0.46259147 -0.25242785 -0.92242956
0.41832697 -0.08385812 0.63635004
0.2966469 0.28137124 -0.6666976
0.8976414 1.2363119 -0.19659692
0.9219698 1.0679746 -0.28599274
-0.27208716 0.9382489 -0.033639044
-0.1929422 1.4785659 -0.4794751
0.26160496 0.10219543 -0.24721959
-0.39950827 1.1931715 -0.24953184
-0.713091 0.6499709 -0.49641514
0.03486406 -0.116741 -0.17843916
-0.7139833 1.4010823 0.045936234
-0.72145945 -0.08591459 -0.42757887
0.364843 0.99095684 -0.53881305
-0.5801898 -0.41407433 -0.10908184
-0.31960833 1.2231015 0.51962966
0.13001665 1.263953 -0.51817256
-0.23100866 0.7001698 -0.26686686
-0.036390953 1.1247098 -0.58565575
-0.20654747 1.0762854 0.5761206
-0.74156106 -0.08001125 0.20307995
0.27831906 0.43976915 -0.8177859
-0.058635306 -0.09007178 -0.76237357
0.7611277 -0.25225526 -0.49112612
-0.51593596 1.1334965 0.614335
0.6341615 1.2502887 -0.70252997
-0.09513723 -0.21747991 -0.4608304
-0.11516805 0.9375217 -0.82594556
-0.09563237 -0.053672653 0.16244495
-0.74355835 1.0077593 -0.529405
0.42613596 0.8982477 -0.1158975
0.16527262 1.2831074 -0.13531774
0.2649433 0.81029224 -0.6041157
0.9210224 -0.24812536 0.014746403
0.09633975 0.5017353 -0.8890939
0.8737833 0.69103134 -0.3996817
0.71486384 1.5496163 -0.16406539
-0.20780393 0.11154027 -0.108948655
-0.40162045 1.3156543 0.3686338
-0.101079345 -0.21494271 -0.27626204
0.89676976 1.1339105 0.20169768
-0.724336 -0.4203319 0.77923346
0.37060794 1.124805 0.7454721
-0.49526113 -0.41889012 -0.730248
-0.6969876 0.8265693 -0.5788016
0.19999778 0.24943648 0.14900428
0.3373506 0.7510287 0.7598437
-0.56674004 -0.08678883 0.50441194
0.7385128 -0.08746081 -0.57891643
0.87322605 1.0358543 -0.4551808
-0.098237336 1.4224615 -0.6393123
0.3489941 0.13724042 -0.061174974
-0.016395973 -0.41474056 -0.7608541
0.7251127 -0.41900548 0.64993936
-0.09016107 0.5749475 -0.9082093
-0.42903277 0.6167257 -0.5618732
0.041674986 0.8527584 0.35579702
0.5620598 -0.05153153 0.11618369
0.19563776 -0.41160184 0.28161612
-0.34911186 -0.41448718 -0.5923604
-0.34201798 1.19168 0.7027098
0.14996251 1.2492522 -0.9374958
-0.89033985 -0.098750986 -0.912297
-0.7373885 0.94241405 0.37372714
0.08078465 -0.43370357 -0.2646197
0.43510658 1.0368748 0.035987895
0.54011285 0.2844327 0.30820596
-0.078369826 -0.075996496 0.5608772
0.12745719 1.6218414 -0.3393886
0.15564695 1.0755421 -0.20049363
-0.76056504 -0.24564561 0.30682275
-0.4856791 1.6540371 0.10486099
0.449387 1.0825973 -0.17687294
-0.45362067 0.3782958 0.4325834
-0.859195 -0.079275206 0.013149807
-0.4741799 0.6996349 -0.11497391
0.7877735 0.9873352 -0.6041274
-0.17474476 1.2573535 -0.71080995
-0.19062853 1.5498669 0.5425296
-0.33083135 1.7544711 0.0046454947
0.59774375 0.7154081 -0.7829857
0.35873145 1.5562341 0.19497891
0.72388124 0.8420119 -0.69189787
-0.39640456 -0.08116187 0.38631886
-0.62026167 -0.090736106 0.91234404
0.40643692 -0.07413365 0.42998323
0.5783087 -0.2701633 0.8998705
0.92054385 -0.24698201 -0.38545728
-0.8944216 -0.40647644 0.09986979
0.7907003 0.926407 -0.1276831
0.91807985 -0.24790025 -0.18332143
0.58489317 0.40108526 -0.57229024
-0.5429764 -0.4207877 0.4903893
-0.090283275 0.1438658 -0.33006632
-0.7187869 -0.41604096 0.40196836
-0.062847815 0.44212434 0.11496627
-0.29636467 0.9297776 -0.53513575
-0.85675174 1.0574186 -0.13324955
0.0002741703 -0.41349775 0.568667
0.18727323 0.26665822 -0.06940454
-0.6820592 -0.083920605 -0.040819377
-0.7128196 -0.4181782 -0.62414825
0.07518056 0.6754296 -0.77849066
-0.89972615 -0.40367416 0.7177712
-0.9027765 -0.09271203 -0.5298227
-0.5957966 -0.24338244 -0.2105576
-0.3026863 0.8523264 -0.92341524
0.42981857 -0.25492895 -0.9209753
-0.5525747 1.4401813 0.37676737
-0.01330917 -0.40912646 0.36782572
-0.18680301 0.6550819 0.74819076
0.37978065 0.9738772 -0.92583925
0.4293309 1.3206601 -0.61996394
-0.4831698 1.3725307 -0.2852353
-0.5205947 -0.24588509 0.91647124
-0.42661837 -0.21918212 0.087041065
0.6660963 0.8600446 -0.45906234
0.040828772 1.4315066 0.1985039
0.015091947 0.25605512 0.08386831
0.16685762 0.14539754 0.34718388
-0.2529161 -0.42040816 -0.75174665
0.36535177 -0.25227556 0.9255189
-0.20919147 1.3859208 0.4558636
0.36331367 -0.07011275 -0.55570626
-0.13218758 0.9494699 -0.6275809
0.88979995 0.61463714 0.013398934
-0.45025814 1.4046066 0.20634574
0.4019364 -0.07881108 0.8599756
-0.030196875 0.76962095 0.8071841
0.30867544 1.3085046 -0.4109233
0.33331722 1.756062 0.20047337
-0.3513875 -0.25996298 -0.7666364
0.73514646 -0.08420238 0.22089386
0.32225186 0.9835643 -0.2571832
0.44232598 0.9230704 0.733642
-0.4503494 1.5930926 0.29887933
0.54382175 -0.41665637 0.12807639
-0.6706958 1.1051242 0.430679
-0.09626457 1.127781 0.33613878
-0.024816632 -0.24866974 -0.62793565
-0.53044945 -0.081328765 0.725701
0.81304836 1.3874123 -0.3004312
0.23205489 0.62571645 -0.08691725
0.95616794 1.0208058 -0.11188893
0.5911008 0.44481862 -0.16125152
0.61394966 1.379487 -0.37599778
-0.07278861 1.6125636 -0.34724844
0.44940388 0.2748746 -0.549609
-0.096051216 -0.42158583 -0.14713088
-0.73743176 -0.4164962 -0.21474996
-0.26617205 -0.4094355 -0.07907934
-0.22533138 0.50985 0.2212663
0.90376616 -0.08868761 -0.8948916
-0.3669328 -0.41159987 -0.90095997
0.11547187 -0.24300024 0.315525
-0.89491844 -0.09258096 -0.33529484
0.009922705 0.8104487 -0.27777785
-0.12264691 0.47095132 0.67682266
-0.6189182 0.7188406 0.061023027
0.047147177 1.8486807 -0.07175123
-0.0694775 1.2977158 -0.5010425
0.92418873 -0.24780062 0.22621939
0.1489003 -0.4073772 0.4507057
-0.028032888 -0.25744277 -0.9143952
-0.915429 -0.2601158 -0.8712597
-0.17797333 -0.40223473 0.25307572
-0.6381145 0.6232182 0.42070025
0.072891995 0.88917637 -0.83732563
-0.21401078 1.2149379 -0.9093877
0.7513257 0.78789765 -0.27670404
-0.30355448 0.1409215 -0.36004293
0.6721194 1.314973 -0.19885767
0.43757695 -0.24432433 0.7535548
0.024927847 1.3653002 0.5131983
-0.38886148 1.5094185 -0.6358775
-0.10112957 -0.25656903 -0.08610912
0.79152274 0.91160214 0.44831842
-0.19764125 0.13100474 0.13754718
-0.19559324 -0.41620925 0.44144696
0.23658465 -0.07870585 0.5262345
-0.24398042 1.0561326 -0.20065841
-0.2677921 1.272974 -0.39654195
-0.46654537 1.2857409 -0.45383564
-0.3583233 0.9946207 0.7228199
0.39997232 0.59080833 0.6745802
-0.5448127 -0.08550513 -0.5523241
0.085837275 -0.06331867 -0.67207396
0.24899977 0.9541105 -0.015630672
-0.77206224 1.1478488 0.2786252
0.4275728 0.76722586 -0.71008384
-0.63804525 0.79218423 0.5041994
-0.4060337 1.0078292 -0.6794362
-0.06044702 0.9912803 0.46115696
0.054225344 -0.30218703 -0.18349113
-0.7604902 -0.24906643 -0.10856506
0.003873636 1.5345154 -0.4960692
-0.26504552 0.902295 -0.32244065
0.31297594 1.048954 0.5769075
-0.2553404 -0.22183073 0.35964632
-0.43585455 0.4442512 0.15759066
-0.49620324 1.043416 0.08869017
0.30692756 0.11453496 0.14267701
-0.09110299 1.2904444 0.14226595
-0.8966137 -0.4057585 -0.106095985
-0.57712245 -0.40507707 -0.9154809
0.5842427 0.5967355 0.557876
0.1289705 1.1215874 -0.80859447
0.27739456 1.3741007 -0.8631729
0.46510875 1.2968261 -0.8064853
0.09732669 1.2585728 -0.31116736
0.37895823 -0.061906204 -0.18490863
-0.53330547 -0.41640353 0.29136783
0.07961625 -0.018236276 0.42919895
0.10980966 0.087415464 0.15993243
0.9358609 0.8675721 -0.28299394
0.74543345 0.37068078 -0.2699595
0.7366255 -0.08605884 -0.89887375
-0.40839803 -0.24305278 -0.47559863
0.22698787 1.8215525 -0.09938031
0.09676358 -0.23515414 -0.036213636
-0.21485664 -0.40293047 -0.45577306
0.47786504 0.57114387 -0.2885973
0.42753884 1.108674 0.24849018
0.33468252 -0.41553843 -0.5787208
-0.24390453 0.30941206 -0.6713541
-0.48033714 1.6770484 -0.098460615
0.4183115 -0.4126454 0.61059356
0.5350867 1.6969949 -0.12958969
-0.09331429 -0.03661071 0.37930512
0.43922785 0.79904735 -0.50812876
-0.29859626 1.7762557 -0.1950901
0.23015255 -0.400939 0.91147053
-0.19577774 -0.014515535 -0.4334566
-0.032019127 0.11684285 0.2657088
0.19053704 0.6400336 -0.5832633
0.440189 1.1209977 -0.3977638
-0.6066695 1.2508829 -0.26859176
-0.2603761 -0.21792752 -0.18797009
0.8616003 1.2274668 -0.40300304
0.5417278 -0.41105148 -0.48824996
-0.38066614 0.8261728 0.2641273
0.17092213 0.9484973 -0.5256077
-0.41928148 -0.24265558 0.26156837
-0.40381873 -0.04421846 0.18770243
-0.16052309 1.0315609 -0.4253348
0.8934591 -0.095650956 0.9089488
-0.019592538 0.46452355 -0.408565
0.9257966 -0.25149667 0.8631794
0.11955701 1.4182937 -0.40369534
0.20340715 -0.40890157 0.096165024
-0.06517564 0.94719815 0.66271067
0.38536513 1.7782575 -0.0320549
0.30569437 0.14625324 -0.4863801
0.70456445 1.1952078 -0.3599381
-0.427252 0.6984385 -0.30217898
0.45910755 1.4057633 0.5790566
0.7272109 -0.41698855 0.4281429
-0.5258556 1.1148887 -0.776579
0.54139876 -0.056565475 -0.3052369
-0.48725045 0.9056908 -0.8253422
0.7217727 -0.41684598 -0.38624704
-0.89639676 -0.09386238 -0.14862248
0.8335973 0.48321036 -0.12514576
-0.86660045 -0.092144944 0.90999544
-0.83420265 1.0727482 0.071628556
-0.14553873 0.84406996 -0.15873513
0.33596617 0.5103422 0.06924587
-0.17190766 0.27970642 0.0004043136
0.3573547 1.5978768 -0.30209714
0.2795021 -0.21815532 0.21846905
0.16799247 0.78032815 0.035087604
-0.11630088 0.78974855 0.45826578
-0.10961223 -0.260823 0.91988444
0.56786376 0.9052585 -0.83275574
0.76192427 1.1803529 -0.57668114
-0.092581145 1.4998568 0.35946018
0.24220791 1.2658527 0.05046722
-0.15498242 1.2536919 0.74049103
0.3073725 1.1344583 -0.066873506
-0.107023165 0.5848012 -0.712044
-0.48932528 0.2336616 -0.31976178
-0.73076665 -0.41510552 0.00047698535
0.166668 1.2055985 0.5947494
0.7147071 -0.08313595 -0.18805581
0.72429925 -0.08188706 0.01454444
0.51775885 1.4812871 -0.24231032
0.70119774 -0.41589198 -0.76017296
0.36715645 0.7473006 -0.017105274
0.28268397 1.4274151 -0.2595906
0.61144555 0.23855883 -0.22414479
-0.45203972 -0.084240764 -0.7379277
0.65072465 0.29032987 0.1350393
0.33195162 0.65239275 -0.42969036
0.73425806 1.3698978 -0.51208174
-0.45182556 1.4758968 0.011424555
-0.75454116 -0.25167364 -0.32019362
-0.41838834 -0.40930808 -0.20010664
0.83289707 0.7344469 0.33284312
0.38619363 1.332593 -0.11369549
0.2236958 0.8425646 -0.97613454
-0.769064 -0.25445434 -0.52431166
-0.30403775 1.338881 -0.59010375
0.24947207 -0.39715195 -0.2834181
-0.5825772 0.54521513 0.12288846
-0.63968235 0.94925416 -0.3824045
0.4749687 1.1182488 0.45621485
0.103177845 -0.23592114 -0.75980353
0.24886301 -0.03196558 0.32518673
-0.09208145 0.95881414 0.22544938
-0.54463804 0.88706225 -0.073265776
-0.8927436 -0.41058213 0.31397638
-0.8627099 -0.40213817 0.9067462
-0.6926733 1.3491771 0.25295335
0.33420783 -0.4159034 0.7690679
0.71294904 0.7427515 0.5073304
-0.5716722 -0.25090498 -0.78796107
0.23168516 -0.22157094 -0.2012218
-0.89345574 -0.4051181 -0.731531
-0.38314697 1.2303772 -0.8128257
-0.15452807 0.7919264 0.26932007
0.64787793 1.6207083 -0.0025002807
0.59437466 1.0931888 -0.26333365
-0.5872035 -0.24689236 -0.008934451
0.7758871 1.0722264 0.036904052
-0.89483345 -0.4086491 -0.32257205
0.8566484 0.84653234 -0.49197495
0.3568869 0.18036506 0.32722878
-0.62203896 1.5497391 -0.026816312
-0.7254163 -0.41541666 0.20399678
-0.35038263 0.7759602 0.7155825
-0.7418852 -0.08573392 -0.60857046
-0.21081126 -0.41095072 0.9027251
-0.6324097 1.2740245 0.44066498
0.92467874 1.1868995 -0.0064538303
-0.7547289 -0.24138947 0.09491541
0.05420379 0.50868344 0.26686037
-0.43147242 1.5087337 -0.1937032
-0.48951435 0.45829758 -0.22349979
0.2655544 0.6139018 -0.7441778
0.23997 0.79509354 -0.79306096
0.33169502 1.1755042 -0.9196801
-0.5404522 -0.41552418 -0.5280618
-0.3873312 1.016367 0.51530385
-0.24190828 -0.010258776 0.28610897
-0.90019596 -0.0945258 0.33769184
0.08183047 -0.0872601 0.64945394
-0.42697084 -0.22780582 -0.10465953
-0.64341974 1.2997365 -0.54227126
0.5069133 0.6219611 0.061293032
0.3988256 -0.023513045 0.019511174
0.20452112 0.26732367 0.50401425
0.7739301 -0.24814574 0.11969042
0.5476641 0.6998346 -0.13257745
0.1903213 -0.08045427 -0.8889108
-0.37317288 1.3308609 -0.09468156
0.59697366 -0.24763867 0.42328924
0.35733318 0.7660388 0.34113407
0.5029198 1.5392337 0.060739063
0.10619431 -0.23872018 0.14117725
0.72318375 1.2589432 -0.012645532
0.59219086 1.1371138 0.110873245
0.049658515 0.9753789 -0.6808909
0.022007227 0.7503222 0.19164482
-0.3947512 -0.4133942 -0.39611012
-0.7130035 -0.0877056 0.61695004
0.53772587 -0.4137203 0.32804364
-0.8927684 -0.09111953 0.53050494
-0.60370046 1.508744 0.17615664
0.013588682 -0.41109878 0.18275914
-0.62119186 0.9389986 -0.7028165
0.754026 -0.25192082 -0.28562427
0.45208263 0.6022936 0.39404783
0.03230128 0.94882834 0.8332363
-0.9206096 -0.26636204 0.21315095
-0.229877 -0.09208376 0.89996874
0.16925487 1.1121465 -0.61522794
-0.84993553 -0.4060834 -0.91338044
0.3734423 0.73560053 -0.23145689
0.28312218 0.5325028 0.26462132
-0.55538 -0.4135007 0.10400447
0.53240204 0.58712226 -0.48457834
0.22827244 1.6381512 -0.16498923
-0.35722432 1.0814755 -0.40441647
-0.9247973 -0.24732384 -0.64480394
0.89521444 -0.08700447 -0.28502178
0.6730375 0.5589641 -0.03169671
-0.6668597 1.0968845 -0.23151442
-0.24232337 0.940609 0.37252745
0.27857813 0.60066986 0.4928165
-0.4736474 1.3286711 0.56003606
-0.0022456434 -0.049058348 -0.37491995
0.5644375 0.82138884 0.017805904
-0.5027691 1.2922623 0.07299229
0.1719905 0.6779926 0.31339848
-0.72423685 -0.41754144 -0.4263053
0.38501847 -0.41014796 -0.3925134
-0.09878485 -0.08365718 0.7451812
0.18899545 1.1536076 0.79047537
-0.46411324 -0.03988587 -0.0021571086
0.5402672 -0.41975623 -0.66824615
-0.41107124 -0.092407554 0.58422756
0.014330834 1.4849105 -0.003466377
-0.6680603 0.37235278 -0.049489938
-0.42033955 -0.40673816 -0.007497971
0.26584762 0.4568401 -0.6081914
-0.634478 0.35958022 -0.25551462
-0.09018721 1.6869465 -0.5699758
0.48908147 0.49779704 0.23361714
0.5990929 0.8845848 -0.20234415
-0.07133138 -0.23685339 0.08991565
0.57919955 -0.0860273 0.5344755
0.149299 0.7723305 0.79947907
-0.702323 -0.41279382 0.60352683
-0.18983282 0.86714137 0.78823006
0.5514705 1.255858 -0.4918499
-0.88902617 -0.088701755 -0.73579025
0.94380826 0.9713999 0.076973915
-0.5628871 1.2144608 0.25882334
0.22528698 1.2959584 -0.7174064
-0.08631894 -0.4024827 -0.32901135
-0.24746516 1.0815642 -0.7382321
-0.20651028 1.5572766 -0.69792086
0.6194539 0.96238923 0.42901433
-0.39218575 -0.049333565 -0.42996848
0.24570167 -0.1043829 0.9177275
-0.7663328 -0.24195616 -0.74274206
0.72756135 1.2147193 0.19594075
-0.42193317 1.1686153 -0.5968214
-0.3145324 0.9834384 0.16356912
-0.29160637 1.476229 0.29156747
-0.2633899 0.46692926 -0.8054248
0.11163133 0.75452816 -0.44552457
0.1257588 1.0122893 0.6758081
-0.5572504 1.1276703 -0.41808695
-0.0031816121 1.5571618 0.56634873
-0.17824075 1.621257 0.21821588
0.04483161 0.38540745 -0.07128895
-0.068129785 1.8243833 -0.2555315
-0.037295856 1.3277698 -0.15615264
0.058421843 0.5293454 -0.20708501
0.054456927 -0.068368316 0.02790867
-0.49626774 0.8910097 0.6403588
0.26194087 0.8774713 0.63122773
0.72329146 -0.4184879 0.22628337
0.41569954 -0.217181 0.07717852
-0.8383628 0.6835952 -0.08696246
-0.47205094 0.42449492 -0.023233006
0.23649031 0.44009987 -0.09704824
0.10734527 1.1112525 -0.0022611609
-0.41853184 -0.08668384 0.88989353
0.30188453 1.2054625 -0.2530809
-0.33271378 1.7211645 0.21040145
-0.44167268 0.7342884 -0.8220005
-0.18127921 0.48448658 -0.27452686
-0.9249429 -0.24969661 0.86583686
-0.27090394 0.6920258 0.5530387
0.3553471 -0.4162509 0.42379138
-0.20282707 1.1220655 0.157863
0.03400722 -0.4156006 -0.012267396
0.401965 0.2941228 0.47683868
-0.42282438 0.82921445 0.06386461
0.19012219 -0.4046716 -0.45177633
-0.4274945 0.558084 0.29105484
0.21085295 1.4615582 -0.057861734
0.050845735 0.66344404 0.447775
0.9103675 0.6704632 -0.19144069
0.21745464 -0.052316427 -0.096500725
0.7122631 0.31877697 -0.06335895
0.23630786 0.9736854 -0.7564564
0.4490672 0.41464317 -0.7076405
0.14068349 1.0096959 0.48463783
-0.15739378 -0.4124682 0.06690918
-0.16233477 -0.025053851 -0.2428403
-0.49445552 0.6944071 0.6069355
-0.5046633 1.3269715 -0.6914326
0.8976341 -0.4081355 0.12374386
0.8520478 1.3193673 0.12533706
0.55632937 -0.41442603 0.7416694
0.07913113 1.4314015 -0.8460071
-0.23682252 -0.24357091 -0.5907234
0.5561527 1.2739937 0.28638557
0.8950683 -0.40858445 0.5340233
0.29388365 1.626344 0.034482673
0.36067003 -0.088155866 -0.90554464
-0.03486973 1.2812269 -0.91357434
0.0993368 -0.07677132 0.8473428
0.031331703 1.6668146 -0.15839455
-0.18413964 1.791434 0.114833
0.30468804 1.6742449 0.38223177
0.6446447 1.5685883 0.19827622
-0.5248339 0.98251665 -0.5358148
-0.25169435 -0.08938645 -0.7486271
0.7224816 -0.08169399 0.87213814
-0.72080135 -0.08421312 -0.22862798
-0.44452345 -0.24252117 -0.6324066
-0.43923762 1.6832368 -0.28673148
0.6714337 1.0530794 -0.7318782
-0.58387035 0.8698167 0.18787393
-0.28390777 0.8726876 -0.73924196
0.40956023 0.6021435 -0.6179368
-0.06515114 0.71492887 0.62597215
-0.26416773 0.5263585 -0.6262369
0.46040925 0.13224807 -0.21454334
0.91080403 0.7636517 0.13976966
-0.35743064 -0.41458422 0.3568021
-0.3090846 1.3958659 -0.7845777
0.25147495 0.9558991 0.810717
0.73855805 -0.084340945 0.4319288
0.40192002 1.5541989 -0.1100236
-0.9235775 -0.25424913 -0.42688435
0.45346892 1.5447189 0.44600272
-0.12359142 0.31075305 0.5506809
-0.88534254 -0.40962723 0.51979566
0.5575962 0.9263214 -0.6110115
0.54744136 0.77219725 0.43334907
-0.3065836 0.26385403 0.4247206
0.5337275 0.7587159 0.6600254
-0.14527148 -0.25818393 -0.76228154
-0.7092309 -0.26147842 -0.9260639
0.43287927 1.2334149 0.084808476
-0.08936143 -0.24162629 0.6263721
-0.15933466 -0.09115852 -0.91563505
-0.81851226 0.92445886 0.19766039
0.14265943 0.39040095 -0.29428798
0.575966 -0.09000482 0.7440312
0.048213236 0.7947892 -0.6367866
0.19398795 1.8152183 0.095432945
0.23156142 -0.4192432 0.5992881
-0.43113792 0.39660186 -0.64868563
-0.26080322 0.5028186 0.029665947
-0.55848885 1.5431744 -0.3790465
0.04569117 -0.2025362 0.46335027
-0.6046457 0.9832227 0.53200626
-0.7420968 0.7633295 0.30949885
0.7420447 -0.2519758 -0.08430729
-0.2307505 1.1479433 -0.5525398
-0.0097517315 1.1201324 0.14550571
0.7212882 -0.08500108 -0.38809258
-0.6396022 1.1417669 -0.6311024
-0.76476085 0.5420952 0.033241957
0.57088625 -0.08032981 0.32642323
0.28039473 1.420604 -0.5772068
-0.078278854 1.3997532 -0.3370358
-0.25591764 1.6507354 0.39029798
0.4378292 1.4479513 -0.4308014
-0.46008325 1.0128589 0.30324855
0.35272086 0.3044461 0.028622802
-0.1583355 0.2979634 0.20613705
-0.3830182 0.839607 0.47844517
-0.03516156 0.63963103 -0.32749778
0.31216377 -0.24145846 -0.7776426
-0.086223826 0.6139934 0.3158074
0.60428345 -0.25960672 0.06041255
0.63626075 -0.2520826 0.24123943
-0.37181383 1.4515038 -0.42151296
-0.12248904 1.4207845 -0.83247805
0.104534045 -0.40702647 -0.61213565
-0.12540352 0.78164864 -0.9690966
0.64599776 -0.24429494 -0.91611975
-0.6011156 0.4608848 0.33151358
-0.5965874 -0.2560267 0.20181042
0.56718016 -0.4155622 0.5215284
-0.107291915 1.0090204 -0.0074205324
0.34044838 1.138507 -0.73762214
0.060249306 0.8460022 0.5835986
-0.64872825 1.0389106 0.21008798
-0.12675357 0.55744874 0.50816524
0.89759314 -0.09158522 0.7344406
-0.5427737 1.4571396 -0.53836465
-0.56743467 -0.08921643 0.3065029
0.45746627 0.18070185 -0.3817135
0.35286033 1.2263868 0.5591607
0.29268914 1.3323748 0.70469344
0.73294383 1.0101936 0.22536348
-0.120524615 0.62592345 -0.120556444
-0.1102195 0.6324504 0.10236101
-0.60078937 -0.2562842 0.39885437
0.18346377 0.67561305 -0.28462648
0.9176848 -0.2509218 0.6478056
0.19037811 1.0402367 -0.9772072
0.40868866 -0.22879592 -0.29198414
-0.5225818 0.2477794 0.078952245
-0.5400447 -0.25737274 0.5938829
-0.30045867 0.52026963 0.43082923
0.923437 -0.24915805 0.43994883
0.5900754 -0.25402182 0.64486194
-0.52713495 1.176256 -0.0952614
0.57285273 0.95082235 0.15409663
0.8901038 0.9202106 0.26511714
0.20691192 0.34250113 0.31435475
-0.3362497 0.5541779 -0.35529673
-0.7424209 -0.24948059 0.52721095
0.24228773 1.7584093 -0.4285189
0.0031754312 1.6214515 0.19214895
0.545498 -0.08695628 -0.9073605
0.26993123 0.41433638 0.6179762
0.111283004 -0.2447148 0.9293379
0.6502319 -0.08271228 -0.73085326
0.044129245 1.101328 -0.40802902
-0.054330237 0.08896384 0.023196083
0.5191448 1.1088264 -0.84327036
0.18334538 -0.06159082 -0.30932856
-0.787429 -0.25126007 0.72344744
-0.7324468 -0.08405272 0.41292846
0.5439203 1.05774 0.6560462
0.2362616 1.0975177 -0.40427962
0.124342814 1.2243667 0.20872265
-0.33273387 0.5617603 0.6545081
0.57698977 -0.23743837 -0.20510292
-0.17983237 1.0616267 0.7867893
0.81730056 1.087678 0.3797837
-0.5427692 0.69696236 0.24149801
-0.15814401 1.681396 -0.17685503
-0.62387735 -0.403125 0.9084358
0.2589891 -0.20833927 -0.41183984
-0.5432761 0.3583218 -0.4632145
-0.41190785 1.6273589 -0.46312004
0.77483594 -0.24997759 0.33865175
0.9164605 -0.24252796 -0.59206104
-0.12294368 -0.075872906 -0.05517421
0.067911364 1.1824304 0.425878
0.37248653 -0.019075241 -0.38066387
0.64467335 0.90783834 0.60625154
0.57949924 1.4230433 -0.07112478
-0.66352415 1.0585405 -0.041103512
-0.35911286 1.0478852 -0.8940177
0.8951776 -0.40809023 -0.07993621
0.72924304 0.5649483 0.41187227
-0.09929264 0.41873124 -0.5881733
-0.32142776 0.3715503 0.28865033
-0.33245757 0.43192884 -0.49203202
0.08300735 -0.25054258 -0.35232216
0.7672843 0.67857003 -0.5916382
-0.45167166 0.81645554 -0.6194279
-0.0145794805 1.1439638 0.61262316
-0.6461084 1.197398 0.07618713
0.26383305 -0.0814249 -0.71171427
-0.8937781 -0.40717214 -0.5318672
0.0765499 0.5042903 -0.6946625
-0.22921115 0.88304925 0.5908358
-0.0019641132 0.61749494 -0.5403801
0.8905271 -0.4080373 0.7346261
0.23392001 -0.06227468 0.110908315
-0.18037534 0.5827035 -0.4640082
0.08662601 1.4731601 -0.21324798
-0.42645383 -0.23252556 -0.29399508
0.9009762 -0.08931181 0.53474355
0.8815825 -0.40161067 0.9071839
-0.020741763 1.1361654 -0.15787685
-0.455764 0.68740773 0.42041063
0.6014462 1.5513195 -0.48347637
0.30635145 -0.40454713 -0.91440904
-0.2638868 1.405158 -0.24836516
-0.50041306 0.2949682 0.26734298
-0.316463 0.73804 -0.469849
-0.13924573 -0.4100691 -0.9081316
-0.13917264 1.4612759 0.1504153
0.50766814 0.7424084 0.2104902
0.30181476 1.5291945 0.5606219
-0.37805897 -0.41421455 0.56264997
0.61415005 0.4733645 -0.36023468
0.20560521 -0.4130221 -0.7511393
-0.11585039 1.635942 0.013990168
-0.5214726 -0.06372981 -0.16636139
0.5513933 -0.10479528 0.92095196
0.7966497 0.43362877 0.07503425
0.5432728 0.0024332646 -0.10119882
-0.21104497 -0.25309736 0.761012
0.015802111 0.9160031 -0.99712497
0.115997575 -0.41806188 0.7456777
0.2601472 -0.22891852 0.009490298
-0.3464219 -0.40816164 0.15708923
0.30219722 0.28142756 -0.24376917
0.06543699 0.70922744 -0.96634865
0.22888288 -0.24422891 -0.596883
-0.089524984 1.4159706 0.6654514
-0.039859425 1.6775427 0.42628455
-0.1801402 1.0147462 -0.9689891
-0.42659867 -0.25650036 0.44623226
-0.14059377 1.8284516 -0.06186413
-0.11994358 -0.2539247 0.4576946
-0.29587632 0.6941508 -0.6923246
0.14634004 0.6128099 0.123357534
0.22237252 -0.2524909 0.78044164
0.9311354 -0.246248 -0.78008103
0.42288744 -0.25277773 -0.6329591
-0.2631458 -0.23568244 0.00901257
0.3291785 1.1916783 -0.5507923
0.7238032 -0.3997423 -0.9170469
-0.68546236 1.3878715 -0.37046683
0.10385077 1.6527635 0.017643292
-0.32312906 0.31973088 0.0931468
0.20211312 1.5437562 -0.7451183
-0.9174387 -0.25639635 0.42282963
0.4452886 -0.24685094 0.52219087
0.4039379 -0.245653 0.3498631
-0.9114594 -0.10344362 0.15954879
-0.44256115 0.5579152 -0.75561357
0.4879528 0.16895595 0.14661063
0.45610827 0.36224052 -0.32324412
-0.2663479 -0.033599786 0.071572244
-0.0058317482 0.067683876 -0.52866584
0.74691945 0.74315405 -0.07431374
-0.41226137 -0.24449997 0.7416665
-0.21146742 0.26420063 -0.22453344
-0.069180705 -0.22180814 0.27935356
-0.1864379 1.4077883 -0.033936985
-0.37251973 0.847705 -0.1801019
0.8263211 0.5305044 -0.32367784
0.90248275 -0.08671223 -0.48890764
-0.2828833 1.120054 0.36244345
0.17181596 0.70143944 0.620278
-0.28713953 1.382551 0.6372398
0.5827664 0.42692864 0.4342404
0.30177253 0.50342286 -0.27149802
-0.59320325 0.70718133 -0.69121194
-0.18448442 0.16897473 -0.53437865
0.3808514 -0.41084504 0.016662445
0.09001825 -0.40617 -0.9085147
-0.11101743 1.1913114 -0.33125162
-0.6858964 0.73918015 -0.114522256
0.4506911 0.4583489 0.5678467
0.014962558 -0.406448 0.9075928
-0.0034533115 1.1327405 0.8031963
0.5008545 1.7103877 0.099184096
0.40907663 -0.028536495 0.2312288
-0.38833272 1.1812687 0.19968185
0.11709526 0.3271354 -0.7604891
-0.4292674 0.6193789 0.052370593
-0.19776312 0.84011424 0.104599684
-0.033813447 0.21680242 -0.119485974
0.25753394 -0.08424801 0.7242615
-0.8611834 0.8838454 -0.019626345
0.5127716 1.2345728 0.6444057
-0.69362164 0.89967895 0.046109296
0.0057455227 1.8199651 0.11714225
-0.73015696 -0.08508152 -0.8986441
0.39667338 -0.41413915 -0.18264708
-0.044185612 0.34748703 -0.261402
0.12296717 -0.2625897 0.6076275
0.8950391 -0.087732136 -0.08529078
0.88458574 -0.08176826 -0.70319676
0.5532123 -0.41219833 -0.28687245
-0.12890586 1.2404643 0.51524013
-0.44077635 0.88346374 -0.39386106
0.37442756 0.8896035 0.14003041
-0.2906658 -0.25092503 0.5759878
-0.35632887 0.35791892 -0.31259313
-0.37426385 0.24711354 -0.50899196
0.44589156 0.581841 -0.8231243
-0.5919248 0.51895356 -0.59398955
0.62907875 0.6331059 0.30435455
-0.6148426 1.5506573 -0.21537083
-0.039304376 1.3138062 0.32950336
-0.586401 -0.089083195 0.11767168
-0.72850406 -0.08185898 0.790693
0.48327547 -0.2232391 0.21758588
0.03306762 0.054808434 -0.1853775
0.25050434 0.3140359 -0.43493086
0.25702268 0.63395536 -0.92599773
-0.0041086003 1.5798224 -0.7288437
0.76933074 1.2715971 0.36875683
0.3917125 0.45604706 -0.46936226
-0.3585577 -0.033611357 -0.27073586
-0.7995734 1.256224 0.12250948
0.21631412 0.8210423 0.45087385
-0.045956545 0.24145831 -0.66378915
-0.39526862 0.13344714 -0.17870292
-0.788016 0.8275665 -0.40968823
-0.50847715 0.53565484 -0.41377437
-0.38316268 1.4991162 0.48016256
-0.13671854 0.4368043 -0.096285164
-0.09796882 1.7643232 0.28234816
-0.9213146 -0.25702125 -0.21939221
0.5554489 -0.4027146 -0.07611105
-0.8270166 1.0192498 -0.33431092
0.85550785 -0.24918324 -0.92645085
0.50630784 1.1189163 -0.6287454
-0.18431021 0.33021772 -0.4255944
-0.33533695 0.5492769 -0.14767803
-0.3028752 0.6770864 0.16652474
-0.06366302 0.98739076 -0.26557273
0.107401334 0.22302145 -0.24749246
0.6177741 1.1147418 0.33235663
0.7519866 -0.2526461 0.5434166
0.89196736 -0.40820932 -0.6848843
-0.008686261 0.92052126 -0.47891384
-0.33928996 0.33093858 -0.1120483
0.3900407 1.4735501 -0.7407063
0.39854044 -0.24285087 -0.10378532
0.43014133 1.6889215 -0.4464785
-0.15981784 0.18319488 0.37552464
-0.24195698 -0.083075896 0.50378084
0.21350124 -0.4097203 -0.09795593
0.15025456 0.105891384 -0.029734377
0.7061124 0.70245594 0.12181284
0.36995488 1.779041 -0.25207707
-0.85081255 0.84451467 -0.22010948
-0.044015132 -0.09774575 0.9155517
0.95090246 0.81393707 -0.06275788
0.04077937 0.56827646 -0.009087577
-0.28870142 -0.08296733 0.7127824
0.43743545 0.33730403 -0.1312986
-0.29350266 1.5729971 -0.09366074
0.42252457 0.5431607 -0.10349815
0.19703759 -0.24885651 -0.9245225
0.13323542 0.9331206 -0.32481083
-0.21563 1.7566798 -0.38731635
0.5489099 -0.078200296 -0.51830006
-0.29638636 1.3303587 0.0988231
0.45395905 1.560283 -0.5939717
0.627525 1.0571961 -0.4804561
0.9003649 -0.08741608 0.11759424
0.6820667 0.8315115 0.27893385
0.64664304 0.5151278 0.14473009
-0.29172742 0.4011882 0.56821895
0.24886414 1.5470917 -0.45640054
-0.42617673 -0.40799576 0.8974761
0.16127682 1.3421328 0.33724385
-0.7381723 -0.24718454 0.9211664
0.4163577 0.7741419 -0.90255725
0.59264356 -0.24095155 -0.3939437
0.74349093 0.98010826 -0.32443517
0.58234036 1.4223976 -0.63834256
0.38248232 1.4128544 0.057046965
-0.7889357 0.6653564 -0.30125076
-0.75508106 0.5121192 -0.1778504
0.395298 -0.41343796 -0.7614691
-0.6049236 0.6183629 -0.27187014
0.73640525 1.4166234 0.25081426
0.72148114 -0.4171977 -0.1824835
0.7612139 1.4846947 0.05180084
0.7373097 -0.084591284 0.64807713
-0.6170993 -0.25627273 -0.6154705
0.05325552 0.93080604 -0.104165696
-0.25194293 -0.4005212 -0.2705438
-0.35275948 0.17595674 0.23465583
0.19155422 -0.015121814 -0.518533
0.21178243 0.5611248 0.7338886
0.11478112 1.6787012 -0.58597046
0.48977897 0.93614197 -0.36246264
-0.64267534 -0.08222781 -0.74016976
0.18286765 1.615521 0.21129355
-0.53483355 0.24317414 -0.11743322
0.30342883 -0.2474497 0.6145443
0.019044284 1.7739127 -0.42951244
-0.2684313 0.68984056 0.36253607
-0.30927002 1.5518405 0.098714694
0.89819306 -0.40819448 0.32786906
0.254807 1.0756648 0.15696147
0.017334793 -0.24545741 0.7691705
-0.7454295 1.1794392 -0.43630117
-0.48887783 1.0081246 -0.25202942
-0.4836281 1.1492852 0.42339432
0.32688898 0.68785673 0.16114542
0.68816745 0.66346884 -0.41568577
0.54903185 -0.15681976 -0.058177777
-0.6503269 0.39033067 0.14697473
-0.5601258 0.74321574 -0.46031737
-0.2706263 0.7189827 -0.0422113
-0.26158273 1.6490341 -0.5405029
-0.8028085 1.2269527 -0.25994343
0.21922368 0.83560157 -0.16748956
0.7082628 1.5303346 -0.34426755
-0.9263704 -0.2515631 0.622401
0.46413282 -0.41019654 0.9065218
0.75436497 1.1215823 -0.16014925
0.20053771 1.4403994 0.13747805
-0.3162641 -0.0538501 -0.09962401
0.06281659 1.3122164 0.7380551
-0.7364823 1.4022934 -0.16842115
0.10311 1.0338352 0.29233062
-0.15036394 0.75499225 -0.5895623
0.07343827 -0.073317036 0.24763995
0.17749733 0.47718343 0.4371609
-0.12481847 -0.4156741 -0.610286
0.29382175 1.4768133 0.34856403
0.8986805 -0.4070105 -0.48511848
0.23110312 1.3672135 0.5014169
-0.41971406 1.0220081 -0.086894244
0.42159116 1.3213853 0.40898004
-0.13875966 0.40506136 0.36664015
0.15897387 0.42048675 0.10714723
0.48269224 1.2808086 -0.28100872
0.72507423 -0.41892302 0.023792308
0.06997348 0.54328036 0.5884153
0.09943886 1.520929 0.3743546
-0.22528464 1.2922795 0.28489155
-0.0041447165 1.1057503 -0.9765847
-0.27165103 0.65024173 -0.88573337
0.15509915 1.6369798 0.49164122
0.6231635 0.30050862 -0.4190253
0.89591694 -0.40849954 -0.2824967
-0.5691456 -0.41281053 -0.31737354
0.026627846 0.30559346 0.27620852
0.032649595 -0.090321235 -0.9118768
0.61404216 1.0091769 -0.054411035
0.11965444 1.7612648 0.30251884
-0.6911969 0.49127626 -0.38853955
-0.1888241 -0.4133763 0.6125845
0.59851575 1.3574586 0.10580459
0.26607174 1.1673963 0.3815585
-0.3771515 0.141072 0.01975398
0.587872 0.7314204 -0.589728
0.06817779 0.94132483 0.10647789
0.75687075 -0.24267071 -0.73180026
-0.10646729 1.5105577 -0.17209941
-0.3181303 -0.41591945 0.7452717
-0.08651036 -0.41527236 0.75535846
-0.6181656 -0.25063527 0.7516474
-0.10501079 0.7616894 -0.78362715
-0.24895975 -0.25795212 -0.9209826
0.725028 -0.41300082 -0.5797707
-0.59045583 -0.25080484 -0.42408866
0.8314346 0.57641506 0.21498606
-0.12158754 -0.061356828 -0.5948618
0.02922544 1.2768316 -0.7125807
0.7408614 0.49102286 -0.49788484
-0.32456473 1.15082 -0.0060533197
-0.12646675 0.79903495 -0.41400683
-0.550233 -0.091077074 -0.91338646
0.30362758 0.9789682 0.35943067
-0.81168795 0.73372304 0.11720995
-0.2578679 -0.20255694 -0.38231286
0.52919054 -0.41134208 -0.8971919
0.42755878 -0.23118192 -0.46803346
-0.700058 -0.41825134 -0.79915464
-0.32054275 -0.2536714 0.9205548
0.37080532 -0.4071291 0.21415806
0.054820187 0.7192825 -0.1297395
0.09995347 0.3866576 -0.55446076
0.8376682 1.390649 -0.09141557
0.6909889 -0.41701484 0.8807025
0.5589226 0.19229524 -0.027826218
-0.5530627 -0.08234416 -0.3457166
0.68987423 0.6100605 -0.22299597
0.5599472 1.6634037 -0.3081299
-0.06221781 1.1103017 -0.7906872
0.70484585 0.41373238 0.2790987
0.10043648 1.4418668 -0.61830354
0.89632034 -0.4055444 -0.8796977
0.61799896 0.55441713 -0.6775782
-0.7301574 0.58362174 0.23087429
0.48061073 0.9285253 0.31389424
0.5470514 -0.25635853 -0.77241695
-0.35538644 -0.08876601 -0.9106712
-0.07521845 0.3909459 -0.80225265
0.018498335 0.41406566 0.4514165
-0.24286115 -0.20697778 0.1830706
-0.2177212 1.2411758 -0.17923157
0.022395726 0.58335495 0.7616941
0.2050404 0.86175877 0.22347969
0.3693263 0.42591596 0.3899786
-0.9256437 -0.2448301 -0.0032423951
0.009857578 0.2658167 -0.44939846
0.1393618 1.4654016 0.6491356
-0.7908435 1.2386615 -0.07050352
0.41159022 0.9515235 -0.7298764
-0.047838293 0.7939514 0.009547895
-0.59681284 0.807003 -0.27222112
0.616035 1.4576979 0.39782256
0.01846356 0.21129107 0.4660022
-0.5232308 -0.41866153 0.7156755
0.76025486 0.88079995 0.072833374
-0.2679559 1.5834739 -0.31377417
-0.59363425 0.5581362 -0.080170706
-0.13399497 1.2018414 -0.01603992
0.53464735 0.748719 -0.3399873
0.90222394 -0.087938815 0.32631865
0.24749063 -0.23459938 0.43063796
0.29569685 0.84607244 -0.3877098
-0.48991042 0.52376986 0.5232468
0.14377114 1.8188746 -0.26889062
0.068300694 0.37087494 0.6415708
0.14092892 0.19342726 -0.5972955
0.54537797 1.2108645 -0.079086825
0.3836125 0.73707587 0.54890656
0.60854197 -0.24397162 -0.5959598
