0.5750382 2.7604535 0.635502
0.45588976 1.9370072 0.07108702
0.44482285 2.9498835 0.39432812
0.75575644 -0.250936 0.75536895
0.36758405 2.4005861 0.61236113
-0.6145645 2.3836484 0.43404347
0.022218678 1.6626322 -0.38284525
0.6361519 2.574971 0.65240496
0.2797272 3.2298777 -0.4718284
0.7924382 -0.24822594 0.9339566
0.4518998 -0.08501269 -0.72743404
0.004509445 -0.41672757 -0.4611005
0.02127983 2.846656 0.13736622
-0.75022644 2.5072362 -0.09590917
0.2817641 2.825026 0.3609299
0.09194233 -0.24668217 -0.52503747
0.29814464 1.8676815 0.2175822
-0.3457829 -0.084597826 -0.5773104
0.113019876 2.1127079 -0.3711455
-0.9035553 -0.09593794 0.7384757
0.44887462 3.1657903 0.43774298
-0.61341786 2.931407 0.03066567
-0.49436173 -0.2550378 -0.92417103
0.43707618 -0.081695 0.6453851
0.2223532 1.8718171 -0.620855
0.8555332 2.7870722 -0.064576656
0.87354875 2.6373508 -0.18034121
-0.28956902 2.4788058 0.021969046
-0.21909022 3.084429 -0.34363103
0.19982354 1.6379962 -0.23388739
-0.44489187 2.7833235 -0.14240906
-0.75616336 2.2662015 -0.4515078
0.0045884564 -0.08519859 -0.11833778
-0.75255865 2.9686515 0.17107669
-0.72051764 -0.08393367 -0.40517575
0.3196114 2.5800073 -0.4540549
-0.58497834 -0.4155821 -0.08758568
-0.4084802 2.754442 0.6922715
0.09182348 2.850753 -0.40425315
-0.29426825 2.2636733 -0.23579489
-0.056634307 2.7213793 -0.4855718
-0.26789436 2.5827131 0.6700642
-0.7642289 -0.0762174 0.2237381
0.218846 2.058371 -0.7696193
-0.07401803 -0.08783568 -0.76314
0.7515334 -0.24960022 -0.49482128
-0.57140213 2.6397848 0.71206117
0.59240276 2.8388464 -0.6016108
-0.11040401 -0.24822913 -0.4557629
-0.16451256 2.5693712 -0.74028516
-0.10628771 -0.080854155 0.19740874
-0.7886122 2.6372366 -0.4379789
0.37743637 2.4366622 0.0026217443
0.13339937 2.8457012 -0.01819405
0.20122099 2.4149258 -0.52738154
0.922863 -0.24781957 0.0070569273
0.040140778 2.1401286 -0.83575535
0.82597286 2.273716 -0.33220592
0.6826939 3.0931394 0.0014014228
-0.24263097 1.6253419 -0.11325979
-0.44834268 2.857999 0.4830875
-0.13116638 -0.24354747 -0.25054497
0.84693223 2.639574 0.3200552
-0.71333885 -0.4203406 0.78129715
0.31681708 2.5783925 0.8518113
-0.5079328 -0.4196765 -0.71795535
-0.74510497 2.459172 -0.50740147
0.12794137 1.7710818 0.1699448
0.25383422 2.211438 0.8274058
-0.5504359 -0.085134916 0.5689635
0.74724144 -0.08798204 -0.5904048
0.8244162 2.6197739 -0.3557634
-0.13515423 3.0342493 -0.51078314
0.30399653 1.6455158 -0.028460113
-0.047043845 -0.4141585 -0.7656068
0.73962224 -0.41754562 0.64106584
-0.14381324 2.2160833 -0.8495715
-0.49486122 2.256802 -0.51950264
-0.027192814 2.3755376 0.4240126
0.567469 -0.084110275 0.109535605
0.2225449 -0.41641057 0.2994869
-0.35804167 -0.41824394 -0.56927127
-0.37851694 2.6626818 0.8207106
0.11045512 2.8756094 -0.8206287
-0.89609003 -0.098461114 -0.90611607
-0.7898974 2.4795282 0.44560912
0.09552164 -0.4196447 -0.24821922
0.38382185 2.5779457 0.14463064
0.4635055 1.794536 0.33260074
-0.051531292 -0.08204877 0.57628495
0.1139129 3.1981304 -0.20122346
0.11149692 2.6565151 -0.09633506
-0.75853115 -0.23904572 0.3326173
-0.5079311 3.2108252 0.25313818
0.41704053 2.615411 -0.071040794
-0.52809685 1.9025118 0.43099776
-0.8757805 -0.084937096 0.03789368
-0.5310417 2.255513 -0.04387313
0.73786485 2.5926745 -0.5117522
-0.21881044 2.8776681 -0.592767
-0.22048944 3.0595775 0.67986256
-0.34888998 3.320328 0.16062604
0.5438261 2.3178723 -0.71086854
0.3189934 3.0752382 0.3444325
0.67596453 2.4394789 -0.60782504
-0.3883141 -0.08920876 0.46281382
-0.61417323 -0.09251239 0.91918284
0.41972867 -0.08337271 0.43631598
0.61447746 -0.26225483 0.9010876
0.91909707 -0.24620126 -0.3904336
-0.89421445 -0.41003928 0.124215886
0.7465864 2.4794219 -0.030620297
0.91685736 -0.24773206 -0.19260457
0.51569283 1.9885033 -0.52871746
-0.5240692 -0.41998985 0.48331282
-0.1619903 1.6686239 -0.30361953
-0.6980583 -0.4149641 0.4104198
-0.13385545 1.9709182 0.13590647
-0.34538463 2.5565903 -0.44559285
-0.8998879 2.6421986 -0.045416404
0.023676954 -0.4164779 0.58432424
0.12086839 1.7689487 -0.03332409
-0.6942222 -0.07829536 0.0053461823
-0.7160144 -0.41659307 -0.6080486
0.032193217 2.3183644 -0.6909201
-0.8946155 -0.40742132 0.7271786
-0.90053326 -0.09141545 -0.5131094
-0.6096443 -0.25134513 -0.19517334
-0.34840968 2.5076144 -0.842392
0.41698065 -0.2544169 -0.9251549
-0.59200805 2.98659 0.4945777
0.017083235 -0.41718587 0.38225445
-0.27007392 2.1344013 0.7920174
0.33850303 2.5871909 -0.83736795
0.40502873 2.9155169 -0.5034727
-0.5224531 2.9685118 -0.16201362
-0.51031405 -0.24497466 0.91476154
-0.49900258 -0.24951114 0.13514505
0.61870146 2.441548 -0.37649223
-0.0044185994 2.963578 0.32479155
-0.05648344 1.7753085 0.092985064
0.084105186 1.6559012 0.33279
-0.27990115 -0.41742286 -0.74109554
0.42105484 -0.27003515 0.9232664
-0.2602624 2.896545 0.5726926
0.38858545 -0.084350266 -0.53293854
-0.17168903 2.577452 -0.5356546
0.8353254 2.1594174 0.066322856
-0.4758567 2.960653 0.3287655
0.38998228 -0.076331005 0.8750797
-0.107301794 2.236713 0.8562572
0.25883996 2.8863745 -0.28293788
0.3038577 3.2854536 0.35534638
-0.37847567 -0.25183007 -0.7699651
0.73867136 -0.081008315 0.21324292
0.2702758 2.543694 -0.13587615
0.37326947 2.3677678 0.8153391
-0.4763079 3.138208 0.44296023
0.56191236 -0.42267716 0.13077538
-0.71695113 2.638116 0.5289381
-0.16063708 2.659214 0.45997524
-0.045347806 -0.24870147 -0.63299906
-0.53798157 -0.084935285 0.7560619
0.7806628 2.9494104 -0.1453769
0.17072567 2.1684754 -0.038547657
0.9085182 2.5741334 -0.0127469925
0.53302765 2.0193472 -0.10774014
0.5813515 2.9397733 -0.23717219
-0.08685122 3.1980262 -0.20637594
0.37638977 1.8539604 -0.51067567
-0.08215311 -0.41652 -0.12748358
-0.73963577 -0.4154435 -0.1986899
-0.26104724 -0.4168047 -0.04236545
-0.28820506 2.0630574 0.23702419
0.9011937 -0.08867758 -0.8964773
-0.39279726 -0.4117399 -0.89853126
0.13025452 -0.25480056 0.32093138
-0.895055 -0.090792835 -0.31495062
-0.025847564 2.392935 -0.19799249
-0.21679999 1.9584633 0.6888492
-0.6725157 2.2788348 0.11480153
0.028548893 3.4045005 0.08161431
-0.102006294 2.8963697 -0.38279438
0.9241965 -0.24615467 0.22112279
0.17772011 -0.41416475 0.47204155
-0.060808852 -0.25614327 -0.91535467
-0.9186505 -0.25881186 -0.861888
-0.14569056 -0.4148465 0.26929027
-0.7065233 2.1490457 0.45125052
0.029174177 2.5307543 -0.76332635
-0.26407996 2.8654222 -0.79108524
0.70575863 2.3597376 -0.19801928
-0.32947865 1.7326373 -0.36863488
0.6309769 2.8658953 -0.06382287
0.4605606 -0.23916827 0.7577316
-0.02862637 2.8774722 0.6313413
-0.42191526 3.1357245 -0.49241826
-0.11178762 -0.25113463 -0.047313366
0.7298882 2.395212 0.5385694
-0.25755045 1.6331794 0.115256704
-0.16367888 -0.42092693 0.45637342
0.26382613 -0.083494134 0.54220325
-0.29096168 2.6517718 -0.0964688
-0.3077673 2.8781796 -0.2802188
-0.5065115 2.8976111 -0.33849692
-0.41860574 2.475421 0.8053526
0.296648 2.0552578 0.73617893
-0.5493015 -0.084425606 -0.5298858
0.07805777 -0.08257661 -0.6653054
0.19907825 2.4795332 0.09458159
-0.81665736 2.6883152 0.37447658
0.37157032 2.3945 -0.6298607
-0.7050463 2.310493 0.557811
-0.45443332 2.6414351 -0.5894588
-0.13418034 2.4948568 0.5421286
0.04273924 -0.25934672 -0.18040316
-0.77088726 -0.24189813 -0.08948288
-0.022076327 3.1348279 -0.36536425
-0.32688332 2.5017974 -0.22272526
0.24451596 2.5340037 0.6811274
-0.2465968 -0.253521 0.38507593
-0.51266724 1.987401 0.17272632
-0.53546625 2.589069 0.18589666
0.23849903 1.6320246 0.15343879
-0.13588835 2.85221 0.22887827
-0.90107805 -0.40507638 -0.09136078
-0.600204 -0.40805027 -0.91131943
0.5341272 2.0749083 0.59438133
0.085455984 2.7339334 -0.69321364
0.24827991 2.9857624 -0.73300433
0.43383816 2.9106977 -0.6906899
0.056907997 2.8402762 -0.19293295
0.35489792 -0.08404817 -0.18666318
-0.50571835 -0.42220142 0.27320507
0.106828764 -0.08265613 0.4549889
0.053392358 1.6011537 0.1383637
0.8872946 2.4404051 -0.20250206
0.68492544 1.9422668 -0.2349989
0.7311383 -0.086318515 -0.9050945
-0.4326661 -0.25566196 -0.4583161
0.20746864 3.3792922 0.051085997
0.10030053 -0.24149655 -0.02747233
-0.21531738 -0.414982 -0.43902853
0.40681025 2.1457202 -0.22880638
0.37531802 2.634844 0.36392102
0.32722127 -0.42157307 -0.5954437
-0.28408834 1.919363 -0.6424931
-0.50449294 3.2549746 0.056610383
0.44591624 -0.41195208 0.623343
0.5208387 3.2407804 0.031248955
-0.072061814 -0.085880354 0.3861856
0.38912186 2.3865345 -0.42539412
-0.3110991 3.3634667 -0.03937867
0.2586548 -0.4025095 0.91224843
-0.20423523 -0.08255781 -0.40177122
-0.10059793 1.6298478 0.24435823
0.15171762 2.2395842 -0.51267684
0.38788128 2.684268 -0.29062882
-0.6490953 2.846642 -0.14337917
-0.28167528 -0.25118408 -0.1464104
0.8253262 2.8066852 -0.28177482
0.5412692 -0.41312093 -0.50890225
-0.4505417 2.3761628 0.32133308
0.11846406 2.5443957 -0.42307106
-0.37188143 -0.26151115 0.2442767
-0.4375081 -0.08795858 0.2661332
-0.2036075 2.6208398 -0.31860352
0.89825195 -0.09372629 0.9026682
-0.08649571 2.0477726 -0.36778706
0.9317416 -0.24878 0.8436901
0.080434114 3.0041919 -0.27869195
0.22909147 -0.41545635 0.10611639
-0.13465795 2.431226 0.73870075
0.36313877 3.3254328 0.11806951
0.20997337 1.7266988 -0.4285179
0.67837405 2.7614176 -0.23754697
-0.48393485 2.274854 -0.24845812
0.41985068 2.8848503 0.712179
0.74108505 -0.415792 0.42534357
-0.57146174 2.7603948 -0.66733813
0.5185476 -0.0820733 -0.33734342
-0.53642946 2.5510654 -0.73786926
0.7202804 -0.41612107 -0.39802876
-0.8954393 -0.09221689 -0.12664193
0.7781923 2.0369005 -0.083151974
-0.8656112 -0.09545338 0.91379994
-0.88236696 2.6371205 0.16079842
-0.20664354 2.3755836 -0.13161986
0.27516443 2.0527368 0.11464989
-0.23343788 1.802055 -0.0032467775
0.3307997 3.157211 -0.16983972
0.30005544 -0.24929273 0.2208904
0.06794633 2.3139791 0.08646639
-0.1901706 2.2996726 0.51875144
-0.0891405 -0.25987196 0.9183663
0.52257204 2.5107834 -0.7475703
0.7167313 2.786723 -0.4659551
-0.12252419 3.0184596 0.49526075
0.20761102 2.8079126 0.1667071
-0.1984191 2.7399547 0.8507171
0.26552922 2.6750238 0.043059003
-0.15956838 2.2196128 -0.6504597
-0.5216592 1.8203909 -0.3156824
-0.7494287 -0.41330037 0.010221388
0.10355665 2.6981504 0.7035585
0.7136155 -0.08472443 -0.20169438
0.72274613 -0.082555264 0.00083178276
0.48357475 3.0344377 -0.10389711
0.70081997 -0.4146905 -0.76521546
0.30047184 2.272867 0.061715756
0.24963494 2.9938705 -0.12829262
0.5459452 1.8092048 -0.20303896
-0.48460448 -0.08414358 -0.7239339
0.5830935 1.821502 0.15950043
0.28422314 2.2441628 -0.3609437
0.70778215 2.9575136 -0.3581742
-0.47578695 3.0418208 0.13874875
-0.764821 -0.24766533 -0.3017573
-0.4182848 -0.41661748 -0.16301802
0.76827425 2.2526448 0.39269045
0.3504217 2.8864238 0.013844383
0.17303586 2.4699268 -0.89903414
-0.77083224 -0.25281596 -0.5087593
-0.3381412 2.960265 -0.46326408
0.26825088 -0.41216025 -0.28168917
-0.6390089 2.104523 0.10860184
-0.686053 2.5580783 -0.29344732
0.41650596 2.6098027 0.5741031
0.082074806 -0.24073416 -0.7684233
0.2563471 -0.08579293 0.33105153
-0.1413367 2.5142097 0.3197227
-0.5951685 2.4558518 0.006034825
-0.8862064 -0.41303697 0.33974186
-0.85349214 -0.40589073 0.9084118
-0.72533435 2.9000056 0.36261097
0.37025973 -0.41857216 0.7814142
0.6528627 2.224966 0.567239
-0.5883166 -0.25309777 -0.7771505
0.2322839 -0.24125734 -0.18635978
-0.89665604 -0.40453678 -0.7196055
-0.42861322 2.8737714 -0.69187284
-0.2445774 2.371119 0.36607236
0.6190877 3.1525114 0.17094147
0.5468566 2.6693146 -0.16394061
-0.6152621 -0.24196191 -0.00035358418
0.7233955 2.5945754 0.1580473
-0.89600444 -0.4077937 -0.30326405
0.80437094 2.4340565 -0.41507778
0.2756318 1.7059522 0.34228125
-0.65206885 3.1243002 0.12034061
-0.72805053 -0.41531026 0.22887328
-0.42308664 2.2629237 0.76834077
-0.73607993 -0.08501329 -0.5887561
-0.19056341 -0.4141236 0.89615154
-0.6765587 2.8100226 0.5369648
0.8757573 2.7191355 0.1221801
-0.7437041 -0.24413626 0.1305517
-0.023729749 2.0450103 0.29939494
-0.45843562 3.0917583 -0.053250134
-0.5228151 2.0359125 -0.23124458
0.21621169 2.2363942 -0.68310237
0.19374458 2.4233766 -0.7229034
0.29116836 2.7912385 -0.8089608
-0.5476594 -0.41636857 -0.5093325
-0.44600624 2.5358615 0.608301
-0.25426447 -0.08560574 0.3185225
-0.90044624 -0.09454057 0.36631295
0.10848881 -0.083050326 0.67050755
-0.4493427 -0.2509869 -0.06556711
-0.6849283 2.9317563 -0.41060022
0.45678237 2.1416323 0.11029233
0.39407635 -0.08198784 0.008804799
0.123715475 1.7633898 0.50939405
0.784185 -0.24247725 0.111132756
0.48983935 2.2508125 -0.054478943
0.16767608 -0.077770695 -0.8776768
-0.4159741 2.892313 0.020725911
0.6110425 -0.24713676 0.4220693
0.3035885 2.2951949 0.4186226
0.47367486 3.066882 0.21917406
0.13616398 -0.25190347 0.1471808
0.6783614 2.7913938 0.11853805
0.54340136 2.6677425 0.2222749
0.014594582 2.5416317 -0.591468
-0.016887914 2.2776568 0.26512474
-0.39704788 -0.418271 -0.36919868
-0.7194478 -0.08908394 0.62539893
0.5609803 -0.41600832 0.33418712
-0.89611554 -0.091923244 0.55148
-0.6354774 3.0660517 0.30814105
0.046048395 -0.4168348 0.19270277
-0.6699214 2.587447 -0.611644
0.74850506 -0.25194296 -0.30410632
0.3647866 2.1022027 0.45267043
-0.036565766 2.4109101 0.90990764
-0.9185469 -0.27395323 0.2347015
-0.2019228 -0.09267488 0.9027839
0.14015053 2.7014718 -0.51002634
-0.8558119 -0.40596262 -0.9107238
0.33234218 2.320609 -0.1574737
0.22211021 2.0571036 0.29483193
-0.5992881 -0.41026115 0.11238332
0.48001674 2.1685672 -0.42445302
0.21008424 3.1957104 -0.021043561
-0.39847085 2.689249 -0.30069482
-0.92597055 -0.24839564 -0.6251975
0.8933198 -0.08616731 -0.28981358
0.6324479 2.1101906 0.026774105
-0.71129775 2.6880248 -0.12903741
-0.32632598 2.5229979 0.44099486
0.19564363 2.0883403 0.5560454
-0.5299816 2.8633995 0.65999633
-0.044715006 -0.084476165 -0.2997855
0.5018739 2.3415666 0.13032432
-0.53968894 2.851675 0.1978062
0.13543972 2.1912909 0.38168666
-0.7267952 -0.41692662 -0.4076614
0.3970238 -0.41782624 -0.40478095
-0.05572668 -0.08460396 0.7640005
0.14036222 2.6263 0.89113325
-0.49290442 -0.08255712 0.060440324
0.5336088 -0.4212403 -0.68815285
-0.3832184 -0.08216157 0.6576763
-0.0200306 3.036582 0.12845607
-0.7147382 1.936123 -0.04252745
-0.43499073 -0.41485673 0.04561093
0.2003862 2.0583165 -0.56917727
-0.67838556 1.9407867 -0.24122664
-0.11227765 3.2942576 -0.42318216
0.4254719 1.9929366 0.27703112
0.5462107 2.440195 -0.11091294
-0.032657553 -0.249594 0.11592782
0.59012264 -0.08434558 0.5340164
0.0698465 2.2346256 0.8640756
-0.6908055 -0.41333953 0.60453475
-0.26230502 2.3402226 0.8571477
0.516078 2.831973 -0.36601856
-0.8922823 -0.090357065 -0.7211668
0.8942356 2.4984727 0.1683941
-0.6048789 2.7544334 0.36124697
0.17301553 2.8976798 -0.5984489
-0.07938422 -0.41274348 -0.31020623
-0.2906352 2.711028 -0.6339976
-0.23482561 3.1783006 -0.55929875
0.555495 2.440818 0.536225
-0.3928447 -0.08546074 -0.41189167
0.27798405 -0.18698196 0.927356
-0.7743943 -0.24432853 -0.7275927
0.6788626 2.7127187 0.32339203
-0.44984293 2.789784 -0.48506665
-0.34370318 2.515354 0.22033198
-0.32069397 3.0249474 0.4284031
-0.31203395 2.096692 -0.75447303
0.07912595 2.3445282 -0.357949
0.056493886 2.49467 0.7643038
-0.6015742 2.7407944 -0.3075124
-0.033125162 3.0622435 0.7063831
-0.19329776 3.1615791 0.3672176
-0.01036927 1.9118634 -0.048055585
-0.077525325 3.406489 -0.102364354
-0.07432708 2.899055 -0.026278095
0.0014107882 2.0855029 -0.17406443
0.045365456 -0.08120427 0.06389265
-0.55890864 2.392554 0.7055512
0.18318507 2.3560724 0.71173483
0.7362002 -0.41675884 0.22544512
0.43590632 -0.25342932 0.082662076
-0.89136976 2.2701106 -0.044463687
-0.5163073 1.9941787 -0.017637184
0.17282794 1.9728178 -0.05858127
0.0691348 2.6562548 0.108794644
-0.39444786 -0.08429547 0.8891596
0.27331278 2.7634976 -0.1325715
-0.34604803 3.2645526 0.3688747
-0.4882845 2.3780541 -0.75516146
-0.23814042 2.0607395 -0.25042218
-0.92064446 -0.25630596 0.8711186
-0.34311926 2.189888 0.59431845
0.38224074 -0.41824996 0.44045687
-0.25038427 2.6766453 0.2744039
0.062239774 -0.4155889 -0.0123929875
0.33072907 1.8020363 0.50838256
-0.4673443 2.3790293 0.12268211
0.19419625 -0.41422272 -0.455459
-0.48295105 2.0932 0.3177427
0.18043873 3.0151768 0.07617086
-0.020762267 2.1764042 0.48317063
0.85553515 2.2321856 -0.12820786
0.19852917 -0.08067043 -0.07753785
0.6495732 1.8735046 -0.03418224
0.20618065 2.592234 -0.6647331
0.3817028 2.0118966 -0.6606323
0.071119376 2.5133595 0.57190925
-0.11904981 -0.41453138 0.077037826
-0.18258232 -0.08258402 -0.17301348
-0.56477123 2.2014482 0.64591926
-0.5440968 2.962992 -0.5598009
0.9010151 -0.40737903 0.11728258
0.8086327 2.8348987 0.27018058
0.5861672 -0.412839 0.74238366
0.044086087 3.0452473 -0.7215618
-0.2581287 -0.25076598 -0.5771835
0.5110595 2.7800443 0.41655996
0.8994909 -0.40834716 0.52455664
0.2735078 3.1671796 0.18043181
0.3406268 -0.08711153 -0.90784204
-0.08281418 2.9019084 -0.8071306
0.16601527 -0.076707505 0.8782185
0.0152598815 3.2320018 -0.018673899
-0.1991685 3.342218 0.2732391
0.27097708 3.1834042 0.53451216
0.5982659 3.0786617 0.37516743
-0.56971586 2.6114032 -0.44121912
-0.2770954 -0.0864168 -0.7449378
0.72726476 -0.08445929 0.87904674
-0.7176415 -0.08186712 -0.2014094
-0.44774815 -0.25330368 -0.6238642
-0.45481953 3.2780528 -0.1282469
0.6255909 2.649815 -0.63982296
-0.64218146 2.4148479 0.25048998
-0.33183765 2.506995 -0.65680957
0.36036444 2.209583 -0.56329757
-0.14698267 2.1996074 0.6705312
-0.33601245 2.154719 -0.5704351
0.38787705 1.6983364 -0.17554204
0.860029 2.2882702 0.20749284
-0.3360689 -0.42023024 0.36125755
-0.34787947 3.033754 -0.65231454
0.17995608 2.417939 0.8942974
0.74090916 -0.082327925 0.42576244
0.38137442 3.1081803 0.032753464
-0.9245621 -0.2531395 -0.40920934
0.42789045 3.047906 0.5833841
-0.21366905 1.809701 0.54505116
-0.8810109 -0.4137265 0.5342311
0.5121564 2.5204136 -0.518072
0.47314152 2.2557437 0.51691955
-0.38172996 1.78429 0.41261587
0.456618 2.1917338 0.72755617
-0.17556712 -0.2549746 -0.75855786
-0.7241413 -0.26109147 -0.92232585
0.38989207 2.7703452 0.20773427
-0.062375806 -0.24456154 0.6489797
-0.19058494 -0.09061894 -0.91486835
-0.87229806 2.474046 0.2689003
0.08628836 1.9503984 -0.25897735
0.587144 -0.08592725 0.7475913
-0.031438608 2.373987 -0.5120176
0.17767486 3.3582163 0.2457557
0.26108673 -0.4195262 0.6182296
-0.47036478 2.017932 -0.60573906
-0.30946162 2.0666142 0.050118767
-0.58446157 3.155908 -0.2258765
0.053265147 -0.24590687 0.47966447
-0.6607175 2.4946902 0.60469264
-0.8026582 2.29912 0.35560638
0.750548 -0.25378737 -0.09787986
-0.25269866 2.7605712 -0.4372691
-0.060999285 2.678019 0.2529432
0.7100144 -0.08486691 -0.39484847
-0.67949027 2.7843935 -0.5178563
-0.81879777 2.106903 0.048409656
0.5740257 -0.08303209 0.3229325
0.2498295 3.0026789 -0.4594469
-0.11491572 2.983632 -0.20815767
-0.2747653 3.1831057 0.54211044
0.40428418 3.0114696 -0.3050272
-0.53268576 2.5483356 0.40181893
0.28573868 1.8341489 0.03277808
-0.23126087 1.8162395 0.19880891
-0.4368351 2.364766 0.5297066
-0.08054779 2.229994 -0.2820287
0.3047066 -0.23688829 -0.78350204
-0.16502175 2.1745148 0.3380301
0.6279716 -0.2751067 0.0719857
0.65774065 -0.24771024 0.2435654
-0.40433803 3.062399 -0.2879149
-0.15795723 3.0501914 -0.70779395
0.08796615 -0.41513768 -0.624708
-0.18060735 2.4279888 -0.8930066
0.641063 -0.24547693 -0.9185803
-0.6668787 1.9987429 0.33873644
-0.58954054 -0.26743844 0.29950967
0.5862355 -0.4146249 0.5234772
-0.15089422 2.5756397 0.0940944
0.3045104 2.7649407 -0.6248686
-0.015670715 2.3386004 0.6476573
-0.7014069 2.5864618 0.28649086
-0.1920844 2.0651755 0.51700455
0.89880174 -0.089692034 0.7240389
-0.5767335 3.0830772 -0.39259765
-0.56629544 -0.090529904 0.38457736
0.38641834 1.7528927 -0.3472095
0.29175422 2.713102 0.67872024
0.24651812 2.8057992 0.8295678
0.67312276 2.491792 0.34996226
-0.17721575 2.174579 -0.08738918
-0.13798583 2.1834633 0.1267401
-0.6157354 -0.24893387 0.50673586
0.14887165 2.2394586 -0.21716115
0.91788024 -0.25054875 0.6369947
0.15384518 2.6658237 -0.8784362
0.40761063 -0.25070262 -0.29582846
-0.57599425 1.8028156 0.069530316
-0.46284863 -0.2609045 0.60250366
-0.36391297 2.0309224 0.4541784
0.92544657 -0.24797179 0.43424127
0.6088122 -0.25059468 0.6517557
-0.5609392 2.7373044 0.014556763
0.5209788 2.4905274 0.25363496
0.8408804 2.4324691 0.35323423
0.12523645 1.8655267 0.33352858
-0.39712086 2.1385937 -0.361755
-0.778259 -0.2533894 0.52840006
0.22500716 3.335106 -0.28813836
-0.021696523 3.1571112 0.32942697
0.5328274 -0.08708608 -0.91012144
0.18485372 1.8936238 0.6419427
0.118882865 -0.26013514 0.9254182
0.6483993 -0.083036564 -0.7421662
-0.005829972 2.6892283 -0.29353157
-0.09147041 1.5934345 0.015254822
0.4744149 2.721372 -0.74737656
0.14390536 -0.08269318 -0.28106105
-0.777883 -0.25405285 0.72225195
-0.72860825 -0.080854364 0.43205622
0.48203173 2.5158105 0.7574641
0.1914875 2.6797495 -0.29604033
0.08552815 2.7622542 0.31954044
-0.4140827 2.0559819 0.6831892
0.58408135 -0.24421696 -0.22703394
-0.22777022 2.5335 0.87823963
0.76346123 2.5793307 0.49391344
-0.59872115 2.2264588 0.27987334
-0.16921456 3.2621725 -0.034698915
-0.6053476 -0.4049418 0.90395755
0.21025744 -0.24724978 -0.3673017
-0.57390124 1.9629418 -0.44119784
-0.4346785 3.246028 -0.3092788
0.7846415 -0.24757212 0.33885974
0.91306317 -0.24223243 -0.5938953
-0.15429735 -0.0877627 0.018422548
0.008338624 2.7022884 0.53543675
0.32335988 -0.08500322 -0.3594242
0.57059014 2.3538003 0.6995899
0.5419757 2.9629955 0.07290875
-0.70623213 2.6238143 0.05481813
-0.40373528 2.6970158 -0.79131055
0.8975375 -0.40865177 -0.08773794
0.68170327 2.0715177 0.44539818
-0.15180552 2.0440953 -0.56393
-0.3843925 1.9111481 0.28304595
-0.31949857 2.0199554 -0.46046704
0.041012563 -0.25218624 -0.35295406
0.714998 2.2620692 -0.52632177
-0.50126326 2.4532833 -0.5447984
-0.07684194 2.6303942 0.70716
-0.6814971 2.7579963 0.17417824
0.26387578 -0.081752904 -0.6958641
-0.89428014 -0.4080262 -0.5140023
0.02693402 2.1247392 -0.6517762
-0.29802972 2.3838353 0.6554389
-0.032664463 2.1948807 -0.48273045
0.8938604 -0.40984404 0.7266711
0.23503241 -0.08328447 0.12467378
-0.2168041 2.2124226 -0.4289666
0.056315076 3.0421712 -0.08132324
-0.4423994 -0.25022247 -0.26391134
0.90125054 -0.0881696 0.5250228
0.8936846 -0.40020365 0.9036072
-0.060799547 2.7095468 -0.04806732
-0.5193272 2.2091873 0.46378896
0.57130814 3.1234457 -0.32988673
0.28585446 -0.40173358 -0.91940486
-0.3046221 2.9978945 -0.1221555
-0.5636801 1.8276716 0.2620162
-0.3741758 2.3536243 -0.40450448
-0.17152189 -0.4095242 -0.9076585
-0.18035942 3.0115328 0.27741814
0.39013305 2.2132955 0.26870024
0.27397197 3.0119874 0.70414686
-0.35067308 -0.4156245 0.5515195
0.5580916 2.0615041 -0.29738873
0.18498732 -0.4132117 -0.7656764
-0.13527763 3.1964362 0.15496585
-0.52987576 -0.084140345 -0.12845704
0.5497248 -0.10076972 0.91615564
0.73976517 1.968219 0.11415637
0.5383386 -0.07217051 -0.13078286
-0.1938694 -0.2585585 0.7686402
-0.035009094 2.550634 -0.9185698
0.14211677 -0.4191508 0.75352484
0.27458298 -0.24466814 0.0121416
-0.3062138 -0.41933927 0.1673401
0.24108429 1.8301353 -0.20679787
0.009161276 2.3451893 -0.8907917
0.22743379 -0.25742957 -0.62133825
-0.12744284 2.9171152 0.79707736
-0.06123675 3.1965473 0.5770777
-0.21721698 2.676912 -0.87117356
-0.4353259 -0.25904247 0.4188581
-0.15741925 3.3942792 0.09688731
-0.1122644 -0.25816315 0.48820463
-0.34344214 2.3241863 -0.63079613
0.09000517 2.1355739 0.16345553
0.25505415 -0.26419064 0.7738214
0.93151206 -0.24850048 -0.7806648
0.4305679 -0.2543738 -0.6235446
-0.30057275 -0.2531816 0.04607405
0.29764852 2.7893078 -0.4314096
0.7194848 -0.40003893 -0.91967916
-0.7221971 3.001686 -0.23368526
0.08382029 3.2014625 0.15569736
-0.37622362 1.8833958 0.08590765
0.17270164 3.148108 -0.6123228
-0.92794365 -0.2601941 0.43585008
0.47507584 -0.24714603 0.5313592
0.41825938 -0.25395852 0.3625681
-0.91830534 -0.11092922 0.18904597
-0.4908022 2.1929317 -0.7083803
0.41346952 1.7089074 0.15918055
0.3972978 1.9444103 -0.30069366
-0.30945134 -0.08566005 0.13453087
0.007638748 -0.08240738 -0.47308037
0.68467134 2.303364 0.00832789
-0.39287716 -0.24075082 0.7648212
-0.24661331 1.8221592 -0.20998275
-0.05227331 -0.25032577 0.30313158
-0.23694476 2.9832146 0.08571838
-0.42983916 2.3994517 -0.109591156
0.77579683 2.105249 -0.27649325
0.90051967 -0.086126804 -0.49049538
-0.33529118 2.6998703 0.5110847
0.082925685 2.186538 0.6786051
-0.3279895 2.8938 0.7614852
0.51278055 1.9257337 0.46985167
0.24147713 2.05688 -0.22731683
-0.64282155 2.3477666 -0.6310098
-0.16905367 1.7459013 -0.5022425
0.3995728 -0.41894808 0.017522005
0.060843855 -0.40363908 -0.91236424
-0.15506744 2.776203 -0.21948738
-0.73167497 2.2999208 -0.061024025
0.38254294 1.9633759 0.6168957
0.034153193 -0.41167164 0.90836865
-0.049102344 2.6063101 0.9039752
0.4683619 3.2416058 0.25097317
0.40856102 -0.08311624 0.218966
-0.42828104 2.7068694 0.31819153
0.06084999 1.9425297 -0.7190598
-0.46316087 2.1691887 0.11754141
-0.18267354 2.378183 0.18616055
-0.0828318 1.7486587 -0.10800105
0.2798997 -0.089228004 0.7303273
-0.91260046 2.4598527 0.047873843
0.45196855 2.7006652 0.7703946
-0.7522884 2.454807 0.1126365
-0.0077133183 3.360571 0.27499962
-0.742828 -0.08667171 -0.90595865
0.41617948 -0.41901174 -0.18376444
-0.09735305 1.9067236 -0.23064868
0.14977251 -0.2556158 0.6152486
0.8947057 -0.08763316 -0.09167094
0.8873548 -0.08189932 -0.7077851
0.5619973 -0.41403475 -0.29996142
-0.18575054 2.7615542 0.6504221
-0.48855466 2.488609 -0.3112172
0.33408526 2.419405 0.24305817
-0.27636725 -0.24691997 0.587526
-0.38025972 1.9348112 -0.3084351
-0.3998657 1.8479292 -0.5005423
0.38998246 2.1912968 -0.7644818
-0.63543075 2.1369908 -0.559213
0.54523146 2.1306744 0.3627151
-0.6439826 3.1380103 -0.06385373
-0.09609886 2.8293345 0.43107724
-0.61044824 -0.094043106 0.19881867
-0.72811586 -0.08442643 0.80009824
0.50597703 -0.24882382 0.22952493
-0.019583423 1.5985929 -0.18569611
0.19987491 1.9078737 -0.4051955
0.20048499 2.2627995 -0.86124474
-0.03267267 3.1922834 -0.59161
0.72073656 2.761331 0.50042826
0.32756045 2.0554993 -0.43514326
-0.35204494 -0.084911264 -0.24187733
-0.83621866 2.8085248 0.2306783
0.1470809 2.3241856 0.52613175
-0.099435516 1.8639705 -0.6354622
-0.4023309 1.7085236 -0.19361858
-0.83426374 2.4404008 -0.34176004
-0.56715465 2.1531205 -0.3927392
-0.41537902 3.0299265 0.61334145
-0.19064622 1.982841 -0.069045626
-0.11486075 3.3009593 0.43838564
-0.924839 -0.25378314 -0.19904919
0.5721903 -0.4072326 -0.0797707
-0.86979264 2.628179 -0.24595797
0.85701776 -0.25017917 -0.9285358
0.4715274 2.7156327 -0.5173809
-0.20061746 1.8938763 -0.4137639
-0.3902515 2.1296551 -0.12112611
-0.3302306 2.259303 0.21209058
-0.123090185 2.556146 -0.14541678
0.06248599 1.7718846 -0.23024718
0.56436735 2.612375 0.45206183
0.7571189 -0.24820976 0.54001886
0.892182 -0.40864465 -0.6848333
-0.05480174 2.519913 -0.37795892
-0.38399628 1.9107524 -0.114889294
0.36612362 3.074754 -0.6083736
0.4120756 -0.25485554 -0.11035718
0.407828 3.2550676 -0.30598986
-0.23731934 1.6971748 0.3506728
-0.21987782 -0.08407377 0.51732916
0.23168999 -0.4124465 -0.09291114
0.11553204 1.5941467 -0.044832993
0.64713913 2.2210393 0.20039502
0.35045347 3.3350239 -0.09990112
-0.89797574 2.4406219 -0.15624714
-0.0039482503 -0.096451655 0.9156353
0.89769894 2.3621895 0.011604182
-0.013191146 2.0875435 0.02158667
-0.22811587 -0.08593113 0.71654356
0.3835525 1.9052839 -0.11285493
-0.31651762 3.162314 0.04250019
0.35080212 2.0981102 -0.056782503
0.17553376 -0.24426733 -0.92757314
0.08540479 2.521237 -0.222985
-0.2285987 3.3539474 -0.23541142
0.56554073 -0.0844907 -0.5451338
-0.34081957 2.8793342 0.20826839
0.44184414 3.1366448 -0.45931506
0.58740777 2.640586 -0.3756248
0.90138036 -0.08581447 0.11074043
0.57015324 2.3208177 0.35354626
0.58550364 2.0327747 0.18844132
-0.3793923 1.9028254 0.57606065
0.220707 3.1227636 -0.33243573
-0.4081005 -0.40950695 0.89686
0.10281105 2.870147 0.46264455
-0.72613245 -0.25252292 0.9170915
0.36651766 2.3872507 -0.82616293
0.55911416 -0.24584557 -0.42826083
0.69186455 2.5479832 -0.22251731
0.573631 2.997489 -0.5019862
0.34556884 2.9527166 0.1917093
-0.8399009 2.268106 -0.25729328
-0.80803174 2.0967767 -0.15627687
0.37886772 -0.41106683 -0.77128094
-0.6610722 2.2158072 -0.24280435
0.6941001 2.9186196 0.3991262
0.7276306 -0.41760325 -0.19304928
0.718464 3.0057106 0.21310511
0.74266726 -0.08317876 0.6479762
-0.6179408 -0.24959204 -0.60055417
0.0236718 2.5025694 -0.015691964
-0.24978043 -0.4147491 -0.24084887
-0.4121591 1.7138166 0.20924258
0.19449149 -0.086236544 -0.49654186
0.1107304 2.026199 0.7757185
0.094799735 3.2776499 -0.44913557
0.44690803 2.5072782 -0.26935554
-0.6731039 -0.08196036 -0.742071
0.15463142 3.154087 0.34520933
-0.5676698 1.8097802 -0.12321294
0.3340074 -0.24981304 0.6113457
0.005670069 3.3638568 -0.28257638
-0.3419434 2.212578 0.3997632
-0.3337397 3.1142337 0.23600794
0.90229386 -0.40779865 0.319792
0.20830736 2.6096976 0.26454818
0.054764606 -0.2399209 0.77546495
-0.78931797 2.8015542 -0.32535648
-0.5335634 2.5961294 -0.15430173
-0.52692455 2.6868722 0.5300385
0.20664558 2.2711575 0.21764337
0.6444313 2.2444942 -0.35423088
0.57215565 -0.20472915 -0.05092816
-0.71297354 1.9423913 0.15267912
-0.6134695 2.3707314 -0.39319056
-0.31326842 2.2766063 0.014297253
-0.28737175 3.2596164 -0.39497885
-0.84436995 2.8293657 -0.14851679
0.16704172 2.383537 -0.083899334
0.6707528 3.0936198 -0.1798397
-0.9310485 -0.25615117 0.64150274
0.50658256 -0.414618 0.90584457
0.69958615 2.6670406 -0.03895298
0.15922208 2.978746 0.2708217
-0.3411079 -0.08405345 -0.05491876
0.013839794 2.789706 0.8551683
-0.77229136 2.9919446 -0.034458123
0.04251871 2.5745764 0.389252
-0.21665017 2.3944294 -0.52106476
0.07866309 -0.08601996 0.25414646
0.09841307 1.9896542 0.4597443
-0.13633749 -0.41562924 -0.603742
0.25507528 2.9868906 0.493855
0.8969539 -0.40679282 -0.4890378
0.17607495 2.868865 0.62927973
-0.44731846 2.5703835 0.005827315
0.37291256 2.819577 0.54097843
-0.20751518 1.9304476 0.36517805
0.09087875 1.9448005 0.13739306
0.4382892 2.8435454 -0.16197455
0.7373424 -0.41966 0.01970085
-0.015268582 2.0336838 0.615262
0.06797378 3.0528584 0.50046927
-0.27605447 2.842922 0.3811842
-0.029889548 2.7349908 -0.87458044
-0.32176363 2.2934756 -0.8217855
0.12973577 3.1320057 0.64651895
0.55842096 1.8828717 -0.38593915
0.8957094 -0.40909377 -0.29080117
-0.5689387 -0.4154979 -0.29691324
-0.050908957 1.8284979 0.28273228
0.0067869364 -0.09088648 -0.917833
0.5667503 2.5337365 0.053285737
0.099019654 3.2849927 0.45948005
-0.73671037 2.0854712 -0.3596745
-0.16996889 -0.41400367 0.63166714
0.55816287 2.878941 0.24657053
0.20737971 2.685731 0.49472672
-0.4195341 1.6969112 -0.0015543555
0.5361511 2.321842 -0.5198024
0.013971608 2.4781017 0.19734335
0.7589264 -0.24106531 -0.7430107
-0.13627583 3.0852246 -0.03878354
-0.3127904 -0.414965 0.74067175
-0.056312583 -0.4126289 0.76116574
-0.6038993 -0.25349942 0.73094845
-0.14403209 2.396696 -0.7087273
-0.28165442 -0.25663564 -0.9225326
0.72488004 -0.41407844 -0.5874593
-0.6044415 -0.2504088 -0.40165943
0.77486604 2.0961916 0.26306456
-0.1447815 -0.08462172 -0.59052914
-0.02004846 2.890389 -0.60046566
0.6780197 2.071461 -0.44814578
-0.37163612 2.7039015 0.103341915
-0.1838447 2.4048438 -0.33516914
-0.5688952 -0.09001788 -0.90952235
0.24718252 2.5011084 0.4671494
-0.8689769 2.2891095 0.16124831
-0.27831382 -0.24912728 -0.35927066
0.5194754 -0.40989926 -0.90161157
0.35189137 -0.25409645 -0.4721908
-0.71244967 -0.41823405 -0.7839902
-0.301708 -0.2553907 0.9244423
0.39509088 -0.41704485 0.22848603
-0.0050880834 2.2582316 -0.08012591
0.033749048 1.9766992 -0.51195765
0.80195796 2.9287422 0.06211612
0.71573454 -0.41685408 0.87899333
0.49540427 1.742873 -0.014755945
-0.5505666 -0.085615285 -0.316747
0.6407835 2.1837342 -0.15776809
0.5277012 3.2243135 -0.15020159
-0.10343207 2.7307172 -0.68631047
0.63948363 1.9254097 0.3164738
0.06573659 3.0398219 -0.49097463
0.89428896 -0.40728575 -0.87995577
0.5586385 2.1442506 -0.6257293
-0.7888561 2.1258702 0.25124806
0.42473224 2.4480743 0.4136823
0.53487974 -0.2524242 -0.77982926
-0.38489458 -0.0879931 -0.90788436
-0.12542531 2.0250483 -0.7663331
-0.05720308 1.9122641 0.46863204
-0.1974364 -0.2461256 0.1854777
-0.25609767 2.833302 -0.07204885
-0.073296584 2.0509403 0.7944978
0.14622441 2.413171 0.32633597
0.28833714 1.9297198 0.42421094
-0.9228619 -0.25310737 0.023120092
-0.019061739 1.839125 -0.39395797
0.09908941 2.950218 0.7859967
-0.8314459 2.815975 0.038952682
0.3817604 2.58254 -0.6441462
-0.11151069 2.3731637 0.024673374
-0.6403764 2.3986964 -0.19716188
0.57631034 2.936876 0.55322254
-0.064013384 1.7154678 0.45833248
-0.50976026 -0.41931233 0.70809996
0.7050983 2.403106 0.17701048
-0.28758517 3.1790075 -0.17374925
-0.6364597 2.1125534 -0.090443715
-0.18907934 2.761052 0.08638426
0.49554324 2.313329 -0.2657691
0.9028564 -0.08732569 0.3201381
0.2621994 -0.24873532 0.44246498
0.25076753 2.4441607 -0.30082577
-0.5623532 2.0373616 0.54157037
0.13124 3.3890867 -0.1196807
-0.024593221 1.8544403 0.6537384
0.058380272 1.7774945 -0.55593276
0.4959342 2.7493696 0.03637482
0.30365697 2.217193 0.620452
0.6177277 -0.2520941 -0.6185528
